-0.231851 0.133322 0.03742
-0.231851 -0.59684 -0.123123
-0.214835 0.53436 -0.065089
-0.214835 -0.213317 -0.043283
-0.214835 0.309369 0.030771
-0.231851 0.870308 0.128523
-0.214835 0.726655 0.124161
-0.214835 0.548894 0.083459
-0.214835 -0.777529 -0.104798
-0.214835 0.36508 -4.4e-05
-0.231851 -0.433172 0.151536
-0.214835 0.390608 0.130522
-0.214835 0.024004 0.170835
-0.214835 -0.270379 -0.105633
-0.214835 0.407182 -0.032877
-0.231851 0.468702 0.009985
-0.231851 0.594972 0.034749
-0.214835 -0.466216 0.130244
-0.214835 0.790104 -0.02773
-0.214835 0.600977 0.010809
-0.214835 0.413478 0.0534
-0.214835 0.309891 -0.097119
-0.216883 -0.247373 -0.146729
-0.231851 -0.498666 0.144641
-0.214835 -0.193087 0.133688
-0.231851 0.178893 0.008482
-0.214835 -0.439726 -0.0456
-0.214835 -0.664052 0.058974
-0.231851 0.930977 0.030963
-0.231851 -0.597527 0.114531
-0.214835 -0.611357 0.025954
-0.231851 -0.758656 0.153045
-0.231851 0.38215 0.070629
-0.231851 -0.309877 -0.125539
-0.214835 0.439613 0.132818
-0.231851 -0.077184 -0.12947
-0.231851 -0.89938 -0.059414
-0.231851 0.67992 -0.104212
-0.231851 -0.498261 0.033919
-0.231851 0.013199 -0.026865
-0.214835 -0.857664 -0.094538
-0.214835 0.420559 0.105123
-0.214835 0.427231 0.180099
-0.231851 0.660071 -0.133313
-0.214835 0.824668 -0.091694
-0.214835 -0.432741 0.009756
-0.214835 -0.633328 -0.021347
-0.214835 -0.701871 -0.130434
-0.231851 -0.894241 -0.095177
-0.231851 -0.670592 0.091899
-0.214835 -0.901445 0.116903
-0.231851 0.510751 -0.008326
-0.231851 0.804468 0.080418
-0.214835 0.329764 0.008941
-0.214835 -0.114975 0.072663
-0.231851 0.417165 0.0826
-0.231851 -0.202925 -0.135996
-0.231851 -0.669275 -0.115745
-0.214835 0.463839 -0.117217
-0.214835 0.176168 -0.003275
-0.214835 -0.216557 -0.013859
-0.231851 0.884169 -0.129148
-0.231851 0.454781 0.117561
-0.231851 -0.417614 0.059077
-0.231851 0.711459 0.117848
-0.214835 0.811552 -0.075474
-0.214835 -0.773207 -0.047059
-0.231851 -0.72917 -0.026512
-0.214835 -0.832869 0.125864
-0.214835 -0.058498 -0.106332
-0.214835 -0.432022 0.099661
-0.214835 -0.669481 -0.103833
-0.231851 0.84509 -0.032215
-0.231851 -0.182923 -0.047408
-0.231851 0.036805 0.092565
-0.231851 0.302455 -0.043556
-0.214835 0.392162 0.003824
-0.231851 -0.279052 -0.011332
-0.214835 -0.033652 0.113646
-0.231851 0.194525 0.119235
-0.231851 0.032093 -0.047169
-0.231851 0.859727 -0.109009
-0.214835 -0.025565 -0.066456
-0.231851 -0.565418 0.145626
-0.231851 0.522937 0.088717
-0.214835 -0.813516 -0.014131
-0.214835 0.774986 -0.079112
-0.214835 -0.015637 -0.009178
-0.214835 -0.336728 0.166873
-0.231851 0.219294 0.011281
-0.214835 0.517931 0.141792
-0.231851 -0.623621 0.028805
-0.231851 -0.57851 0.074965
-0.214835 -0.509809 -0.081396
-0.231851 0.603302 -0.018155
-0.231851 0.262377 -0.077744
-0.231851 0.296266 -0.121446
-0.231851 -0.756732 -0.080484
-0.214835 -0.60074 0.1402
-0.214835 -0.138207 0.083366
-0.214835 0.10791 0.09239
-0.231851 -0.403567 -0.055532
-0.231851 -0.239908 0.048322
-0.214835 -0.039076 -0.089901
-0.214835 -0.178449 -0.013288
-0.231851 -0.064071 -0.085545
-0.214835 0.518146 -0.084196
-0.231851 0.242636 0.092896
-0.214835 0.87724 0.043393
-0.231851 -0.345254 -0.144173
-0.214835 0.77053 -0.03357
-0.214835 0.469162 0.101489
-0.214835 0.306178 0.178293
-0.231851 0.148551 0.011778
-0.231851 0.858907 0.024063
-0.214835 -0.48212 0.039065
-0.231851 -0.832868 -0.131962
-0.214835 0.449329 -0.077299
-0.231851 0.61326 0.071377
-0.214835 0.18544 -0.066366
-0.214835 0.260076 0.122727
-0.231851 -0.263812 -0.043209
-0.214835 -0.031347 0.066067
-0.214835 0.732112 -0.13736
-0.231851 -0.080266 0.061702
-0.231851 -0.732814 0.159274
-0.231851 -0.45965 -0.116753
-0.214835 0.250939 -0.017594
-0.214835 -0.7732 0.07556
-0.231851 0.586258 -0.060888
-0.214835 -0.477398 0.059079
-0.231851 0.744939 -0.070856
-0.214835 -0.303459 0.003756
-0.214835 -0.619476 0.12991
-0.231851 0.050696 0.145914
-0.231851 -0.332707 0.111168
-0.214835 0.49488 -0.105504
-0.231851 0.775834 -0.060791
-0.231851 0.758945 -0.122689
-0.214835 -0.623605 0.046583
-0.214835 0.101444 0.130078
-0.214835 -0.334365 -0.093992
-0.231851 -0.192457 0.095464
-0.231851 -0.867629 0.143229
-0.231851 0.704018 0.138618
-0.214835 0.091336 -0.04292
-0.231851 0.67969 -0.12883
-0.231851 0.601869 0.125433
-0.231851 0.757787 0.146456
-0.214835 -0.935291 -0.051107
-0.231851 -0.06657 -0.057273
-0.231851 0.012241 -0.059205
-0.214835 0.355776 -0.024059
-0.214835 0.660331 -0.039904
-0.214835 0.462499 0.183625
-0.231851 0.820206 0.152023
-0.214835 0.119154 -0.028022
-0.214835 -0.507887 0.108623
-0.214835 0.090499 0.035255
-0.231851 0.129826 -0.006795
-0.214835 0.120732 -0.122439
-0.214835 -0.351481 -0.079904
-0.231851 -0.489057 -0.100368
-0.231851 -0.592 -0.028915
-0.231418 -0.10247 0.184129
-0.231851 -0.022038 0.153946
-0.214835 -0.783875 0.029728
-0.214835 0.425216 -0.106207
-0.214835 0.860101 -0.059804
-0.214835 0.560406 -0.079831
-0.231851 0.251042 0.145841
-0.231851 -0.501865 -0.137446
-0.214835 0.086315 0.092757
-0.231851 -0.56818 -0.129896
-0.214835 -0.052231 -0.054369
-0.231851 0.009271 0.155026
-0.231851 -0.894776 0.140085
-0.214835 -0.735435 0.170018
-0.214835 0.39099 -0.077209
-0.214835 0.424872 -0.047688
-0.231851 0.157259 -0.042334
-0.231851 0.042577 -0.11581
-0.214835 0.381839 0.025509
-0.214835 -0.368884 -0.041499
-0.214835 -0.891363 0.013077
-0.214835 0.296993 0.135655
-0.231851 0.264313 -0.013598
-0.231851 -0.106769 -0.076093
-0.214835 0.178799 0.164401
-0.214835 -0.091633 -0.139613
-0.214835 -0.307951 0.034965
-0.231851 -0.906683 0.081989
-0.214835 0.030474 0.147742
-0.214835 -0.65193 -0.062268
-0.231851 0.709986 0.164117
-0.231851 0.296006 0.149174
-0.231851 -0.385877 -0.014454
-0.228396 0.403549 -0.146729
-0.214835 -0.176863 0.117688
-0.231851 0.71325 0.001302
-0.231851 0.690202 0.172747
-0.214835 0.90128 -0.035891
-0.214835 0.060995 0.038455
-0.231851 0.136676 0.119829
-0.214835 0.166451 0.067399
-0.231851 0.484378 0.151658
-0.214835 0.33312 -0.121864
-0.220293 -0.425943 0.184129
-0.231851 -0.085152 0.026752
-0.231851 -0.539622 0.015957
-0.214835 -0.538522 -0.062522
-0.231851 0.070745 -0.115401
-0.214835 0.034243 0.027512
-0.231851 0.399376 0.120978
-0.231851 -0.809613 0.034505
-0.231851 -0.396498 0.039336
-0.231851 0.023748 0.139662
-0.218962 -0.486694 -0.146729
-0.218684 0.921821 -0.146729
-0.231851 0.925366 0.0528
-0.231851 0.089269 -0.004289
-0.231851 -0.02333 0.00097
-0.214835 -0.651173 0.109846
-0.214835 -0.92079 0.01615
-0.231851 0.592975 0.178717
-0.214835 0.347898 0.119601
-0.214835 0.327322 0.142783
-0.214835 -0.253364 -0.034164
-0.214835 0.283074 -0.004042
-0.214835 -0.444309 -0.024964
-0.231851 -0.088203 0.133701
-0.231851 0.482864 -0.054471
-0.214835 0.207194 -0.018197
-0.231851 -0.283671 -0.099687
-0.231851 0.15873 0.136977
-0.231851 0.811411 0.119095
-0.214835 -0.339598 0.068856
-0.231851 0.931831 -0.116772
-0.214835 -0.254248 0.174183
-0.231851 0.451555 -0.055381
-0.214835 -0.792654 0.048988
-0.231851 -0.139335 0.127276
-0.214835 0.718529 -0.00935
-0.214835 0.849551 0.022941
-0.231851 0.830034 0.10243
-0.214835 0.312295 0.085559
-0.231851 0.755711 0.092207
-0.214835 0.829737 0.023618
-0.214835 -0.451561 0.158841
-0.214835 0.870389 -0.106196
-0.214835 -0.57948 0.084228
-0.214835 -0.374488 0.163042
-0.214835 -0.728457 -0.058733
-0.231851 -0.699773 0.15032
-0.214835 0.003408 0.059589
-0.231851 -0.222964 0.102725
-0.231851 0.291484 0.007603
-0.231851 0.914399 0.009232
-0.214835 -0.20915 -0.083774
-0.231851 -0.87848 0.05142
-0.214835 0.079422 0.074722
-0.214835 -0.231864 0.130923
-0.225765 0.953069 0.066032
-0.231851 0.172185 -0.144417
-0.214835 0.266545 -0.130387
-0.227771 0.953069 0.010825
-0.214835 -0.403584 -0.068011
-0.214835 0.843115 -0.124772
-0.231851 0.036384 -0.026393
-0.231851 -0.653585 0.136543
-0.231851 -0.454872 -0.017163
-0.231851 -0.379527 0.126766
-0.231851 0.800806 -0.047998
-0.231851 0.570049 -0.008414
-0.231851 -0.706886 -0.056056
-0.231851 -0.886244 -0.131942
-0.214835 0.797567 0.152041
-0.214835 0.49531 -0.036178
-0.231851 0.250757 0.068324
-0.214835 -0.720479 -0.080785
-0.214835 0.725862 -0.049876
-0.231851 -0.768214 0.012292
-0.231851 -0.17843 -0.122028
-0.214835 0.858114 0.153003
-0.214835 -0.920699 -0.110445
-0.231851 -0.718315 -0.10259
-0.231851 -0.855839 0.100516
-0.231851 0.878524 -0.04032
-0.231851 -0.067332 0.111529
-0.214835 -0.424367 -0.063168
-0.231851 -0.20509 0.125779
-0.231851 0.399232 0.166209
-0.231851 0.244245 -0.04034
-0.214835 -0.064992 -0.133027
-0.214835 -0.754548 -0.10844
-0.231851 0.021541 0.118597
-0.214835 0.190838 0.109594
-0.214835 -0.256589 0.15044
-0.214835 0.938515 0.143
-0.231851 -0.357427 -0.048985
-0.231851 0.585814 0.054375
-0.231851 -0.453575 0.1031
-0.214835 -0.29408 -0.107047
-0.214835 -0.362684 0.124823
-0.231851 0.132238 0.05965
-0.214835 0.739291 0.023525
-0.214835 -0.443056 0.12134
-0.231851 -0.93539 -0.013278
-0.214835 -0.295781 -0.036798
-0.214835 0.554359 0.169392
-0.214835 -0.265037 0.122603
-0.214835 -0.386926 0.046452
-0.231851 0.874116 0.07576
-0.214835 -0.263147 0.101966
-0.214835 0.349179 0.035418
-0.214835 -0.612139 -0.028142
-0.214835 0.87282 -0.007679
-0.231851 -0.279057 0.072896
-0.231851 -0.51831 0.116458
-0.231851 0.529405 0.182258
-0.231851 0.058048 -0.091103
-0.214835 -0.290635 0.020487
-0.231851 0.730826 0.015811
-0.231851 -0.580128 -0.104118
-0.214835 -0.195904 -0.020704
-0.214835 -0.269946 -0.128375
-0.214835 -0.351525 -0.020033
-0.214835 -0.047951 0.018291
-0.231851 0.424227 -0.088474
-0.214835 -0.850315 -0.111992
-0.231851 0.672711 -0.054729
-0.231851 0.919247 0.070709
-0.231851 0.290527 -0.015616
-0.214835 0.269104 -0.022866
-0.231851 0.409339 0.046272
-0.231851 0.40059 0.027905
-0.214835 -0.85599 -0.013227
-0.231851 -0.457914 -0.065314
-0.231851 -0.390027 -0.141438
-0.231851 -0.823589 -0.109752
-0.214835 -0.814395 0.145478
-0.214835 0.539331 -0.003776
-0.214835 -0.670773 -0.141565
-0.231851 0.759845 0.017904
-0.214835 0.132041 0.132718
-0.231851 0.448087 0.076953
-0.214835 -0.053056 0.162209
-0.214835 0.510355 -0.000221
-0.214835 0.239819 0.114714
-0.231785 -0.518264 -0.146729
-0.214835 -0.46489 0.078606
-0.231851 0.224859 -0.070375
-0.228393 -0.937552 -0.135871
-0.231851 -0.824836 0.007846
-0.231851 -0.104729 -0.045099
-0.214835 -0.179074 0.028868
-0.231851 -0.577541 0.036262
-0.231851 -0.127465 0.085252
-0.214835 0.162554 -0.097901
-0.231851 0.120057 -0.090934
-0.231851 0.049723 -0.013055
-0.231851 0.172188 0.090168
-0.214835 0.464532 0.003258
-0.231851 -0.001752 0.022422
-0.214835 0.001068 0.086097
-0.214835 -0.82019 -0.042554
-0.214835 0.197628 -0.080522
-0.227701 0.487537 -0.146729
-0.231851 -0.351468 -0.10582
-0.214835 0.837856 -0.029733
-0.231851 0.196623 -0.034832
-0.231851 0.350145 -0.018959
-0.231851 0.698055 -0.131948
-0.231851 -0.548482 -0.045338
-0.231851 0.160519 -0.123214
-0.231851 -0.600696 -0.069604
-0.231851 0.383141 0.103794
-0.214835 -0.471258 0.171016
-0.231851 0.500378 -0.130959
-0.214835 -0.736767 0.107478
-0.231851 -0.326383 -0.026288
-0.231851 0.037711 0.058746
-0.214835 0.654542 0.064988
-0.231851 0.023013 -0.077126
-0.214835 0.453187 0.038488
-0.231851 -0.497171 0.16314
-0.231851 0.56133 -0.032788
-0.214835 -0.832871 -0.085879
-0.214835 0.790133 -0.132029
-0.231851 -0.03188 -0.088332
-0.214835 0.444598 0.016356
-0.214835 -0.096931 -0.119728
-0.231851 -0.744203 -0.065423
-0.231851 0.099966 -0.049407
-0.214835 -0.231758 -0.003298
-0.231851 -0.636737 0.147039
-0.214835 0.379609 0.170867
-0.214835 0.44456 -0.095177
-0.214835 -0.419163 -0.09937
-0.214835 -0.795283 -0.057769
-0.231851 -0.315807 0.048504
-0.214835 -0.579873 0.164271
-0.214835 -0.109383 0.014131
-0.231851 0.081998 0.108931
-0.231851 -0.367395 0.067856
-0.214835 0.25284 -0.064348
-0.231851 -0.831194 -0.011665
-0.231851 0.360133 0.06337
-0.214835 -0.909879 -0.034591
-0.214835 -0.131087 0.110991
-0.214835 0.455716 0.154917
-0.214835 0.087908 0.053972
-0.231851 -0.725529 0.084059
-0.231851 0.949118 0.134348
-0.214835 -0.524328 0.014401
-0.231344 0.311743 0.184129
-0.231851 0.791461 -0.113794
-0.231851 0.43663 -0.02461
-0.214835 0.560294 -0.110793
-0.214835 -0.303587 -0.081935
-0.231851 0.516503 0.010739
-0.231851 -0.070975 0.142182
-0.214835 0.656263 0.0834
-0.214835 0.03872 -0.104798
-0.214835 0.295811 -0.024986
-0.231851 0.501505 -0.056358
-0.231851 0.684252 0.125029
-0.231851 -0.46119 0.086492
-0.214835 -0.846929 0.114209
-0.231851 0.785518 -0.083894
-0.214835 -0.722027 0.005477
-0.214835 -0.09637 0.057768
-0.231851 0.007974 -0.126965
-0.231851 -0.190758 0.155528
-0.214835 -0.506462 0.008326
-0.231851 -0.303657 0.150504
-0.231851 0.454448 0.049218
-0.214835 0.19954 -0.144447
-0.231851 0.752114 0.074156
-0.214835 0.565991 0.002532
-0.214835 -0.039712 0.175968
-0.214835 0.922953 0.104758
-0.231851 0.713019 -0.119123
-0.214835 -0.916236 -0.139341
-0.214835 -0.130474 0.138694
-0.214835 -0.380043 -0.100356
-0.214835 0.379675 0.08633
-0.231851 0.040709 0.034942
-0.231851 -0.834888 -0.039613
-0.214835 -0.715832 -0.019437
-0.231851 0.933412 0.082082
-0.214835 -0.159005 0.089722
-0.231851 0.851918 -0.079403
-0.231851 0.634362 0.096808
-0.231851 0.919378 -0.025146
-0.214835 -0.411807 0.156364
-0.231851 -0.906137 0.154868
-0.231851 0.046893 0.122843
-0.214835 0.546096 0.111236
-0.231851 0.88434 -0.079554
-0.214835 -0.47487 -0.082971
-0.231851 0.737404 0.15197
-0.214835 -0.378896 0.012207
-0.231851 0.435141 -0.117303
-0.214835 0.500387 0.148636
-0.231851 -0.431178 0.171228
-0.231851 -0.168388 -0.026674
-0.214835 0.619022 0.009683
-0.231851 -0.493536 -0.004367
-0.214835 0.063438 0.182752
-0.231851 -0.19628 0.036391
-0.231851 0.1467 0.169565
-0.231851 0.643859 0.117388
-0.231851 -0.813759 -0.126219
-0.231851 0.662546 -0.007527
-0.214835 -0.686583 -0.117661
-0.231851 -0.777892 0.103891
-0.228574 -0.439306 -0.146729
-0.214835 0.771554 0.012757
-0.231851 -0.714595 0.024137
-0.214835 0.139211 0.161461
-0.214835 -0.461372 -0.030979
-0.214835 0.640815 -0.024006
-0.231851 -0.483011 0.016128
-0.214835 -0.763383 0.156879
-0.231851 0.769468 0.167001
-0.231851 -0.802025 0.137565
-0.231851 0.774106 0.034696
-0.231851 -0.142583 -0.008633
-0.231851 0.308534 -0.091403
-0.231851 0.51058 -0.114539
-0.214835 -0.597702 0.075468
-0.214835 -0.320615 -0.026121
-0.215888 0.786362 0.184129
-0.231851 0.538673 0.145492
-0.231851 -0.684251 0.11657
-0.214835 0.452678 0.111915
-0.231851 -0.239202 -0.068915
-0.214835 -0.565951 -0.118534
-0.231851 -0.394867 0.136608
-0.214835 0.712836 0.0357
-0.231851 -0.144754 -0.096188
-0.214835 -0.358171 -0.096551
-0.231851 -0.033982 -0.142885
-0.214835 -0.880419 -0.035601
-0.214835 -0.235444 0.019481
-0.231851 0.535867 0.118542
-0.231851 -0.595607 0.167691
-0.231851 0.661595 -0.109464
-0.214835 -0.763675 -0.003904
-0.214835 0.448882 -0.008495
-0.214835 0.941572 -0.130256
-0.214835 -0.42787 -0.032223
-0.231851 -0.471673 -0.096263
-0.231851 -0.853607 0.031516
-0.214835 0.861788 -0.023111
-0.214835 -0.87465 -0.06818
-0.231851 -0.234899 0.15775
-0.231851 0.266138 -0.050659
-0.231851 -0.454167 0.028934
-0.231851 0.550982 0.053528
-0.231851 -0.57187 0.1727
-0.231851 0.547153 -0.08619
-0.214835 0.139709 -0.074035
-0.231851 -0.025707 0.018606
-0.231851 0.889776 -0.062268
-0.231851 0.13721 -0.099641
-0.231851 0.344116 -0.138763
-0.231851 -0.6593 -0.036036
-0.231851 -0.753641 0.070216
-0.231851 0.203501 -0.119154
-0.214835 0.244439 -0.001058
-0.214835 -0.425278 0.132101
-0.214835 -0.381488 -0.01705
-0.231851 0.085054 0.166217
-0.231851 -0.67781 -0.13199
-0.231851 -0.418554 0.036983
-0.231851 0.397023 -0.12013
-0.226175 -0.324744 -0.146729
-0.214835 -0.605097 0.00937
-0.214835 0.813122 -0.11914
-0.231851 -0.029214 0.115757
-0.231851 -0.51802 0.092716
-0.231851 0.146715 -0.082247
-0.214835 0.438524 0.068085
-0.231851 0.073115 -0.133929
-0.231851 -0.644218 0.115635
-0.214835 -0.584521 -0.086517
-0.214835 0.597006 0.083332
-0.214835 0.717865 0.089298
-0.214835 -0.363844 0.095568
-0.231851 0.195261 0.156685
-0.214835 -0.45315 0.059159
-0.231851 0.285984 0.129547
-0.231851 0.418729 0.028324
-0.214835 0.401776 -0.095564
-0.214835 0.083699 -0.074153
-0.214835 0.642907 -0.065131
-0.214835 0.918097 -0.020683
-0.231851 0.275501 -0.121513
-0.214835 0.201137 -0.035783
-0.214835 0.472497 -0.074295
-0.214835 -0.403016 -0.016664
-0.231851 -0.438414 0.044629
-0.231851 0.878001 0.100746
-0.231851 0.026584 -0.009414
-0.214835 -0.289691 0.121208
-0.231851 0.413903 -0.007092
-0.214835 -0.198417 0.077279
-0.214835 0.918633 0.125641
-0.214835 0.042325 0.083654
-0.214835 0.563291 0.151764
-0.214835 -0.230711 0.061904
-0.231851 -0.553977 0.004707
-0.214835 0.064136 0.15531
-0.214835 -0.008281 0.171181
-0.231851 -0.927515 -0.070661
-0.214835 -0.651908 0.075473
-0.214835 -0.428397 -0.130073
-0.231851 -0.234766 -0.029194
-0.231851 0.334299 0.035907
-0.231851 -0.427919 0.098757
-0.214835 -0.49037 0.125087
-0.214835 0.753777 -0.028425
-0.231851 0.893677 0.177031
-0.231851 0.499669 0.088959
-0.214835 -0.742793 0.132422
-0.214835 -0.411714 0.175532
-0.231851 0.737241 0.049227
-0.216278 0.186641 0.184129
-0.231851 0.0558 -0.039572
-0.214835 -0.546377 0.015411
-0.231851 0.073522 -0.028366
-0.214835 -0.212505 0.016393
-0.231851 0.204736 0.091985
-0.214835 -0.743815 0.057159
-0.231851 0.70135 0.021536
-0.231851 0.773466 0.00412
-0.214835 -0.419853 0.085379
-0.214835 0.124653 -0.044572
-0.214835 0.490501 0.07065
-0.214835 -0.841447 0.150038
-0.231851 -0.771395 0.164925
-0.214835 0.535816 0.094951
-0.214835 0.083243 -0.091547
-0.214835 0.447847 -0.025859
-0.214835 0.026356 -0.075845
-0.231851 -0.54875 -0.069198
-0.231851 -0.217966 -0.020088
-0.214835 -0.313874 0.076488
-0.214835 0.580558 -0.081286
-0.231851 0.142115 -0.050839
-0.214835 0.632026 0.028842
-0.231851 -0.845311 -0.025311
-0.214835 -0.612088 -0.051977
-0.231851 0.519305 0.067541
-0.231851 0.810919 -0.08088
-0.214835 -0.531718 0.15082
-0.231851 -0.08131 -0.074151
-0.214835 0.540288 -0.114404
-0.231851 0.480515 0.023466
-0.214835 -0.17308 -0.137601
-0.214835 0.508939 0.058165
-0.231851 0.306132 0.025731
-0.214835 0.942584 -0.04682
-0.231851 -0.252387 0.071011
-0.214835 0.626195 -0.125297
-0.214835 0.766405 -0.01563
-0.231851 -0.581583 -0.066091
-0.214835 0.650186 0.024506
-0.231851 -0.551438 0.082826
-0.231851 0.596079 -0.097022
-0.214835 -0.160909 0.045273
-0.214835 -0.201905 0.031268
-0.214835 0.660083 -0.124446
-0.231851 0.2029 -0.085751
-0.214835 -0.524387 0.175237
-0.214835 -0.14664 0.144729
-0.214835 0.128452 0.015846
-0.231851 -0.639844 0.004988
-0.231851 0.242656 -0.097068
-0.231851 -0.039143 -0.113324
-0.231851 0.821398 0.036275
-0.231851 -0.315422 0.012434
-0.214835 0.211308 -0.097899
-0.231851 -0.540969 -0.096862
-0.222734 0.626141 0.184129
-0.214835 -0.50338 -0.059737
-0.214835 -0.000196 -0.113074
-0.231851 0.789122 0.11908
-0.231851 0.263321 0.027633
-0.231851 0.056477 0.088542
-0.231851 0.815257 -0.120465
-0.214835 -0.87928 -0.133228
-0.214835 -0.248802 -0.014831
-0.214835 0.911977 -0.114568
-0.231851 -0.065426 0.073513
-0.231851 0.325549 0.095122
-0.231851 0.074322 0.012647
-0.214835 0.733022 0.140117
-0.231851 -0.51327 0.074418
-0.231851 0.107014 -0.00039
-0.231851 0.845327 0.010911
-0.214835 -0.818638 0.060888
-0.231851 0.058113 0.169155
-0.214835 0.265599 0.02325
-0.231851 -0.116899 -0.061768
-0.231851 -0.06511 0.028178
-0.214835 0.580876 0.105869
-0.214835 -0.676026 0.031891
-0.231851 -0.76087 0.054676
-0.231851 -0.855028 0.008297
-0.231851 0.020862 0.100931
-0.231851 -0.171573 0.062886
-0.231851 -0.088413 0.097679
-0.231851 -0.70378 0.010545
-0.231851 0.326149 -0.019615
-0.231851 -0.622067 0.101343
-0.231851 0.511004 -0.042145
-0.214835 0.330246 0.165152
-0.231851 -0.40505 0.095571
-0.214835 -0.623253 -0.108359
-0.214835 -0.499522 0.065474
-0.231851 -0.121299 -0.120559
-0.214835 -0.092541 0.085533
-0.231851 0.643515 0.041508
-0.231851 -0.091859 -0.009938
-0.214835 0.212356 0.075365
-0.231851 -0.260215 0.089308
-0.231851 -0.086177 0.009739
-0.231851 0.899584 0.086864
-0.231851 -0.404694 -0.090851
-0.231851 0.867957 -0.012792
-0.214835 0.250492 0.057264
-0.214835 -0.776473 -0.070349
-0.231851 0.679574 -0.020666
-0.214835 -0.093284 -0.09324
-0.231851 -0.653701 -0.122454
-0.223932 0.112472 0.184129
-0.214835 0.268595 0.065197
-0.231851 0.862815 0.161698
-0.220288 0.284681 -0.146729
-0.231851 0.372573 0.029419
-0.214835 0.545997 -0.020584
-0.217428 0.94942 -0.146729
-0.214835 0.073405 -0.046603
-0.214835 0.119024 -0.144719
-0.214835 0.530233 0.045335
-0.231851 -0.820827 0.07321
-0.231851 0.532441 0.018944
-0.231851 -0.357842 0.028193
-0.214835 -0.133789 0.058593
-0.214835 -0.44142 -0.065784
-0.231851 0.778676 -0.101698
-0.214835 0.924492 -0.080276
-0.231851 0.81237 0.166926
-0.214835 -0.698219 -0.029805
-0.214835 -0.220044 0.1456
-0.214835 -0.180178 0.173193
-0.231851 0.129697 0.092889
-0.231851 0.529373 -0.072036
-0.231851 0.687647 0.072721
-0.231851 -0.047813 -0.081283
-0.231851 0.468974 -0.045017
-0.231851 0.463961 -0.127726
-0.214835 -0.239366 0.037222
-0.231851 0.505279 0.17605
-0.214835 0.210682 -0.049579
-0.231851 -0.057019 -0.009307
-0.231851 -0.830956 0.119054
-0.214835 -0.146978 0.101407
-0.231851 -0.351076 0.172975
-0.231851 0.173581 0.024372
-0.214835 -0.202367 0.147637
-0.231851 0.827759 0.174263
-0.231851 0.168824 -0.070354
-0.214835 0.284235 0.052042
-0.214835 0.812372 0.078518
-0.231851 0.436273 0.052762
-0.214835 0.160023 -0.025102
-0.231851 0.612113 -0.106051
-0.231851 -0.619963 -0.091978
-0.231851 -0.125342 -0.031308
-0.231851 -0.058526 0.04349
-0.214835 0.483056 -0.117192
-0.231851 0.50403 -0.090635
-0.231851 -0.158031 0.100136
-0.231851 -0.827881 0.028293
-0.231851 -0.693458 -0.016356
-0.214835 -0.321118 0.024844
-0.214835 -0.180335 -0.098551
-0.231851 0.159923 0.159527
-0.214835 0.80124 0.12674
-0.231851 -0.082999 0.116999
-0.231851 0.170274 0.179246
-0.231851 -0.100328 0.033379
-0.214835 -0.503325 0.090405
-0.221859 0.51585 0.184129
-0.231851 0.32664 0.12779
-0.231851 0.278884 -0.078919
-0.214835 0.33662 -0.041233
-0.214835 0.909952 0.001421
-0.231851 -0.635191 0.081697
-0.214835 0.686553 0.153698
-0.214835 0.146601 -0.124578
-0.229264 -0.005607 0.184129
-0.214835 0.21796 -0.137077
-0.231851 -0.290949 0.103113
-0.229576 0.467296 -0.146729
-0.231851 0.413747 -0.055867
-0.231851 -0.924901 -0.100218
-0.214835 0.014925 -0.045608
-0.231851 0.171948 -0.109133
-0.214835 0.68802 0.013855
-0.231851 0.669259 0.019765
-0.231851 0.649888 -0.018038
-0.214835 0.513198 -0.044202
-0.231851 0.165367 0.074431
-0.231851 0.085654 -0.12232
-0.231851 0.933707 -0.033192
-0.231851 0.727762 0.11592
-0.231851 -0.153199 -0.132997
-0.231851 -0.247263 -0.045805
-0.214835 -0.342449 0.085005
-0.231851 0.369595 0.146666
-0.214835 0.172662 0.143217
-0.214835 0.44776 0.176235
-0.214835 0.879941 0.084872
-0.231851 -0.189261 0.059416
-0.2311 -0.071005 -0.146729
-0.231851 -0.390284 0.001312
-0.231851 0.07124 0.095618
-0.214835 0.841335 0.116603
-0.231851 -0.924735 0.060245
-0.214835 -0.878604 0.055429
-0.231851 0.562176 0.159617
-0.231851 -0.742758 0.001131
-0.231851 -0.249339 -0.138893
-0.214835 0.320493 -0.068411
-0.231851 -0.897162 0.102646
-0.214835 0.257054 -0.080102
-0.231851 0.397218 0.064407
-0.231851 0.486872 -0.070248
-0.214835 -0.333072 0.182725
-0.214835 0.851283 0.055122
-0.214835 0.764932 0.16647
-0.231851 0.899341 0.134482
-0.214835 0.595218 0.042371
-0.231851 0.478579 -0.013136
-0.201634 -0.023139 -0.146729
-0.078272 0.302644 -0.146729
0.080068 -0.458502 -0.146729
-0.057124 -0.937552 -0.13029
0.102881 0.538948 -0.146729
0.141877 0.114799 -0.146729
0.000422 -0.153727 -0.146729
-0.012205 0.745686 -0.129714
0.009168 -0.705611 -0.129714
0.118211 0.322311 -0.146729
-0.089831 0.498952 -0.129714
-0.10176 -0.481848 -0.146729
0.117674 -0.892232 -0.146729
-0.034734 -0.323179 -0.146729
-0.124422 0.13921 -0.146729
0.140749 -0.285327 -0.146729
-0.136267 -0.782466 -0.129714
0.12731 -0.047064 -0.146729
0.093508 0.863496 -0.146729
-0.192509 -0.176251 -0.146729
0.149076 0.684318 -0.146729
0.116809 -0.603689 -0.146729
-0.159859 0.766719 -0.129714
0.014682 0.181891 -0.146729
-0.062451 -0.023322 -0.146729
0.0147 0.410693 -0.146729
-0.009412 0.612923 -0.146729
-0.174485 0.38823 -0.146729
-0.071009 -0.607132 -0.146729
0.005849 -0.830835 -0.146729
0.031126 0.058709 -0.146729
0.118386 -0.754246 -0.129714
0.122051 -0.166282 -0.129714
-0.02497 0.863284 -0.129714
0.223822 -0.647011 -0.145331
-0.111589 0.662615 -0.146729
-0.099351 -0.231907 -0.146729
0.13564 0.21981 -0.129714
0.113852 0.434793 -0.146729
-0.124753 0.867202 -0.146729
0.088862 0.764098 -0.129714
0.061167 -0.349495 -0.129714
-0.109135 -0.119727 -0.146729
0.192598 -0.520299 -0.146729
-0.016517 -0.42959 -0.146729
0.021248 0.297241 -0.146729
-0.131811 -0.387369 -0.146729
0.027943 -0.06084 -0.129714
0.191191 0.873647 -0.146729
-0.123435 -0.687664 -0.129714
-0.177812 0.535565 -0.146729
0.013929 0.504251 -0.129714
-0.061487 0.071811 -0.129714
0.15041 -0.377498 -0.146729
0.011453 -0.245389 -0.129714
-0.085846 0.399814 -0.129714
0.027069 -0.617861 -0.146729
0.029824 -0.921565 -0.146729
-0.145786 0.247529 -0.129714
-0.062271 0.218672 -0.129714
0.179575 0.497992 -0.146729
-0.019224 -0.523486 -0.146729
-0.157484 0.050608 -0.146729
-0.091124 0.582965 -0.129714
0.191149 0.757023 -0.146729
-0.07606 0.799066 -0.146729
-0.065721 -0.746662 -0.146729
0.162075 0.605512 -0.129714
-0.141032 -0.567608 -0.146729
0.174937 -0.812751 -0.146729
0.069014 -0.539607 -0.146729
-0.130965 -0.309896 -0.129714
0.123903 0.037851 -0.146729
0.08145 -0.675169 -0.146729
-0.076176 -0.828164 -0.146729
0.160444 -0.691567 -0.146729
0.163467 -0.451492 -0.129714
0.084604 -0.820614 -0.146729
0.189978 -0.227282 -0.146729
0.1847 0.27895 -0.146729
-0.018653 0.938111 -0.146729
0.067723 0.123837 -0.146729
-0.154366 0.460093 -0.146729
0.028732 0.811755 -0.129714
-0.192716 -0.710686 -0.146729
0.179198 0.403999 -0.129714
-0.049082 0.146916 -0.129714
0.146831 0.812168 -0.129714
-0.132946 -0.039674 -0.129714
0.166386 -0.109679 -0.129714
-0.038295 0.67614 -0.129714
-0.170208 -0.462286 -0.146729
0.069932 -0.121111 -0.146729
-0.053413 -0.675953 -0.146729
0.056367 0.702393 -0.146729
-0.157295 0.930063 -0.146729
0.075802 0.256188 -0.129714
0.081772 0.607701 -0.146729
0.049721 -0.76006 -0.146729
0.185125 -0.012504 -0.129714
0.16684 -0.937129 -0.129714
0.205955 0.082538 -0.129714
-0.166443 0.698332 -0.129714
-0.047598 -0.097978 -0.129714
0.195694 -0.584967 -0.129714
0.033274 0.899657 -0.129714
-0.096836 0.73804 -0.129714
-0.063988 -0.178506 -0.129714
0.065272 -0.006198 -0.129714
-0.029794 0.550313 -0.146729
-0.172828 -0.2614 -0.146729
-0.025241 0.348054 -0.146729
-0.183289 0.844575 -0.129714
-0.038808 0.444592 -0.129714
-0.171047 -0.114507 -0.129714
-0.193169 0.147812 -0.146729
-0.149854 0.600977 -0.146729
-0.053476 -0.381218 -0.129714
-0.141408 0.337254 -0.129714
-0.101755 0.023017 -0.129714
0.077452 0.187803 -0.146729
0.042341 0.560142 -0.129714
0.070744 0.480142 -0.146729
-0.192027 -0.862898 -0.146729
0.001859 0.115232 -0.146729
-0.003554 -0.003119 -0.146729
-0.069965 0.903198 -0.146729
0.17746 -0.876026 -0.146729
-0.138031 -0.629942 -0.146729
-0.00525 0.241429 -0.146729
0.059982 -0.182977 -0.146729
0.006048 -0.369613 -0.146729
-0.128375 -0.178395 -0.146729
0.056322 0.358311 -0.146729
0.193369 0.218147 -0.146729
-0.077449 -0.547391 -0.146729
0.098336 0.926141 -0.146729
0.02402 -0.481846 -0.146729
0.182721 -0.167241 -0.146729
-0.017054 -0.775709 -0.129714
0.049574 -0.294049 -0.146729
-0.197182 -0.766974 -0.129714
0.117621 -0.499926 -0.129714
-0.177437 -0.932511 -0.129714
0.209108 -0.374042 -0.129714
-0.193187 0.220599 -0.146729
0.157562 0.170256 -0.146729
0.117574 -0.334639 -0.129714
0.170594 -0.636306 -0.129714
-0.133731 0.195024 -0.146729
0.194809 -0.280764 -0.129714
0.100277 -0.405961 -0.146729
0.061495 -0.875712 -0.129714
-0.081703 -0.283213 -0.129714
-0.184309 0.305693 -0.146729
0.162924 0.548014 -0.129714
-0.148723 -0.51552 -0.129714
0.135986 0.740859 -0.146729
0.168981 0.337798 -0.129714
0.172589 -0.741891 -0.129714
0.081709 -0.937552 -0.142172
-0.088922 -0.33998 -0.146729
0.210241 0.453108 -0.146729
-0.07581 -0.434126 -0.146729
0.194599 0.931611 -0.146729
0.125841 0.382326 -0.146729
-0.132145 0.809127 -0.146729
-0.115949 0.079141 -0.129714
-0.16196 0.106203 -0.129714
0.18202 -0.329016 -0.146729
0.137455 -0.224655 -0.146729
0.022464 -0.557145 -0.129714
-0.117214 -0.934542 -0.146729
-0.18429 -0.381511 -0.129714
-0.125335 -0.834056 -0.129714
-0.063794 0.627505 -0.129714
0.125335 0.270638 -0.146729
-0.176282 -0.811332 -0.146729
-0.173602 0.64726 -0.129714
-0.015763 -0.595141 -0.129714
0.034573 -0.425352 -0.146729
-0.094344 0.447351 -0.146729
-0.128126 0.532708 -0.129714
-0.027983 0.798329 -0.129714
-0.021844 -0.206098 -0.146729
-0.04473 0.026719 -0.146729
-0.043278 -0.482148 -0.129714
0.139484 0.87546 -0.129714
-0.005929 -0.659253 -0.146729
0.132577 0.492159 -0.129714
0.123908 0.635116 -0.146729
-0.079895 0.853107 -0.129714
-0.039816 0.504619 -0.129714
0.100086 0.811134 -0.146729
-0.085798 -0.066122 -0.129714
0.001924 -0.099542 -0.146729
0.133821 -0.84534 -0.146729
0.116062 -0.114839 -0.129714
-0.195726 0.582533 -0.146729
0.196067 0.815521 -0.129714
0.189375 0.039441 -0.146729
-0.155086 0.004542 -0.129714
0.060809 0.427547 -0.146729
-0.138167 -0.731209 -0.146729
0.041015 0.754636 -0.129714
0.073059 -0.590857 -0.129714
0.099451 0.687992 -0.129714
0.039924 0.219645 -0.129714
-0.028945 -0.265754 -0.146729
-0.128567 0.293894 -0.146729
-0.093807 -0.646078 -0.129714
-0.085178 -0.889669 -0.129714
0.076129 -0.061582 -0.129714
-0.110666 0.922546 -0.129714
0.109461 0.150423 -0.146729
-0.136431 -0.432129 -0.129714
0.065015 -0.7179 -0.129714
-0.167108 -0.668165 -0.129714
0.193207 0.712513 -0.129714
-0.039661 0.400163 -0.146729
0.177328 -0.056206 -0.146729
-0.161566 -0.213941 -0.146729
0.117977 -0.703765 -0.129714
-0.136832 0.419567 -0.129714
-0.195185 0.487097 -0.129714
0.067699 0.652743 -0.146729
-0.086731 0.258881 -0.129714
0.075615 0.302549 -0.146729
-0.025109 -0.045796 -0.129714
-0.089482 0.17014 -0.146729
-0.189278 -0.06463 -0.129714
-0.036758 0.282099 -0.146729
-0.08909 0.35645 -0.146729
-0.079301 0.69881 -0.146729
-0.171198 0.885689 -0.146729
-0.214835 0.339846 -0.14525
0.12925 -0.647784 -0.146729
0.151265 -0.550667 -0.146729
0.098725 -0.290377 -0.129714
-0.202333 0.059758 -0.146729
0.164862 0.449804 -0.146729
0.045494 0.855872 -0.129714
-0.029749 0.189524 -0.146729
0.196299 -0.417262 -0.129714
0.031079 -0.797781 -0.129714
0.014686 -0.321976 -0.146729
0.19078 0.124473 -0.129714
-0.160765 -0.342773 -0.129714
0.037318 0.624675 -0.129714
0.040612 -0.672553 -0.129714
0.032546 0.464049 -0.129714
-0.201349 0.42009 -0.129714
0.068897 -0.498787 -0.129714
-0.081661 -0.709261 -0.129714
0.080113 0.032867 -0.146729
-0.188489 0.265293 -0.129714
0.075943 -0.631291 -0.146729
-0.019976 0.077085 -0.146729
-0.124986 -0.267558 -0.146729
0.210019 0.536363 -0.146729
0.141556 0.918885 -0.146729
0.223822 0.900461 -0.135045
-0.072955 0.543483 -0.146729
-0.111503 -0.594642 -0.129714
0.207124 -0.710907 -0.146729
-0.059502 -0.786182 -0.129714
-0.189046 -0.497409 -0.129714
0.211045 -0.127647 -0.129714
-0.131314 0.716904 -0.146729
0.02252 -0.196164 -0.129714
0.132952 0.578515 -0.146729
0.019319 -0.874658 -0.146729
-0.141521 -0.083315 -0.129714
0.017767 0.710167 -0.129714
-0.013377 0.474428 -0.146729
-0.171027 -0.592654 -0.129714
0.186076 0.649086 -0.146729
0.076665 0.391616 -0.129714
0.104171 -0.004944 -0.146729
0.160235 -0.493613 -0.129714
-0.008676 -0.924923 -0.129714
-0.031328 -0.717442 -0.129714
0.056704 0.524361 -0.146729
0.103601 0.10993 -0.129714
0.028112 0.018699 -0.129714
-0.008293 0.040659 -0.129714
0.027103 0.937402 -0.146729
-0.031089 -0.840415 -0.129714
0.052737 -0.38781 -0.146729
-0.214835 0.671515 -0.137391
-0.197322 0.739864 -0.129714
0.194873 0.586502 -0.146729
-0.095243 -0.377341 -0.129714
-0.199243 0.802713 -0.129714
0.019662 0.338501 -0.146729
0.042264 -0.146474 -0.129714
-0.038697 0.719141 -0.146729
0.197972 -0.479476 -0.146729
-0.119915 0.767505 -0.146729
0.125806 -0.936152 -0.129714
-0.076565 0.109964 -0.129714
0.113604 -0.791248 -0.146729
-0.103671 0.216927 -0.129714
-0.117748 0.625941 -0.129714
0.034755 0.256401 -0.146729
0.162602 -0.25544 -0.129714
-0.202225 -0.136767 -0.146729
0.004966 0.841686 -0.146729
-0.097765 -0.771536 -0.146729
0.200553 0.372517 -0.146729
-0.152745 0.162637 -0.129714
0.041978 0.157297 -0.129714
-0.150352 0.503508 -0.146729
-0.065701 0.760024 -0.146729
0.106595 -0.564629 -0.146729
-0.196236 0.019317 -0.146729
-0.045143 -0.632954 -0.129714
0.03089 -0.521565 -0.146729
0.140334 -0.418496 -0.129714
0.206835 -0.937552 -0.136146
0.068952 -0.256724 -0.146729
0.093244 -0.205145 -0.146729
0.129565 -0.463178 -0.146729
0.160544 -0.7761 -0.146729
-0.137887 -0.476972 -0.129714
0.156039 -0.585702 -0.129714
-0.116626 -0.530219 -0.146729
-0.20328 0.934367 -0.146729
0.212831 -0.1955 -0.146729
-0.028266 0.904281 -0.129714
-0.178548 -0.312445 -0.146729
0.096861 -0.853517 -0.129714
0.170472 0.244766 -0.129714
0.039549 -0.839984 -0.129714
-0.119568 0.474001 -0.129714
-0.064856 0.942376 -0.129714
0.016449 -0.739646 -0.146729
0.116205 0.184557 -0.129714
-0.010086 0.15752 -0.129714
0.154184 0.01049 -0.129714
0.100055 0.726901 -0.146729
0.107909 -0.081237 -0.146729
-0.024359 -0.561805 -0.146729
0.149107 0.305064 -0.129714
-0.038526 0.316435 -0.129714
0.197679 0.18013 -0.146729
-0.102557 -0.011177 -0.146729
-0.173491 0.350108 -0.146729
0.199487 -0.768847 -0.129714
-0.141482 0.378906 -0.129714
0.215057 0.307577 -0.146729
-0.161373 0.568956 -0.129714
-0.142746 -0.143189 -0.146729
0.132221 0.076766 -0.146729
-0.047978 -0.901127 -0.146729
0.007613 0.543619 -0.146729
-0.173012 -0.422423 -0.129714
0.017595 0.77899 -0.146729
0.070771 0.904072 -0.129714
0.078784 0.574382 -0.129714
-0.035529 0.112068 -0.146729
0.091963 -0.151987 -0.146729
0.143946 -0.079784 -0.129714
0.148649 -0.193323 -0.129714
0.140009 -0.812653 -0.129714
-0.077025 -0.509832 -0.146729
-0.163651 -0.842035 -0.129714
0.065169 0.82404 -0.146729
0.214872 0.617892 -0.146729
0.014741 -0.280949 -0.146729
0.189196 -0.668503 -0.129714
0.223822 0.862164 -0.13121
0.041579 -0.231619 -0.146729
-0.100645 -0.855993 -0.146729
0.050687 0.090959 -0.146729
-0.102694 -0.413534 -0.129714
0.171774 0.079279 -0.146729
0.092044 0.504694 -0.129714
-0.033252 -0.127137 -0.146729
0.085049 0.219355 -0.129714
0.186234 -0.844794 -0.129714
-0.169341 0.425005 -0.146729
-0.015126 0.646043 -0.129714
-0.169045 -0.75049 -0.146729
0.086973 -0.901715 -0.129714
0.045327 -0.457984 -0.129714
-0.045179 0.583083 -0.146729
0.166418 0.847304 -0.146729
0.096322 0.353087 -0.146729
-0.049737 0.843146 -0.146729
-0.129872 0.565308 -0.146729
0.168176 0.901751 -0.129714
-0.073648 -0.148426 -0.146729
-0.05223 -0.865567 -0.146729
0.075862 -0.318014 -0.146729
0.148116 0.51916 -0.146729
0.223822 -0.681962 -0.134766
-0.022688 -0.398764 -0.129714
0.040424 -0.02483 -0.146729
0.211303 0.418881 -0.129714
-0.009459 0.687585 -0.146729
0.001961 0.446493 -0.129714
0.132821 0.771562 -0.129714
-0.099797 -0.808336 -0.129714
0.091505 -0.376442 -0.129714
-0.16874 -0.041728 -0.146729
-0.034589 0.250364 -0.129714
-0.070475 0.006207 -0.129714
0.06143 -0.794285 -0.146729
-0.124109 -0.214122 -0.129714
-0.135995 0.902469 -0.146729
0.167313 0.782415 -0.146729
0.145876 -0.912594 -0.146729
-0.196172 0.1124 -0.129714
0.013259 0.372647 -0.146729
-0.156063 -0.701465 -0.146729
-0.018774 -0.464183 -0.146729
-0.081916 -0.1028 -0.129714
0.157219 -0.03381 -0.129714
0.118623 -0.253636 -0.146729
0.004498 0.213004 -0.129714
0.050674 0.285916 -0.129714
-0.085338 -0.919635 -0.146729
0.114485 0.842107 -0.129714
-0.023024 -0.176172 -0.129714
0.10439 0.472823 -0.146729
0.053292 -0.08735 -0.129714
0.206568 0.249981 -0.146729
-0.107769 0.315332 -0.129714
-0.183844 -0.621264 -0.146729
-0.048514 -0.518782 -0.129714
-0.156034 0.214989 -0.129714
-0.115209 0.692115 -0.129714
-0.087512 -0.675434 -0.146729
-0.008288 0.297317 -0.129714
0.08081 -0.742841 -0.146729
-0.145435 0.666323 -0.146729
0.147158 -0.343643 -0.146729
0.004089 0.902971 -0.146729
-0.032611 -0.007096 -0.129714
-0.055829 0.468469 -0.146729
-0.05448 -0.577348 -0.146729
-0.193078 0.710501 -0.146729
-0.083153 0.045625 -0.146729
-0.015503 -0.349864 -0.129714
-0.038 -0.81202 -0.146729
0.147931 0.416844 -0.129714
0.212872 -0.163511 -0.129714
0.070975 0.729023 -0.129714
0.107376 0.592449 -0.129714
-0.190125 0.623312 -0.146729
0.190998 0.68354 -0.146729
-0.095489 0.141828 -0.129714
0.157667 -0.313381 -0.129714
-0.124003 0.048317 -0.146729
-0.154913 0.733355 -0.129714
-0.10625 0.821621 -0.129714
0.151003 -0.156938 -0.146729
0.048155 0.393913 -0.146729
-0.111789 0.108437 -0.146729
-0.064118 0.431385 -0.146729
-0.181286 0.179557 -0.129714
0.015362 0.738667 -0.146729
-0.195216 -0.672209 -0.146729
-0.063157 -0.255836 -0.129714
-0.011275 0.571759 -0.129714
-0.065592 0.65578 -0.146729
-0.156179 0.302625 -0.129714
0.139535 0.952908 -0.146729
-0.148503 0.832066 -0.129714
-0.189056 0.454765 -0.129714
0.169036 -0.404622 -0.146729
-0.101228 0.893094 -0.146729
-0.052246 -0.297679 -0.129714
0.075868 0.451138 -0.129714
-0.153685 -0.917751 -0.146729
0.182525 -0.365384 -0.146729
-0.11158 -0.722299 -0.129714
0.030138 0.585164 -0.146729
-0.063794 -0.211126 -0.129714
-0.051193 -0.446973 -0.129714
0.099484 0.280774 -0.129714
-0.012679 0.511964 -0.146729
-0.198643 -0.09743 -0.129714
-0.193207 -0.350952 -0.146729
0.101299 -0.037898 -0.129714
-0.12024 0.950293 -0.146729
-0.148196 -0.866731 -0.146729
0.023492 -0.347924 -0.129714
0.142253 0.343816 -0.146729
0.097043 0.640443 -0.129714
-0.061641 0.339557 -0.146729
0.010743 -0.411894 -0.129714
-0.020813 0.8297 -0.129714
-0.109851 -0.455769 -0.129714
0.156051 0.038134 -0.146729
-0.202157 -0.897884 -0.146729
-0.188179 0.777883 -0.146729
0.156863 0.723491 -0.129714
-0.054902 0.179308 -0.129714
0.108632 -0.630347 -0.129714
-0.006876 -0.494096 -0.146729
0.140145 0.141664 -0.129714
0.209542 0.783006 -0.146729
0.121823 0.711122 -0.129714
0.048903 -0.579094 -0.146729
0.207875 -0.02702 -0.146729
-0.1842 -0.52382 -0.146729
0.21114 0.014746 -0.146729
-0.039891 -0.232231 -0.146729
-0.123962 0.357612 -0.146729
0.138144 0.451901 -0.129714
0.223822 -0.468181 -0.132207
0.052263 0.67601 -0.129714
0.192736 -0.105382 -0.146729
0.091499 -0.706589 -0.146729
0.087558 -0.429335 -0.129714
-0.094435 -0.306545 -0.146729
-0.120829 0.238495 -0.146729
-0.120118 0.172255 -0.129714
-0.04502 -0.352967 -0.146729
-0.214835 -0.842173 -0.140334
0.017329 -0.646633 -0.129714
-0.142728 -0.24158 -0.146729
-0.003803 -0.623861 -0.146729
-0.102583 -0.183997 -0.129714
-0.025842 -0.743185 -0.146729
-0.198188 -0.581245 -0.146729
0.007111 -0.442979 -0.129714
0.114727 -0.433693 -0.146729
0.147277 -0.714683 -0.129714
-0.097997 0.552464 -0.129714
-0.114855 -0.898872 -0.146729
-0.023073 -0.080863 -0.146729
-0.003765 -0.855362 -0.129714
-0.132803 -0.663365 -0.146729
0.155616 0.391192 -0.146729
-0.196448 -0.241222 -0.146729
0.195995 -0.61843 -0.129714
0.057193 0.774945 -0.146729
0.167494 -0.608994 -0.146729
0.207945 0.838569 -0.146729
0.043089 0.115688 -0.129714
-0.0064 -0.128776 -0.129714
0.116818 -0.371225 -0.146729
0.154255 -0.666562 -0.129714
-0.119989 -0.333198 -0.146729
0.167089 0.202178 -0.146729
-0.055357 0.784085 -0.129714
0.133701 0.547832 -0.146729
-0.101839 -0.144188 -0.129714
0.204201 -0.879093 -0.129714
-0.188112 -0.205992 -0.129714
-0.068374 -0.646017 -0.146729
-0.016059 -0.688118 -0.146729
0.031712 0.429578 -0.129714
-0.127321 0.445979 -0.146729
0.025691 -0.108185 -0.129714
-0.102975 0.284644 -0.129714
-0.104511 0.418643 -0.146729
-0.146367 -0.289197 -0.146729
0.103981 0.244838 -0.129714
-0.187352 -0.28745 -0.129714
0.167711 -0.9004 -0.129714
-0.081501 0.1993 -0.146729
0.08539 0.953069 -0.14217
0.185108 0.31154 -0.146729
0.084309 -0.784399 -0.129714
-0.202249 -0.933494 -0.146729
0.177153 -0.20296 -0.129714
-0.10912 0.514499 -0.146729
-0.111057 -0.567092 -0.146729
0.078463 -0.027039 -0.146729
-0.115328 -0.754302 -0.129714
-0.214835 -0.559272 -0.1352
0.111298 -0.676495 -0.146729
0.119428 0.518957 -0.129714
-0.155902 -0.541738 -0.146729
0.181123 0.529101 -0.146729
-0.165807 0.274355 -0.146729
-0.109034 -0.058613 -0.146729
-0.038569 0.759517 -0.129714
0.109282 0.21675 -0.146729
-0.122568 -0.364833 -0.129714
-0.137322 -0.812881 -0.146729
0.028816 -0.166741 -0.146729
0.108849 0.665495 -0.146729
0.026383 0.091122 -0.129714
0.050092 0.879725 -0.146729
-0.165001 0.130274 -0.146729
0.078632 0.538586 -0.129714
-0.05305 -0.706741 -0.146729
-0.16562 0.082271 -0.146729
-0.170554 -0.153273 -0.146729
-0.083558 0.46901 -0.129714
-0.18807 0.679945 -0.146729
0.170664 -0.281879 -0.146729
0.017276 -0.015374 -0.129714
-0.131184 -0.003853 -0.146729
-0.206733 -0.443856 -0.146729
-0.203245 -0.795817 -0.129714
0.02426 -0.769165 -0.129714
0.213471 0.502004 -0.146729
-0.043696 -0.14873 -0.129714
-0.051088 0.819207 -0.129714
-0.015617 -0.291958 -0.146729
0.172946 -0.132735 -0.146729
0.005057 -0.583268 -0.146729
0.047389 -0.325087 -0.146729
0.001753 -0.807294 -0.129714
-0.020007 0.775853 -0.146729
0.093257 0.40872 -0.146729
0.073803 0.061458 -0.146729
-0.024259 0.218261 -0.146729
0.123916 0.902919 -0.129714
-0.078154 -0.479135 -0.129714
0.223822 -0.402709 -0.144103
-0.170072 0.804192 -0.129714
-0.150311 -0.364771 -0.146729
0.165706 0.937315 -0.129714
0.223822 0.273533 -0.140164
0.116871 -0.204281 -0.129714
-0.084789 -0.583079 -0.129714
-0.204847 0.090004 -0.146729
-0.005804 0.399051 -0.129714
-0.164786 -0.079583 -0.146729
-0.141287 0.023588 -0.146729
-0.205887 0.394492 -0.146729
-0.10582 0.387537 -0.146729
0.007341 0.639341 -0.146729
0.087625 0.831366 -0.129714
-0.044217 0.887185 -0.146729
-0.203361 0.283963 -0.146729
-0.044465 -0.417737 -0.129714
-0.07147 0.14046 -0.146729
0.165268 0.576849 -0.129714
0.014705 0.868819 -0.146729
0.004275 0.932929 -0.129714
0.10344 0.075278 -0.146729
0.169978 0.13487 -0.146729
-0.034201 -0.653935 -0.146729
0.030249 0.534049 -0.129714
-0.146097 -0.753261 -0.129714
0.091504 -0.099992 -0.129714
0.004991 -0.898787 -0.129714
0.065032 -0.852984 -0.146729
0.090085 0.168635 -0.129714
0.052608 -0.211517 -0.129714
0.177832 0.475144 -0.129714
0.199602 -0.797364 -0.129714
-0.138604 0.073146 -0.146729
0.053611 0.013475 -0.146729
-0.082146 -0.396064 -0.146729
0.011432 -0.50966 -0.129714
-0.17618 0.605277 -0.129714
0.151783 0.625829 -0.146729
0.027439 -0.083599 -0.146729
-0.211024 0.002022 -0.129714
0.120423 -0.143658 -0.146729
0.145007 -0.611845 -0.129714
-0.090095 0.677826 -0.129714
-0.093757 -0.74272 -0.146729
-0.170166 -0.789551 -0.129714
0.138579 -0.112661 -0.146729
0.06443 0.938715 -0.129714
0.219552 0.698325 -0.146729
0.206955 -0.450884 -0.146729
-4.1e-05 -0.226095 -0.146729
0.102006 -0.483792 -0.146729
-0.148781 -0.111673 -0.146729
0.214778 -0.853201 -0.146729
0.070132 0.15188 -0.146729
-0.177556 0.920539 -0.129714
0.159947 0.265641 -0.146729
0.110456 0.771385 -0.146729
-0.158129 -0.487613 -0.146729
0.16927 -0.087563 -0.146729
-0.167157 0.241197 -0.146729
-0.118443 -0.099478 -0.129714
0.179821 0.730289 -0.146729
-0.127503 0.739055 -0.129714
-0.177507 -0.008942 -0.146729
-0.041229 -0.759218 -0.129714
-0.150402 -0.181326 -0.129714
0.138162 0.190413 -0.146729
0.09648 -0.255231 -0.129714
0.02351 -0.595591 -0.129714
0.190702 0.159077 -0.129714
0.195408 0.895446 -0.129714
0.064054 -0.897704 -0.146729
0.046802 0.917646 -0.146729
0.096781 -0.766153 -0.146729
-0.08742 0.604747 -0.146729
0.069805 -0.561628 -0.129714
-0.142271 -0.589605 -0.129714
0.063382 0.223344 -0.146729
0.016904 0.479441 -0.146729
-0.064125 0.277496 -0.146729
-0.061766 0.524647 -0.129714
-0.143754 -0.937552 -0.130045
-0.062702 -0.113816 -0.146729
0.114979 0.411355 -0.129714
-0.022844 0.420908 -0.129714
0.007069 -0.541625 -0.146729
-0.005291 -0.036607 -0.146729
0.041921 0.730854 -0.146729
0.168122 0.704797 -0.146729
-0.204034 0.530962 -0.129714
-0.184697 0.506226 -0.146729
0.043861 -0.723142 -0.146729
-0.171176 0.7481 -0.146729
-0.063183 0.489884 -0.129714
-0.214835 0.47423 -0.144214
-0.096027 -0.624466 -0.146729
-0.040696 0.058867 -0.146729
0.132807 -0.867033 -0.129714
0.161508 0.761512 -0.129714
-0.182852 -0.72995 -0.129714
-0.207019 0.849199 -0.146729
-0.205054 0.243331 -0.129714
0.044646 0.48873 -0.129714
0.214993 0.225946 -0.129714
-0.148743 0.482013 -0.129714
0.003957 -0.780251 -0.146729
-0.038205 0.654686 -0.146729
0.105128 -0.814384 -0.129714
0.087486 -0.184499 -0.129714
0.21179 -0.599068 -0.146729
0.17578 0.808752 -0.146729
0.191678 0.437878 -0.129714
-0.061915 0.043464 -0.129714
0.188345 -0.700791 -0.129714
0.112014 0.942427 -0.129714
0.013668 0.258729 -0.129714
-0.151335 -0.406291 -0.146729
0.061344 0.044309 -0.129714
0.106982 0.881664 -0.129714
-0.029713 -0.922505 -0.146729
0.177846 -0.545186 -0.146729
-0.149896 -0.26146 -0.129714
0.222039 -0.576809 -0.129714
-0.205588 -0.471845 -0.129714
0.212782 -0.913326 -0.146729
-0.068294 -0.335651 -0.129714
-0.087038 0.83013 -0.146729
-0.185155 -0.691083 -0.129714
-0.011951 0.099406 -0.129714
-0.120965 0.264472 -0.129714
-0.041224 -0.612371 -0.146729
-0.058622 0.725569 -0.129714
0.140292 0.840774 -0.146729
0.218723 0.813902 -0.146729
-0.067177 -0.460376 -0.146729
-0.050123 0.609535 -0.146729
-0.088534 0.238121 -0.146729
0.059047 -0.049689 -0.146729
0.071309 -0.149617 -0.129714
-0.203889 0.638855 -0.129714
0.063763 0.617948 -0.129714
0.03946 0.659792 -0.146729
-0.131688 0.113981 -0.129714
-0.190872 0.821556 -0.146729
-0.081392 0.323017 -0.129714
0.179405 0.019282 -0.129714
0.103333 0.037211 -0.129714
-0.123299 0.598237 -0.146729
0.172104 0.370239 -0.146729
-0.164923 -0.629135 -0.129714
0.0391 -0.819512 -0.146729
0.188835 -0.9166 -0.129714
-0.176455 0.474923 -0.146729
0.045076 -0.627532 -0.129714
0.187134 0.777536 -0.129714
-0.08134 -0.792418 -0.146729
0.048938 0.794525 -0.129714
0.162253 -0.513864 -0.146729
0.117559 0.300157 -0.129714
-0.03275 -0.499756 -0.146729
0.099358 0.382473 -0.146729
0.129637 -0.557676 -0.129714
-0.193938 -0.406159 -0.129714
0.08609 0.890898 -0.146729
-0.083555 -0.172888 -0.146729
0.002689 -0.079392 -0.129714
-0.001902 0.794549 -0.129714
0.041616 0.313952 -0.146729
-0.188348 0.336558 -0.129714
0.151088 0.096953 -0.129714
-0.096445 -0.514871 -0.129714
0.085423 -0.335591 -0.129714
-0.067441 0.868764 -0.146729
0.199829 0.398696 -0.146729
-0.142339 0.685989 -0.129714
-0.214835 -0.191001 -0.136162
0.084365 0.01345 -0.129714
-0.138053 0.934902 -0.129714
-0.034498 0.530205 -0.129714
-0.061779 -0.848241 -0.129714
0.073577 0.328543 -0.146729
-0.036989 -0.028919 -0.146729
0.081053 0.78544 -0.146729
0.002152 0.356343 -0.129714
0.169059 0.420918 -0.146729
-0.145103 0.274263 -0.129714
0.048275 -0.914659 -0.129714
-0.196644 -0.641536 -0.129714
0.196864 0.60997 -0.129714
0.06455 -0.410983 -0.146729
0.039971 0.347397 -0.129714
0.069434 0.096865 -0.129714
0.153193 -0.733426 -0.146729
-0.021894 -0.101646 -0.129714
0.147305 0.479282 -0.146729
-0.067651 0.562309 -0.129714
0.098867 -0.453505 -0.129714
0.152517 0.890233 -0.146729
0.013291 0.320144 -0.129714
0.017334 0.126973 -0.129714
0.031791 -0.312784 -0.129714
0.034819 0.51069 -0.146729
-0.043472 0.369185 -0.146729
0.077801 -0.656146 -0.129714
0.095679 -0.878809 -0.146729
0.170371 0.827327 -0.129714
-0.156728 -0.309736 -0.129714
0.087328 0.703052 -0.146729
-0.173719 0.20374 -0.146729
-0.006794 -0.739948 -0.129714
0.21465 -0.32607 -0.129714
0.073404 -0.36981 -0.146729
0.112456 -0.657246 -0.129714
0.161922 -0.232454 -0.146729
0.004146 0.02602 -0.146729
-0.00962 0.138347 -0.146729
-0.207007 0.914184 -0.129714
-0.162929 0.844667 -0.146729
-0.119512 -0.625066 -0.129714
-0.140487 -0.450817 -0.146729
-0.115786 -0.494837 -0.129714
-0.111 -0.430747 -0.146729
-0.012208 0.37513 -0.146729
0.053213 0.17274 -0.146729
-0.149635 0.638335 -0.129714
0.172966 0.05737 -0.129714
0.055258 -0.693504 -0.129714
-0.05253 0.09299 -0.146729
0.223822 0.175622 -0.140493
-0.177507 0.721446 -0.129714
-0.001364 0.76877 -0.129714
-0.049554 -0.552338 -0.146729
-0.041518 -0.690727 -0.129714
-0.165683 0.672891 -0.129714
0.1023 -0.926415 -0.129714
0.017423 -0.384725 -0.129714
0.132357 -0.774071 -0.146729
-0.026586 0.128715 -0.129714
-0.039137 0.206627 -0.129714
0.049389 -0.480539 -0.146729
0.198786 0.4902 -0.129714
0.195446 -0.144484 -0.146729
-0.047956 0.702546 -0.129714
