-0.019331 0.705231 -0.139521
0.588718 0.728735 -0.145464
0.538891 0.705231 0.038423
0.089629 0.71995 -0.303591
0.60389 0.705231 0.127254
-0.387777 0.705231 0.064702
-0.173175 0.728735 0.038814
0.286931 0.705231 -0.121642
0.261042 0.705231 0.120422
-0.124648 0.728735 -0.252472
0.399793 0.728735 0.078804
0.438691 0.705231 -0.040532
0.561677 0.728735 -0.086932
0.260235 0.728735 -0.063541
-0.098588 0.728735 0.20154
0.160211 0.728735 0.043699
-0.348986 0.705231 0.174933
-0.189388 0.728735 -0.244124
-0.426597 0.728735 0.111384
-0.444411 0.705231 -0.207425
0.472883 0.728735 -0.240043
0.141445 0.728735 0.216446
-0.387798 0.705231 -0.108623
-0.600058 0.705231 0.040375
-0.113542 0.728735 0.004576
-0.405053 0.705231 0.002026
-0.309278 0.728735 -0.025032
0.244178 0.705231 -0.257693
0.6648 0.721059 -0.226995
0.313339 0.705231 -0.233856
-0.328319 0.705231 -0.14175
0.379891 0.705231 -0.050705
-0.527888 0.728735 0.060903
0.472323 0.728735 0.007628
0.606852 0.728735 3.6e-05
-0.214989 0.705231 -0.164037
-0.680957 0.728735 0.129434
-0.62419 0.705231 0.122506
0.240792 0.728735 0.058065
-0.466854 0.728735 0.194779
0.044787 0.728735 -0.256101
-0.742638 0.705231 -0.138548
-0.372004 0.723371 -0.303591
-0.554951 0.728735 -0.053106
0.599887 0.728735 0.075678
0.654122 0.728735 -0.166069
-0.668845 0.728735 -0.184378
0.55891 0.705231 -0.199724
0.128652 0.728735 -0.00656
0.031902 0.728735 0.043662
0.617888 0.728735 -0.072267
-0.591795 0.705231 0.213211
0.278215 0.728735 -0.295163
-0.058231 0.728735 -0.002974
0.388736 0.728735 -0.163439
-0.013998 0.728735 -0.268415
0.473291 0.705231 -0.19059
-0.280307 0.728735 -0.254159
-0.565671 0.728735 -0.186923
-0.017807 0.705231 0.202804
0.097362 0.705231 -0.092331
0.169935 0.705231 -0.1243
-0.60228 0.717494 -0.303591
-0.031115 0.705231 -0.04657
-0.643361 0.728735 -0.233265
-0.436055 0.728735 -0.103259
0.175383 0.728735 -0.252496
-0.504326 0.705231 0.008038
0.6648 0.723969 0.093788
0.514958 0.728735 0.20413
0.07219 0.705231 -0.194892
0.447961 0.705231 0.178869
-0.647055 0.705231 -0.079112
0.606306 0.728735 0.177663
-0.359703 0.705231 -0.024599
0.015084 0.728735 -0.048391
-0.178742 0.705231 0.150056
-0.039342 0.728735 -0.188262
0.466108 0.705231 -0.139798
-0.668358 0.728735 0.027143
-0.280678 0.728735 0.052641
0.035985 0.728735 -0.136562
0.359818 0.705231 0.047019
-0.13929 0.705231 -0.148646
-0.594253 0.705231 -0.025949
-0.051308 0.728735 -0.109414
-0.608776 0.728735 -0.142211
0.335151 0.705231 -0.133007
0.6648 0.723408 0.198512
-0.063694 0.728735 0.112068
-0.702054 0.728735 0.066152
-0.20456 0.705231 -0.055011
-0.529334 0.728735 0.12763
-0.27217 0.728735 0.157919
-0.740571 0.705231 -0.032708
-0.489898 0.728735 0.091217
-0.289098 0.728735 -0.179211
-0.138081 0.728735 0.167343
0.652213 0.728735 -0.017334
-0.690119 0.728735 -0.244677
0.47718 0.728735 0.123488
0.284914 0.705231 -0.181683
-0.288146 0.705231 0.010876
0.575695 0.705231 -0.040381
0.499186 0.705231 -0.039082
-0.53862 0.728735 -0.234456
-0.117503 0.728735 -0.088542
-0.462291 0.728735 -0.063198
0.510033 0.728735 0.071512
-0.135847 0.705231 0.084306
-0.323839 0.705231 0.081035
-0.246333 0.728735 -0.2057
0.540218 0.728735 0.161043
0.062665 0.728735 0.148099
-0.033441 0.705231 0.029235
-0.267718 0.705231 -0.09738
-0.115744 0.705231 -0.207192
0.319984 0.728735 0.161499
0.112274 0.728735 -0.201666
-0.118647 0.728735 -0.042206
-0.498197 0.716975 -0.303591
-0.696097 0.728735 -0.090118
0.383272 0.728735 -0.106298
0.233998 0.728735 0.148881
-0.443604 0.705231 0.158604
-0.214309 0.705231 0.094161
0.343757 0.728735 0.088805
-0.168551 0.728735 -0.077663
0.246705 0.728735 0.194009
0.439078 0.728735 -0.169847
-0.505639 0.705231 0.194352
-0.499106 0.728735 -0.098975
0.308084 0.728735 -0.021641
0.6648 0.726835 -0.06087
-0.194945 0.728735 0.199903
0.305592 0.728735 0.114729
-0.306624 0.705231 0.127968
0.420229 0.728735 0.208631
0.513629 0.705231 -0.210502
0.071381 0.705231 -0.049642
-0.745444 0.726505 0.195465
-0.463822 0.728735 -0.246697
-0.497136 0.728735 -0.161792
0.092592 0.728735 0.102462
-0.382003 0.705231 0.144944
0.383238 0.722031 -0.303591
-0.354428 0.728735 -0.063966
-0.36066 0.705231 -0.22583
0.354484 0.705231 -0.211917
0.380249 0.705231 0.154773
0.633993 0.705231 -0.130012
0.239779 0.705231 -0.094173
-0.231112 0.728735 -0.106489
0.143 0.705231 0.162297
0.427008 0.705231 0.103339
0.523328 0.705231 -0.113573
-0.694626 0.728735 -0.029972
0.180933 0.728735 0.130682
-0.149684 0.705231 0.009961
0.217426 0.728735 -0.059032
0.036855 0.705231 -0.007069
-0.610404 0.728735 0.07485
-0.493164 0.705231 0.052045
-0.344127 0.705231 0.21736
0.434369 0.728735 -0.077356
-0.445811 0.705231 0.022049
0.485663 0.705231 -0.283346
-0.609862 0.728735 0.006446
0.00209 0.728735 0.154439
-0.558433 0.728735 -0.097363
-0.70472 0.728735 -0.153045
-0.742594 0.728735 0.153461
-0.436953 0.705231 -0.153593
0.002572 0.705231 0.095863
0.076762 0.728735 0.191694
0.320542 0.705231 0.030147
-0.63532 0.728735 -0.043435
-0.191858 0.705231 0.010104
0.067304 0.705231 -0.150321
0.388102 0.705231 -0.01007
0.592495 0.728735 -0.20586
0.23424 0.728735 -0.290627
-0.685434 0.728735 0.195297
-0.375845 0.728735 0.018937
0.342103 0.728735 -0.251263
-0.266631 0.705231 -0.294974
-0.738849 0.705231 0.055064
0.454845 0.728735 0.044519
0.417833 0.705231 -0.243884
-0.382427 0.728735 -0.200841
0.000632 0.728735 -0.105091
0.219917 0.728735 -0.229334
0.598063 0.705231 0.031622
0.131123 0.728046 -0.303591
-0.215649 0.728735 -0.014213
0.24669 0.705231 -0.0284
-0.426862 0.728735 0.214666
-0.082819 0.705231 -0.096352
0.136558 0.705231 -0.100304
-0.007133 0.705231 -0.236949
-0.201666 0.705231 -0.302334
-0.17824 0.728735 -0.143757
0.415174 0.705231 0.051077
-0.339412 0.705231 -0.181632
-0.049321 0.705231 0.081202
-0.288791 0.728735 -0.058984
-0.567369 0.705231 0.06223
0.627199 0.728735 -0.284402
0.067107 0.728735 -0.112717
-0.683981 0.705231 -0.213943
0.628206 0.705231 0.088744
0.482187 0.705231 0.197603
-0.088702 0.705231 -0.033984
-0.46985 0.728735 -0.189672
0.385463 0.728735 -0.211444
0.290475 0.728735 -0.211983
0.131481 0.728735 -0.136188
-0.342371 0.728735 -0.104767
0.165168 0.705231 -0.034073
-0.651902 0.705231 -0.158892
-0.679986 0.705231 -0.003124
-0.535137 0.705231 -0.179201
0.077348 0.728735 0.063102
-0.262206 0.705231 0.200034
0.580372 0.728735 0.149541
-0.430684 0.705231 0.081484
-0.60749 0.705231 0.156772
0.588617 0.705231 -0.100115
0.268324 0.728735 -0.145074
-0.407731 0.728735 -0.287774
-0.082619 0.705231 0.176491
-0.445996 0.705231 -0.038477
-0.095644 0.705231 0.09052
0.147415 0.705231 -0.161108
-0.325898 0.728735 -0.248225
0.551104 0.728735 -0.150552
0.246275 0.705231 -0.170195
0.269605 0.728735 0.160898
0.244589 0.705231 0.025237
-0.720615 0.728735 -0.269945
-0.383617 0.728735 0.115872
-0.370524 0.728735 -0.131974
-0.378974 0.705231 0.197104
-0.455313 0.705231 0.114365
-0.629915 0.705231 -0.12261
-0.133434 0.705231 0.047228
0.041993 0.705231 0.070612
0.272104 0.728735 0.038079
-0.068015 0.705231 0.219505
0.564814 0.728735 -0.236702
0.150819 0.705231 -0.210501
-0.125764 0.728735 -0.289406
-0.526335 0.705231 -0.021611
-0.161342 0.705231 -0.239474
0.052564 0.728735 -0.220048
0.376096 0.705231 0.114502
-0.210482 0.705231 -0.262971
-0.64672 0.728735 0.142736
-0.429241 0.728735 -0.234766
0.013136 0.705231 0.222218
-0.243619 0.728735 0.068997
0.594314 0.728735 -0.263573
0.023685 0.705231 0.12556
-0.556525 0.705231 0.133553
-0.094507 0.728735 -0.189488
-0.034865 0.728735 0.164715
0.086728 0.705231 0.129361
0.294345 0.705231 -0.272874
0.339851 0.705231 0.180486
-0.606273 0.728735 -0.212875
-0.745444 0.70732 -0.24512
-0.119359 0.728735 -0.130092
0.024583 0.705231 -0.220024
0.413859 0.728735 -0.137732
-0.410689 0.705231 -0.195113
0.202459 0.705231 -0.253817
0.456875 0.705231 0.141362
0.412464 0.705231 0.170468
-0.07877 0.705231 0.014452
-0.196488 0.705231 0.052273
0.013703 0.705231 -0.26598
-0.03014 0.728735 -0.073396
0.268248 0.728735 0.080838
0.340511 0.728735 -0.036484
-0.00142 0.705231 0.044795
0.057346 0.728735 -0.291434
0.145536 0.728735 0.076107
-0.64792 0.705231 -0.26018
0.18649 0.728735 0.071478
-0.245434 0.728735 -0.260665
-0.031235 0.705231 -0.006136
0.592698 0.705231 -0.17212
0.452436 0.705231 -0.256813
-0.519216 0.728735 -0.26402
-0.136292 0.728735 -0.174794
0.129986 0.705231 -0.035464
-0.58118 0.705231 -0.133701
0.269789 0.728735 -0.097404
0.496538 0.728735 -0.161238
0.217518 0.728735 -0.110497
-0.519778 0.705231 0.151906
-0.379359 0.705231 -0.157855
-0.651156 0.705231 0.051522
-0.071038 0.728735 0.146183
0.206235 0.728735 -0.1973
0.096733 0.705231 -0.249712
0.278784 0.705231 -0.237995
0.551461 0.705231 0.00599
0.139107 0.705231 0.016775
0.521055 0.705231 0.094384
0.094603 0.705231 -0.023694
-0.045267 0.728735 -0.143233
0.012859 0.705231 -0.127345
0.627721 0.728735 -0.204591
-0.015354 0.705231 -0.19454
0.650818 0.705231 0.05817
0.575262 0.728735 -0.01563
-0.211343 0.728735 -0.136095
-7.3e-05 0.705231 -0.078644
-0.310653 0.728735 0.036959
-0.573625 0.728735 -0.221724
-0.538843 0.705231 0.039214
0.525887 0.705231 0.182435
-0.218806 0.728735 0.118001
-0.21329 0.728735 -0.212631
-0.47028 0.705231 0.07705
-0.023061 0.72345 -0.303591
0.27394 0.728735 -0.022695
0.072707 0.728735 -0.073644
0.468573 0.705231 -0.106303
0.546942 0.728735 0.060987
-0.399278 0.705231 -0.226663
-0.420886 0.705231 0.049399
-0.464003 0.728735 0.140413
-0.525661 0.728735 -0.144374
0.623146 0.705231 -0.020148
0.644987 0.705231 -0.089375
-0.522615 0.705231 -0.095756
0.12343 0.728735 0.035423
-0.615193 0.705231 -0.266556
-0.187837 0.728735 0.075267
0.403423 0.728735 -0.04853
0.522922 0.705231 -0.062435
0.076235 0.728735 0.029881
0.516141 0.705231 0.014205
-0.745444 0.716226 -0.178195
0.351535 0.728735 0.151181
0.418623 0.716248 -0.303591
0.123067 0.705231 0.202095
-0.468267 0.705231 -0.166411
-0.212984 0.728735 -0.076728
-0.129076 0.705231 0.188895
0.621055 0.728735 -0.166213
0.397842 0.705231 0.200097
-0.361065 0.728735 0.154933
-0.486858 0.728735 -0.270535
0.380975 0.705231 -0.141643
-0.082333 0.705231 -0.129313
0.078876 0.728735 -0.172778
-0.644277 0.728735 -0.104519
-0.052587 0.728735 -0.279891
-0.412522 0.705231 -0.130374
-0.320789 0.728735 -0.163507
-0.215275 0.705231 0.18919
-0.67632 0.705231 -0.101702
0.426463 0.705231 -0.00403
0.112604 0.705231 -0.063299
-0.316489 0.705231 0.178951
0.18202 0.705231 0.029769
0.577934 0.728735 0.05056
-0.190235 0.728735 -0.034787
-0.052672 0.705231 -0.071562
-0.001258 0.728735 0.187434
-0.002979 0.728735 -0.214276
0.489161 0.705231 0.104433
-0.098701 0.705231 -0.066208
-0.651942 0.705231 -0.199106
0.299309 0.728735 0.00963
0.558199 0.705231 -0.111494
-0.196055 0.705231 -0.190414
0.167725 0.705231 -0.27353
-0.487501 0.728735 0.022706
-0.564281 0.728735 -0.279494
0.567311 0.728735 -0.178543
-0.715347 0.728735 0.207545
-0.437322 0.705231 0.195147
0.604181 0.728735 -0.043043
-0.536824 0.728735 -0.201399
-0.004278 0.728735 0.11689
0.325223 0.705231 -0.00483
-0.636404 0.728735 -0.183218
0.437983 0.728735 -0.23565
0.3312 0.728735 -0.21397
-0.544119 0.728735 0.09227
0.315877 0.728735 -0.12317
-0.664158 0.705231 0.178192
-0.655277 0.728735 0.110458
-0.360033 0.705231 0.045167
-0.467706 0.705231 -0.292744
-0.42688 0.728735 -0.02842
0.09718 0.705231 0.013595
-0.257581 0.728735 -0.174427
0.290823 0.705231 -0.035994
-0.497012 0.728735 -0.223938
0.136285 0.728735 -0.179455
0.094322 0.705231 0.076163
-0.432761 0.728735 -0.189485
0.0419 0.728735 -0.168234
0.226905 0.705231 -0.206009
0.015098 0.705231 0.016057
-0.710866 0.705231 0.040114
-0.354546 0.705231 -0.257997
-0.714736 0.728735 -0.064761
-0.723419 0.728735 -0.017354
-0.594895 0.728735 -0.271038
0.165182 0.728735 0.012797
0.507928 0.728735 0.112871
-0.715819 0.728735 0.137392
0.096739 0.728735 -0.122321
0.573468 0.705231 0.168786
-0.115901 0.705231 -0.175977
0.166691 0.728735 0.198226
0.544495 0.705231 -0.23654
0.45211 0.728735 0.198754
0.362105 0.728735 -0.060485
-0.144781 0.728735 0.119848
-0.491953 0.728735 -0.009649
0.512665 0.728735 -0.278892
0.433362 0.705231 -0.142914
-0.403118 0.728735 -0.095492
0.371362 0.728735 0.02101
-0.582531 0.728735 -0.067196
-0.284066 0.705231 -0.125662
-0.488569 0.728735 -0.04549
0.533187 0.728735 -0.214787
-0.528868 0.728735 0.169674
-0.481942 0.705231 -0.238358
0.626488 0.728735 0.032404
-0.533718 0.705231 -0.05288
-0.144345 0.705231 -0.265065
0.236902 0.705231 -0.063643
-0.634731 0.705231 0.077258
0.334624 0.705231 0.071641
0.179937 0.705231 -0.219436
0.6648 0.724722 -0.196795
0.340132 0.705231 -0.10301
-0.036952 0.705231 -0.21705
-0.710331 0.705231 -0.00185
0.212068 0.705231 0.062727
0.662885 0.728735 -0.256304
0.503444 0.728735 -0.246819
-0.065529 0.705231 -0.195242
-0.338508 0.728735 -0.017168
-0.52304 0.728735 0.011591
0.28065 0.705231 0.095219
0.454752 0.705231 -0.214451
-0.419711 0.705231 -0.27002
-0.483025 0.705231 -0.089128
-0.130478 0.705231 -0.056859
-0.295313 0.728735 0.089092
-0.745444 0.70538 -0.281093
0.554393 0.728735 0.134396
-0.314228 0.705231 0.21486
0.456955 0.728735 -0.057641
0.251317 0.705231 0.088493
-0.284658 0.728735 0.130706
-0.745444 0.706983 0.084514
0.56488 0.705231 0.108367
-0.255899 0.705231 0.170705
0.113626 0.728735 -0.275414
0.040454 0.728735 0.215381
-0.576189 0.728735 -0.024592
-0.717634 0.728735 -0.233634
0.304338 0.728735 0.20153
0.64316 0.705231 -0.182794
-0.600106 0.728735 -0.176613
-0.531598 0.728735 -0.071306
-0.49424 0.728735 0.120531
-0.433753 0.728735 0.143602
-0.157619 0.705231 0.170741
-0.732161 0.728735 -0.124013
-0.640064 0.728735 0.035583
-0.39838 0.705231 0.10586
0.222485 0.728735 -0.258717
-0.560683 0.705231 -0.009085
-0.487034 0.728735 0.15881
0.592978 0.705231 -0.016178
0.563577 0.705231 -0.298753
0.113323 0.728735 -0.084669
0.19741 0.705231 -0.030355
0.475473 0.728735 -0.208142
-0.564661 0.728735 0.044761
0.618974 0.728735 0.118076
0.499588 0.728735 0.044061
0.263247 0.728735 -0.174337
-0.037778 0.728735 0.098449
0.51692 0.728735 -0.043898
-0.2883 0.705231 -0.161901
-0.162769 0.728735 0.143346
0.387007 0.728735 0.138844
-0.443957 0.728735 -0.137781
0.323847 0.705231 -0.197118
-0.685042 0.705231 0.064937
0.441331 0.728735 0.094099
0.458758 0.728735 0.158297
0.384223 0.728735 -0.026603
-0.310307 0.705231 -0.055615
-0.108396 0.728735 -0.160311
0.60016 0.705231 -0.220905
0.180997 0.728735 -0.137032
0.362874 0.705231 -0.027322
-0.078038 0.728735 -0.213684
0.274825 0.728735 0.110957
0.505968 0.728735 -0.19568
0.042778 0.705231 -0.184822
0.477388 0.728735 -0.12763
-0.164744 0.728735 -0.169151
-0.742643 0.705231 0.004282
0.060895 0.705231 -0.085171
0.562705 0.705231 -0.065981
-0.230471 0.705231 -0.195964
-0.57658 0.705231 0.164545
0.401071 0.728735 0.182342
0.059019 0.705231 0.16409
-0.517095 0.705231 -0.123838
0.127101 0.728735 0.165995
0.272826 0.705231 -0.073846
-0.095581 0.705231 -0.255511
0.14354 0.728735 0.140809
-0.735929 0.728735 -0.153319
-0.219268 0.705231 0.002103
0.217087 0.728735 0.096859
-0.510815 0.705231 -0.280848
-0.360778 0.705231 -0.117786
-0.351515 0.705231 -0.079868
0.336255 0.728735 0.196225
0.572219 0.705231 -0.152285
-0.690391 0.705231 -0.282422
-0.110003 0.705231 -0.286257
0.524278 0.705231 0.14511
0.040542 0.728735 -0.079502
-0.326395 0.705231 -0.027506
-0.594752 0.705231 0.077412
0.412795 0.705231 -0.029332
-0.223709 0.705231 -0.088004
-0.729839 0.705231 -0.068443
-0.505323 0.705231 0.092936
-0.403993 0.705231 -0.068874
0.167326 0.728735 -0.0675
-0.502063 0.705231 -0.176313
0.040111 0.705231 -0.120698
0.111361 0.705231 -0.126759
0.001123 0.728735 0.029745
-0.70338 0.728735 -0.181024
-0.084343 0.705231 0.122083
0.137341 0.705231 -0.258586
0.006324 0.705231 -0.036063
-0.182581 0.728735 0.164678
0.387297 0.705231 0.088902
-0.022111 0.705231 0.172808
0.306027 0.705231 0.076588
-0.199786 0.705231 0.131761
0.503621 0.711847 -0.303591
-0.318163 0.705231 -0.222985
0.468545 0.705231 0.022002
-0.58044 0.728735 -0.148543
-0.13702 0.707643 -0.303591
-0.162897 0.705231 -0.091284
-0.472088 0.728735 -0.144251
-0.213319 0.728735 0.034102
-0.273482 0.728735 -0.083883
0.104864 0.728735 0.059987
0.304264 0.724602 -0.303591
0.351877 0.705231 0.017909
-0.219302 0.705231 -0.028314
0.535365 0.705231 0.069715
0.066578 0.728735 0.120798
0.232367 0.705231 0.194701
0.552931 0.728735 0.034122
-0.711218 0.705231 -0.110134
0.086546 0.705231 -0.224161
0.643202 0.705231 0.111747
0.318111 0.705231 0.198284
-0.017882 0.705231 -0.099446
-0.437009 0.705231 -0.089247
-0.141374 0.728735 -0.026937
0.024638 0.728735 -0.000206
-0.052155 0.705231 0.123418
-0.565497 0.705231 -0.085424
-0.601029 0.705231 -0.153677
0.244271 0.728735 -0.24157
0.44155 0.705231 -0.183363
0.225427 0.705231 0.107692
-0.582735 0.728735 0.005003
-0.633898 0.705231 0.17218
0.42776 0.728735 0.042995
-0.359189 0.728735 -0.186852
0.639462 0.728735 -0.232879
-0.094723 0.728735 0.103945
0.21706 0.728735 -0.148078
-0.385548 0.705231 -0.185278
0.549364 0.705231 -0.034431
-0.675435 0.705231 -0.144513
0.262835 0.705231 0.195217
-0.355164 0.705231 -0.144471
0.152279 0.728735 -0.031065
-0.608381 0.728735 -0.044292
-0.453737 0.728735 -0.221709
-0.426765 0.728735 0.061134
0.124169 0.705231 0.107446
0.427953 0.705231 0.133756
0.375632 0.705231 -0.195282
-0.288334 0.705231 0.108262
-0.401365 0.728735 0.136066
0.399856 0.705231 0.127046
0.636889 0.728735 0.168014
-0.202472 0.728735 -0.273203
0.372468 0.705231 -0.231774
0.09001 0.728735 0.14176
0.05345 0.728735 0.175608
0.290031 0.705231 0.120276
0.580595 0.728735 -0.068029
-0.736931 0.705231 -0.102823
-0.437352 0.705231 -0.293141
-0.14218 0.728735 0.056366
-0.336091 0.728735 0.142522
-0.64841 0.705231 -0.052457
0.115697 0.705231 -0.230969
-0.636271 0.728735 0.001829
-0.313361 0.705231 -0.17358
-0.151135 0.728735 0.023895
0.204512 0.728735 0.206906
-0.541489 0.705231 0.080247
0.570458 0.705231 0.040846
-0.493076 0.728735 -0.12477
0.539429 0.728735 0.004246
-0.716098 0.705231 -0.247652
0.02301 0.728735 -0.232066
-0.527671 0.705231 -0.22946
-0.626665 0.728735 0.110745
0.395029 0.705231 -0.103886
-0.069533 0.728735 -0.090334
0.10219 0.728735 -0.229864
0.011663 0.705231 0.167001
-0.671142 0.705231 0.122706
-0.376377 0.728735 -0.044645
-0.378795 0.705231 0.004055
-0.045629 0.705231 -0.17803
0.251042 0.705231 -0.216432
-0.053009 0.705231 -0.248264
-0.727369 0.728735 0.059491
0.048109 0.705231 0.202755
-0.104861 0.705231 0.035154
-0.711966 0.705231 -0.213608
0.230689 0.705231 -0.233088
-0.263111 0.705231 0.091384
0.452779 0.705231 -0.08554
-0.327762 0.728735 0.179903
-0.326334 0.728735 -0.072192
-0.322794 0.705231 0.153649
0.311731 0.728735 0.086329
-0.333741 0.720719 -0.303591
-0.054934 0.728735 -0.226334
-0.349361 0.728735 0.207451
0.115504 0.728735 0.214285
0.096949 0.728735 -0.034601
-0.684842 0.728735 -0.291969
-0.636211 0.728735 -0.069384
0.041083 0.728735 -0.109759
-0.007506 0.705231 -0.162577
0.258704 0.705231 0.160899
-0.235338 0.728735 0.093546
-0.54294 0.728735 -0.03021
0.506457 0.705231 -0.014304
0.344357 0.705231 0.206563
0.65354 0.705231 -0.027826
-0.048983 0.705231 -0.13337
0.506371 0.705231 0.06164
0.183975 0.705231 -0.147097
0.072883 0.705231 -0.000831
0.068183 0.705231 -0.288532
-0.407652 0.705231 0.146903
-0.147621 0.728735 0.211039
0.156653 0.728735 -0.219044
-0.002256 0.705231 -0.010196
0.01937 0.705231 -0.061894
0.354956 0.728735 -0.273451
-0.541629 0.705231 0.112723
-0.33268 0.728735 0.076349
0.374959 0.705231 0.184197
-0.256001 0.705231 -0.203723
-0.313985 0.728735 -0.275494
-0.558041 0.705231 0.022475
-0.11518 0.728735 0.133115
0.566902 0.728735 -0.044624
-0.745444 0.708062 0.029404
-0.405626 0.705231 0.029054
0.637 0.728735 0.09266
-0.507985 0.705231 0.122088
-0.491419 0.705231 -0.019181
0.238762 0.705231 0.140632
-0.692536 0.728735 -0.209782
-0.446309 0.705231 0.052373
-0.408981 0.728735 -0.204465
-0.286202 0.728735 -0.144536
-0.25372 0.728735 0.134996
0.329954 0.728735 0.029968
0.38792 0.728735 -0.000663
-0.487152 0.728735 0.212877
0.486519 0.728735 -0.295663
0.365499 0.728735 -0.153431
-0.464484 0.728735 0.112665
-0.478748 0.705231 -0.19236
-0.171304 0.705231 0.050305
0.317037 0.728735 -0.254341
-0.182607 0.728735 -0.098629
-0.240605 0.705231 -0.155317
-0.473353 0.705231 0.158054
-0.640471 0.728735 -0.265524
-0.378329 0.728735 -0.233437
0.613613 0.728735 -0.141536
0.216976 0.728735 0.049841
-0.186676 0.705231 -0.026476
-0.389989 0.705231 0.16879
-0.649346 0.705231 -0.224118
-0.369359 0.728735 0.192214
0.34591 0.705231 0.097447
-0.561502 0.728735 0.14093
0.393925 0.705231 -0.251568
-0.622428 0.705231 -0.07428
0.325478 0.705231 0.154648
0.27177 0.728735 0.193015
0.322761 0.705231 -0.154812
-0.676401 0.728735 0.063695
-0.688348 0.705231 -0.079711
0.236576 0.728735 -0.005757
0.026889 0.728735 0.133565
-0.026165 0.705231 0.063287
-0.612272 0.705231 0.100551
-0.3877 0.728735 0.056315
-0.275803 0.705231 0.059422
-0.226252 0.728735 -0.036779
-0.420673 0.705231 -0.022894
0.490292 0.728735 0.095288
0.346581 0.705231 -0.242433
-0.463316 0.728735 0.028563
-0.163805 0.705231 -0.144387
0.455691 0.728735 0.069381
-0.087725 0.728735 -0.107278
0.598673 0.705231 0.175579
-0.400839 0.705231 -0.291651
0.473572 0.728735 -0.10021
-0.614461 0.705231 6.9e-05
0.093008 0.705231 0.216517
0.549867 0.705231 -0.1416
-0.086414 0.728735 0.169683
-0.358785 0.728735 0.037485
0.270751 0.728735 0.221157
-0.209737 0.705231 -0.128514
0.2408 0.728735 -0.033418
-0.412753 0.705231 -0.170464
-0.615485 0.728735 0.222496
-0.675374 0.705231 0.030074
-0.33389 0.728735 -0.186817
-0.120237 0.705231 -0.246323
0.32057 0.728735 -0.147612
-0.358175 0.728735 0.00174
-0.031026 0.728735 -0.212537
-0.463916 0.705231 -0.070368
0.632539 0.728735 0.20982
-0.520886 0.705231 -0.149699
-0.714593 0.705231 -0.040234
0.290916 0.728735 -0.185296
0.151378 0.705231 0.201315
-0.220223 0.728735 -0.159575
0.051393 0.705231 0.104026
-0.704027 0.728735 0.039812
0.198547 0.728735 0.14764
0.11562 0.705231 -0.195836
0.431887 0.728735 0.162493
-0.625718 0.705231 -0.288616
-0.651224 0.705231 0.136864
-0.069501 0.728735 -0.132868
-0.48688 0.705231 0.17875
0.048898 0.705231 0.141895
-0.451691 0.705231 -0.128381
-0.643356 0.705231 0.100018
-0.742458 0.728735 -0.038734
0.231467 0.728735 -0.181179
0.370381 0.728735 0.112051
0.198245 0.728735 -0.244249
-0.3191 0.705231 0.057201
-0.599436 0.705231 0.133848
-0.142043 0.705231 -0.17838
-0.053089 0.705231 -0.10372
-0.162906 0.728735 -0.233776
0.071649 0.705231 0.033606
-0.654324 0.705231 -0.289234
-0.579716 0.728735 0.080531
0.415495 0.728735 0.118259
0.228574 0.705231 -0.291969
0.26605 0.705231 -0.139743
-0.266236 0.705231 0.021167
-0.257648 0.728735 0.203418
-0.577426 0.728735 -0.245598
-0.210225 0.728735 -0.303243
0.164614 0.728735 -0.277859
-0.031866 0.728735 0.024223
0.449898 0.705231 0.043456
0.569797 0.728735 0.115946
-0.35647 0.728735 -0.253598
0.640457 0.705231 -0.210442
-0.595231 0.705231 -0.228183
0.426837 0.728735 -0.110786
-0.043207 0.36948 -0.303591
-0.091327 -0.444994 -0.303591
-0.010963 0.227981 -0.303591
-0.015558 0.520816 -0.303591
-0.048041 -0.311951 -0.303591
-0.070168 0.644473 -0.280087
0.015291 -0.398563 -0.303591
-0.056021 0.024751 -0.303591
-0.006366 -0.628283 -0.303591
-0.085819 -0.109419 -0.303591
0.03019 -0.225661 -0.296171
-0.090425 0.206573 -0.303591
0.028765 -0.103692 -0.280087
-0.110835 0.338713 -0.28223
-0.004751 0.616371 -0.303591
-0.094718 -0.180309 -0.303591
0.01465 0.159614 -0.303591
-0.044542 -0.55767 -0.303591
-0.058579 0.089493 -0.303591
-0.10129 0.518816 -0.303591
0.014584 0.391694 -0.303591
-0.097068 0.589354 -0.303591
-0.044098 -0.238232 -0.303591
-0.024932 -0.112006 -0.303591
-0.082724 -0.03364 -0.303591
-0.054227 0.455132 -0.303591
-0.08439 -0.602566 -0.280087
0.028117 0.027472 -0.303591
0.008227 -0.313296 -0.303591
-0.110835 -0.281934 -0.296426
0.03019 -0.170549 -0.302889
0.029695 0.098188 -0.303591
-0.095339 -0.394833 -0.280087
-0.067005 0.14951 -0.303591
-0.048168 -0.422636 -0.280087
-0.108584 0.275236 -0.303591
-0.005564 -0.064743 -0.303591
0.024506 0.558129 -0.303591
-0.032111 0.56767 -0.303591
-0.03535 0.692047 -0.303591
-0.012981 0.058252 -0.303591
-0.063506 -0.512791 -0.303591
-0.102384 0.421153 -0.303591
-0.015899 0.310713 -0.303591
0.017732 0.269708 -0.303591
-0.110835 -0.489382 -0.281836
-0.001892 -0.524635 -0.303591
-0.026563 -0.374072 -0.303591
0.021411 -0.450516 -0.303591
-0.00745 -0.001091 -0.303591
-0.103141 0.09554 -0.303591
-0.04619 0.200612 -0.303591
-0.029206 -0.188721 -0.303591
-0.002554 0.662574 -0.303591
-0.060455 0.500835 -0.303591
-0.086634 -0.222808 -0.303591
-0.005623 -0.585318 -0.303591
-0.071693 0.253291 -0.303591
-0.072469 0.691761 -0.280087
-0.08693 -0.340194 -0.303591
0.013095 0.343074 -0.303591
-0.093329 0.044222 -0.303591
-0.083808 0.383593 -0.303591
-0.110835 -0.55844 -0.302957
-0.011124 0.44372 -0.303591
-0.0525 0.415895 -0.280087
-0.081159 0.319421 -0.303591
-0.097029 0.552489 -0.280087
-0.071652 -0.271756 -0.303591
-0.017975 0.097738 -0.303591
-0.105708 -0.065386 -0.280087
0.03019 0.598674 -0.300756
0.020023 0.497713 -0.303591
-0.007128 -0.250803 -0.303591
-0.012871 -0.149112 -0.303591
-0.019293 -0.434265 -0.303591
-0.043253 0.610618 -0.303591
-0.106562 -0.142113 -0.303591
-0.046284 -0.624594 -0.280087
-0.110835 0.238127 -0.300549
-0.050781 -0.09652 -0.280087
0.022391 0.129912 -0.280087
-0.062653 -0.377477 -0.303591
-0.110835 0.657736 -0.295614
0.010371 0.195191 -0.303591
-0.083952 -0.481096 -0.303591
0.023058 0.453516 -0.303591
0.03019 -0.135269 -0.298562
-0.110835 -0.618467 -0.297448
-0.044158 0.33435 -0.303591
0.03019 -0.288337 -0.292496
-0.110835 0.383216 -0.280656
-0.110835 -0.247085 -0.301564
-0.076168 -0.076587 -0.303591
-0.064529 0.582033 -0.303591
0.016269 -0.254295 -0.280087
-0.030612 -0.042818 -0.303591
-0.110835 -0.370667 -0.301987
-0.11046 -0.015849 -0.303591
-0.074631 0.668915 -0.303591
-0.03727 0.011787 -0.280087
-0.014888 0.278054 -0.303591
0.023906 0.636711 -0.303591
-0.017644 0.394434 -0.303591
-0.025453 -0.488091 -0.303591
-0.042121 -0.506108 -0.280087
0.006728 -0.478403 -0.303591
-0.02183 0.026897 -0.303591
-0.078318 0.064241 -0.280087
-0.007305 -0.043989 -0.280087
-0.049712 0.646202 -0.303591
-0.020272 0.540375 -0.280087
0.00904 0.426447 -0.280087
-0.014637 -0.082378 -0.280087
-0.037273 0.101589 -0.280087
-0.015364 -0.602382 -0.280087
-0.091611 -0.413856 -0.303591
-0.067723 -0.199574 -0.303591
-0.059275 0.059588 -0.303591
-0.077316 -0.583698 -0.303591
0.03019 -0.373467 -0.296745
-0.04235 -0.201174 -0.280087
-0.089463 0.023212 -0.280087
0.002866 -0.49585 -0.280087
-0.042407 -0.274986 -0.303591
-0.089817 -0.462583 -0.280087
-0.025601 -0.330663 -0.303591
-0.08873 0.120903 -0.303591
-0.071163 0.40986 -0.303591
0.03019 0.416229 -0.301833
-0.079661 -0.153065 -0.303591
0.009183 0.070807 -0.280087
-0.110835 0.311286 -0.296107
0.011674 -0.34788 -0.303591
-0.047012 0.301337 -0.303591
0.013953 0.531408 -0.303591
-0.110835 0.488931 -0.286842
-0.091724 -0.323017 -0.280087
0.03019 -0.321603 -0.287313
-0.063518 -0.226967 -0.280087
-0.077222 0.005675 -0.303591
-0.110835 0.184012 -0.295622
-0.110835 -0.215171 -0.289674
-0.081266 0.24085 -0.280087
-0.042539 -0.455685 -0.280087
-0.057415 -0.434618 -0.303591
-0.094411 0.154885 -0.303591
0.024756 -0.089181 -0.303591
0.03019 0.182663 -0.288596
-0.008805 0.17511 -0.303591
0.02851 0.279822 -0.280087
-0.033379 -0.58521 -0.303591
-0.076043 -0.372045 -0.280087
-0.06864 0.223401 -0.303591
-0.009797 0.407099 -0.280087
0.03019 -0.419497 -0.287734
-0.083945 -0.557477 -0.303591
-0.09524 -0.16238 -0.280087
0.03019 0.362435 -0.296355
0.00129 0.416196 -0.303591
0.017638 0.518905 -0.280087
-0.048148 -0.250292 -0.280087
-0.030134 0.619938 -0.280087
-0.056614 -0.028633 -0.303591
0.008237 0.560433 -0.280087
-0.037158 0.53593 -0.303591
-0.034576 0.44526 -0.280087
-0.110835 0.062415 -0.296687
-0.076196 -0.306716 -0.303591
-0.080747 0.516192 -0.280087
-0.109565 0.371113 -0.303591
-0.079783 0.459602 -0.303591
-0.05814 0.17387 -0.303591
0.00472 -0.338231 -0.280087
-0.104014 0.203496 -0.280087
-0.013312 0.033256 -0.280087
0.03019 -0.349108 -0.285748
-0.052679 -0.353775 -0.303591
-0.005812 0.311987 -0.280087
-0.024271 0.06529 -0.280087
-0.104906 0.595313 -0.280087
-0.056394 -0.133223 -0.303591
-0.097507 0.432446 -0.280087
-0.084432 0.574532 -0.280087
-0.015574 0.143529 -0.303591
0.008807 -0.564471 -0.303591
-0.110835 -0.119322 -0.293423
-0.010848 0.351058 -0.303591
-0.015836 -0.010525 -0.280087
-0.000184 -0.122882 -0.303591
-0.037573 -0.626684 -0.303591
-0.078047 0.640301 -0.303591
0.0254 0.339514 -0.280087
-0.08712 0.690683 -0.303591
-0.014077 -0.38538 -0.280087
-0.01202 -0.025674 -0.303591
-0.019896 -0.459246 -0.303591
0.03019 0.126457 -0.303419
0.005892 0.594221 -0.303591
-0.02567 0.654521 -0.303591
-0.054838 -0.35975 -0.280087
-0.046811 0.418321 -0.303591
-0.043157 0.347938 -0.280087
-0.089019 0.296189 -0.303591
-0.08275 -0.26658 -0.280087
-0.086087 -0.139927 -0.280087
-0.057389 -0.162486 -0.303591
-0.078688 -0.533803 -0.303591
-0.011634 0.684892 -0.303591
-0.087139 -0.366838 -0.303591
-0.101204 -0.580344 -0.303591
0.6648 0.512436 0.24368
0.6648 0.233645 0.234002
0.658517 -0.342317 0.22525
0.594287 0.626932 0.255801
0.6648 0.39885 0.228162
0.6648 -0.574486 0.233147
0.606741 -0.423871 0.22525
0.6648 0.049371 0.233472
0.594287 -0.141725 0.232896
0.601051 0.19506 0.260506
0.6648 0.604974 0.235874
0.607991 0.438899 0.260506
0.596095 0.552291 0.260506
0.661603 -0.023699 0.22525
0.594287 0.032625 0.228694
0.646243 0.302143 0.260506
0.601422 -0.30231 0.22525
0.6648 0.154988 0.254574
0.655159 -0.172608 0.22525
0.6648 -0.458308 0.228256
0.616747 0.366444 0.260506
0.594287 0.095175 0.248591
0.6648 -0.119819 0.248846
0.6648 -0.24006 0.242141
0.60673 -0.034125 0.22525
0.601921 -0.368755 0.22525
0.659709 0.345778 0.22525
0.608579 -0.556197 0.22525
0.6648 0.097574 0.254261
0.6648 -0.291874 0.244544
0.6648 -0.3907 0.242827
0.601078 0.502091 0.260506
0.59906 -0.251324 0.22525
0.594287 0.586141 0.225463
0.627284 -0.062529 0.260506
0.622566 0.260931 0.260506
0.621855 0.006843 0.260506
0.6648 0.436384 0.253752
0.613318 0.147945 0.22525
0.595741 0.525576 0.22525
0.653355 0.195536 0.260506
0.632114 0.594378 0.260506
0.618664 -0.483322 0.260506
0.648821 0.279735 0.22525
0.663276 -0.065434 0.22525
0.622763 0.216243 0.22525
0.607718 -0.110021 0.260506
0.633229 0.529499 0.260506
0.615551 -0.084813 0.22525
0.627572 0.503294 0.22525
0.663059 -0.536882 0.22525
0.655461 0.640142 0.260506
0.630626 -0.218284 0.22525
0.633691 0.012485 0.22525
0.597616 0.059454 0.260506
0.609634 -0.310683 0.260506
0.646995 0.64343 0.22525
0.594287 0.242041 0.246616
0.65736 0.183826 0.22525
0.61322 0.40225 0.260506
0.616575 -0.147313 0.260506
0.602294 0.290488 0.260506
0.626961 0.386476 0.22525
0.659079 0.256345 0.260506
0.650051 0.143128 0.22525
0.664179 0.544944 0.260506
0.66027 0.387496 0.260506
0.636545 0.13663 0.260506
0.612879 -0.169119 0.22525
0.594287 -0.214271 0.226922
0.597642 -0.001584 0.22525
0.607274 -0.457618 0.22525
0.594287 -0.5097 0.246332
0.648565 0.355553 0.260506
0.655932 0.485291 0.22525
0.648627 0.428236 0.22525
0.626483 0.466357 0.260506
0.651228 -0.266411 0.260506
0.6648 0.30827 0.229168
0.655655 -0.489604 0.22525
0.594287 -0.338237 0.233856
0.650835 0.102349 0.22525
0.594287 0.594534 0.258726
0.633348 -0.375749 0.22525
0.6648 0.578431 0.253797
0.639368 -0.298557 0.22525
0.594287 -0.285606 0.249401
0.617735 0.177658 0.22525
0.594287 -0.39674 0.23257
0.594287 0.555218 0.228376
0.638278 -0.558671 0.22525
0.634707 0.218591 0.260506
0.594287 0.656368 0.241648
0.6648 0.540934 0.227763
0.6648 -0.415213 0.226662
0.594629 0.211147 0.22525
0.6648 0.027253 0.251216
0.6648 -0.091732 0.246732
0.655005 0.074727 0.22525
0.594287 0.010419 0.259703
0.6648 -0.167101 0.251048
0.594287 -0.48163 0.24119
0.638259 -0.585958 0.22525
0.646922 -0.584089 0.260506
0.617383 0.65209 0.260506
0.625107 -0.246705 0.22525
0.612922 0.635121 0.22525
0.6648 0.2789 0.248743
0.642998 0.616036 0.22525
0.594287 0.166117 0.252111
0.594287 0.269163 0.24831
0.629241 -0.179046 0.260506
0.594287 -0.452042 0.24662
0.614261 -0.529271 0.22525
0.594287 -0.555841 0.253805
0.6648 0.215838 0.251335
0.601494 0.092326 0.22525
0.594287 -0.59495 0.226142
0.594287 0.439661 0.236034
0.638402 0.445539 0.260506
0.605087 0.036714 0.260506
0.594287 0.134327 0.230177
-0.730552 0.50949 0.260506
-0.744947 0.220503 0.260506
-0.745444 0.400215 0.255698
-0.674932 -0.461653 0.228987
-0.674932 0.093002 0.225778
-0.675227 0.574679 0.260506
-0.745444 0.65598 0.247201
-0.674932 -0.365373 0.226318
-0.745444 0.148213 0.247678
-0.68064 0.181949 0.260506
-0.682813 -0.522717 0.22525
-0.731639 0.596076 0.260506
-0.744169 0.326607 0.260506
-0.745444 -0.037466 0.232055
-0.687845 0.431956 0.260506
-0.705918 0.268047 0.260506
-0.737191 0.46621 0.22525
-0.674932 0.533099 0.225605
-0.742138 -0.102784 0.22525
-0.678613 0.628248 0.260506
-0.742299 -0.586782 0.22525
-0.745444 0.281369 0.234662
-0.745444 0.554389 0.234785
-0.700354 0.580232 0.22525
-0.688079 0.511944 0.260506
-0.67961 -0.136348 0.22525
-0.745444 0.361713 0.2369
-0.702634 0.215959 0.260506
-0.745444 0.439731 0.258308
-0.712717 0.34981 0.260506
-0.696134 -0.397504 0.22525
-0.711304 -0.449266 0.22525
-0.696406 0.350901 0.22525
-0.674932 -0.034648 0.228457
-0.690479 -0.326313 0.22525
-0.700137 0.396575 0.260506
-0.694607 0.05925 0.22525
-0.728977 0.60656 0.22525
-0.745444 0.185664 0.250161
-0.726713 0.117844 0.22525
-0.674932 0.250397 0.255372
-0.674932 0.605457 0.227263
-0.738209 0.080563 0.22525
-0.731852 -0.151809 0.22525
-0.700405 0.640397 0.22525
-0.69522 0.304345 0.260506
-0.696598 -0.489502 0.22525
-0.705641 -0.104577 0.22525
-0.745444 0.314155 0.2274
-0.674932 0.499939 0.227361
-0.730171 0.168566 0.22525
-0.687768 0.121927 0.22525
-0.744001 0.502558 0.22525
-0.677227 0.540436 0.260506
-0.679914 -0.261687 0.22525
-0.674932 0.431459 0.231332
-0.743677 0.538996 0.260506
-0.674932 0.280289 0.250833
-0.704093 -0.03728 0.22525
-0.680174 0.466005 0.260506
-0.719002 0.45124 0.260506
-0.741318 0.567719 0.260506
-0.674932 0.345347 0.245558
-0.726321 0.524539 0.22525
-0.745444 0.486115 0.256455
-0.674932 0.570489 0.230958
-0.731736 -0.359893 0.22525
-0.706549 -0.140445 0.22525
-0.674932 0.653602 0.246999
-0.727291 -0.424031 0.22525
-0.745444 0.241311 0.243247
-0.705342 0.628176 0.260506
-0.728122 0.305279 0.260506
-0.730966 0.657228 0.22525
-0.739706 0.414641 0.22525
-0.719678 -0.174711 0.22525
-0.686533 -0.439589 0.22525
-0.735268 0.360941 0.260506
-0.690467 0.185404 0.22525
-0.706841 -0.247431 0.22525
-0.726735 0.265259 0.22525
-0.674932 0.301599 0.237832
-0.716878 0.329438 0.22525
-0.674932 0.044612 0.228137
-0.694759 0.5477 0.22525
-0.727711 0.279432 0.260506
-0.721041 0.484562 0.22525
-0.732238 0.14433 0.22525
-0.113772 -0.669757 0.238045
0.159491 -0.669757 0.228355
0.282803 -0.669757 0.238247
0.458978 -0.669757 0.259791
0.321577 -0.602393 0.22525
0.487548 -0.599245 0.242183
-0.394567 -0.669757 0.254002
-0.519014 -0.602164 0.22525
0.079198 -0.630566 0.22525
-0.167282 -0.610014 0.22525
0.235786 -0.613197 0.22525
-0.567515 -0.669757 0.247101
-0.460486 -0.669757 0.240642
-0.074535 -0.605642 0.22525
0.345576 -0.669757 0.228863
-0.173405 -0.669757 0.241838
0.175552 -0.604441 0.22525
0.225735 -0.669757 0.252731
-0.339591 -0.599245 0.248465
0.004302 -0.60476 0.22525
-0.628834 -0.599245 0.226439
-0.28702 -0.610765 0.260506
-0.22153 -0.599245 0.230318
-0.513535 -0.669757 0.236682
0.059764 -0.669757 0.25288
0.509398 -0.669757 0.250961
-0.333747 -0.669757 0.239972
0.121727 -0.61025 0.22525
0.44636 -0.629563 0.22525
0.603394 -0.669757 0.250506
-0.473473 -0.599245 0.229245
-0.078522 -0.65066 0.260506
-0.403182 -0.602374 0.22525
-0.314608 -0.628748 0.22525
0.063093 -0.599688 0.260506
0.572895 -0.599245 0.236335
0.6648 -0.645106 0.235883
0.16172 -0.64225 0.260506
-0.554856 -0.636481 0.22525
-0.669592 -0.623334 0.22525
-0.209641 -0.660344 0.22525
0.545077 -0.656213 0.22525
-0.263111 -0.604647 0.22525
0.422991 -0.629482 0.260506
-0.014957 -0.669757 0.250631
0.385428 -0.669757 0.231859
0.201013 -0.635453 0.22525
0.402518 -0.599245 0.226324
0.248718 -0.61968 0.260506
-0.605121 -0.669032 0.22525
0.361023 -0.615322 0.22525
0.616222 -0.599245 0.239599
-0.238709 -0.632448 0.22525
-0.365073 -0.609469 0.22525
0.039955 -0.601474 0.22525
-0.154668 -0.630524 0.260506
-0.030891 -0.608671 0.22525
0.424126 -0.669757 0.255511
0.128542 -0.669757 0.244748
0.445859 -0.599245 0.244352
0.2358 -0.647967 0.22525
-0.116676 -0.600786 0.22525
0.215564 -0.637893 0.260506
0.257868 -0.66062 0.260506
-0.00422 -0.637637 0.22525
-0.24611 -0.669757 0.25638
-0.573009 -0.608774 0.22525
-0.294729 -0.599245 0.228439
0.086761 -0.599245 0.225467
0.271128 -0.615454 0.22525
-0.255284 -0.631239 0.260506
-0.611215 -0.625135 0.22525
0.015582 -0.669757 0.246197
-0.298823 -0.669757 0.234656
-0.28554 -0.643387 0.260506
-0.253258 -0.669757 0.226482
0.059493 -0.640462 0.260506
0.512659 -0.604989 0.22525
-0.72459 -0.61219 0.22525
0.452866 -0.628837 0.260506
-0.443753 -0.599245 0.229595
0.293512 -0.599245 0.235829
0.421274 -0.644994 0.22525
-0.584078 -0.646556 0.22525
-0.36635 -0.66709 0.260506
-0.641114 -0.626875 0.22525
-0.745444 -0.627184 0.249385
-0.143054 -0.599245 0.256599
-0.485204 -0.662192 0.22525
-0.052571 -0.599245 0.241447
-0.541185 -0.669757 0.234911
0.035627 -0.601383 0.260506
-0.571841 -0.639123 0.260506
0.299445 -0.64716 0.260506
0.275091 -0.625638 0.260506
-0.06356 -0.669757 0.248734
0.387009 -0.599245 0.254459
0.6648 -0.668319 0.250733
-0.437717 -0.659751 0.22525
-0.313268 -0.606416 0.260506
-0.401492 -0.633489 0.22525
-0.501104 -0.659274 0.260506
0.149127 -0.605841 0.22525
0.481787 -0.669757 0.246484
0.022199 -0.639225 0.22525
0.24828 -0.669757 0.237926
0.660914 -0.612884 0.22525
0.096803 -0.64959 0.22525
0.241526 -0.599245 0.24631
-0.12641 -0.669757 0.260336
0.605412 -0.667156 0.22525
0.528329 -0.599245 0.244451
0.070897 -0.654271 0.22525
0.619528 -0.628249 0.260506
0.617525 -0.644059 0.22525
-0.140795 -0.650195 0.22525
-0.262832 -0.638413 0.22525
-0.426462 -0.637601 0.22525
-0.633765 -0.669757 0.226867
-0.338649 -0.606392 0.22525
0.134974 -0.635241 0.260506
0.265666 -0.599245 0.242338
0.113658 -0.599245 0.24511
-0.548936 -0.608037 0.22525
-0.164602 -0.653377 0.22525
-0.745444 0.740277 0.241075
0.652671 0.740487 0.243101
-0.072485 0.740487 0.25993
0.47481 0.669974 0.230634
-0.251907 0.679021 0.260506
-0.586114 0.669974 0.257003
0.184309 0.725733 0.260506
0.026183 0.673059 0.260506
0.381118 0.729697 0.260506
-0.506524 0.740487 0.235663
-0.361247 0.686271 0.260506
0.093207 0.737604 0.260506
-0.678508 0.679224 0.260506
0.52423 0.740203 0.260506
-0.42551 0.740487 0.253042
-0.470136 0.669974 0.22708
0.262218 0.737671 0.260506
0.127772 0.669974 0.245084
-0.064503 0.669974 0.230652
0.313866 0.669974 0.254152
0.00367 0.740487 0.238227
0.454055 0.740487 0.235876
-0.606945 0.740487 0.254559
-0.192297 0.740487 0.257617
0.404638 0.67371 0.22525
-0.126642 0.672547 0.260506
0.248635 0.670546 0.260506
0.588034 0.725349 0.260506
-0.521787 0.681695 0.260506
-0.315548 0.740487 0.258706
-0.193374 0.669974 0.242024
-0.673824 0.740487 0.233211
0.322764 0.740487 0.252008
-0.131464 0.740093 0.260506
-0.239574 0.724546 0.22525
0.6648 0.677202 0.256404
0.557234 0.671547 0.260506
-0.409749 0.693215 0.22525
-0.032787 0.703009 0.260506
0.220035 0.708949 0.22525
0.061498 0.699929 0.22525
0.198619 0.669974 0.252521
-0.719194 0.700155 0.22525
-0.631116 0.690445 0.260506
0.605297 0.676028 0.260506
-0.308239 0.669974 0.243031
-0.560532 0.740487 0.257133
-0.267246 0.731213 0.260506
-0.548583 0.672413 0.22525
0.488008 0.701084 0.260506
-0.007927 0.669974 0.231596
0.140776 0.733193 0.260506
0.086752 0.674274 0.260506
-0.041857 0.734234 0.22525
0.32659 0.706477 0.22525
-0.390637 0.740487 0.227455
-0.48097 0.695826 0.260506
0.614205 0.734375 0.22525
0.282571 0.680116 0.22525
0.04551 0.740487 0.242225
-0.097957 0.707149 0.260506
0.516222 0.669974 0.226888
0.354626 0.673302 0.260506
-0.439485 0.669974 0.254605
-0.465412 0.740487 0.237415
0.54932 0.735034 0.22525
-0.389679 0.716582 0.260506
0.587339 0.684262 0.22525
-0.533643 0.709811 0.22525
0.276449 0.699342 0.260506
0.181884 0.699569 0.22525
0.549686 0.710338 0.260506
-0.614771 0.675899 0.22525
0.634309 0.710719 0.260506
0.373977 0.71476 0.22525
0.290368 0.740487 0.230639
-0.369221 0.669974 0.226235
-0.647086 0.734215 0.260506
0.450547 0.703631 0.22525
0.492532 0.740487 0.235914
-0.740794 0.691118 0.260506
-0.553894 0.701563 0.260506
0.229195 0.669974 0.22841
-0.48104 0.707517 0.22525
-0.445559 0.70677 0.260506
-0.149696 0.701534 0.260506
-0.702768 0.707158 0.260506
0.20212 0.740487 0.230633
-0.636941 0.740487 0.226033
0.23833 0.710399 0.260506
0.025054 0.709186 0.260506
0.636841 0.7036 0.22525
-0.679554 0.669974 0.22577
0.089129 0.732461 0.22525
-0.157648 0.669974 0.240537
-0.129611 0.692192 0.22525
-0.195503 0.701262 0.22525
0.24604 0.740487 0.22899
0.53483 0.699935 0.22525
-0.312835 0.700151 0.260506
0.102807 0.684215 0.22525
0.429709 0.737406 0.260506
0.619333 0.669974 0.229119
0.253585 0.698766 0.22525
-0.122079 0.737207 0.22525
-0.71317 0.670879 0.260506
-0.223787 0.680883 0.22525
0.15205 0.687935 0.260506
-0.076796 0.740487 0.226701
0.399446 0.740487 0.234689
-0.188004 0.707599 0.260506
-0.525372 0.72886 0.260506
-0.225572 0.740487 0.257799
-0.651067 0.669974 0.242724
-0.576726 0.731752 0.22525
-0.077066 0.673355 0.260506
-0.673963 0.708993 0.22525
0.048987 0.669974 0.226284
-0.516539 0.669974 0.228556
0.151577 0.684434 0.22525
0.6648 0.706587 0.245238
0.338993 0.738197 0.22525
-0.282753 0.714729 0.22525
0.505906 0.675543 0.260506
-0.008789 0.681028 0.260506
-0.346023 0.740487 0.254775
0.336077 0.677311 0.22525
-0.173863 0.740487 0.233105
-0.405467 0.690482 0.260506
0.559155 0.739335 0.260506
0.064412 0.694913 0.260506
-0.308937 0.740487 0.229075
0.385956 0.669974 0.248484
-0.716734 0.740487 0.248735
-0.449045 0.712204 0.22525
0.2907 0.730985 0.260506
-0.678187 0.731308 0.260506
-0.005663 0.724325 0.260506
-0.745444 0.711666 0.229785
-0.069461 0.70809 0.260506
0.516438 0.702716 0.260506
0.291098 0.712572 0.22525
0.185333 0.669974 0.226334
0.067918 0.722788 0.260506
-0.488676 0.669974 0.248031
-0.582978 0.697351 0.260506
0.649748 0.669974 0.232907
0.443499 0.677526 0.22525
0.168052 0.740487 0.244817
0.482101 0.737659 0.260506
0.573549 0.707152 0.22525
-0.344187 0.669974 0.235107
-0.200103 0.740487 0.231957
-0.397983 0.669974 0.225491
0.588826 0.729101 0.22525
-0.33867 0.698853 0.260506
-0.504415 0.696511 0.22525
0.060102 0.669974 0.255526
0.378405 0.677693 0.22525
-0.395738 0.714518 0.22525
-0.673973 0.706226 0.260506
-0.41755 0.712848 0.260506
-0.17787 0.677706 0.260506
-0.570676 0.699135 0.22525
0.600039 0.70675 0.22525
-0.541909 0.669974 0.251774
-0.293198 0.684978 0.260506
-0.617372 0.669974 0.259031
-0.174549 0.714241 0.22525
-0.702015 0.682593 0.22525
0.324156 0.690749 0.260506
-0.239304 0.721095 0.260506
0.140125 -0.353636 -0.280087
0.17646 -0.25617 -0.280087
0.092718 -0.507376 -0.280087
0.205024 -0.517456 -0.280087
0.163541 -0.405007 -0.280087
0.147499 -0.304009 -0.280087
0.132206 -0.592737 -0.280087
0.09856 -0.407143 -0.280087
0.102966 -0.610587 -0.280087
0.200017 -0.227897 -0.280087
0.145153 -0.433562 -0.280087
0.09082 -0.340408 -0.280087
0.170578 -0.520361 -0.280087
0.175031 -0.634323 -0.280087
0.119965 -0.491587 -0.280087
0.100328 -0.456083 -0.280087
0.189744 -0.49654 -0.280087
0.125894 -0.403049 -0.280087
0.18248 -0.288358 -0.280087
0.204694 -0.598539 -0.280087
0.165488 -0.320129 -0.280087
-0.617243 0.144931 0.260506
-0.638591 0.188425 0.260506
-0.745444 -0.411263 0.247367
-0.745444 -0.31619 0.231523
-0.745444 0.045708 0.235483
-0.745444 -0.493322 0.241739
-0.674932 -0.239747 0.246389
-0.745444 -0.183922 0.244201
-0.745444 -0.253611 0.228277
-0.674932 -0.179764 0.236885
-0.674932 -0.095562 0.23585
-0.727757 -0.363531 0.260506
-0.707285 0.009797 0.260506
-0.727174 0.085039 0.260506
-0.674932 -0.567112 0.229192
-0.702567 -0.490775 0.260506
-0.694985 -0.547328 0.260506
-0.745444 -0.003194 0.249144
-0.723489 -0.217374 0.22525
-0.675597 -0.147746 0.260506
-0.745444 -0.149364 0.259467
-0.704774 0.054032 0.260506
-0.741175 -0.232632 0.260506
-0.688326 -0.461117 0.260506
-0.699335 -0.259591 0.260506
-0.745444 -0.52469 0.23614
-0.684643 -0.010548 0.260506
-0.723293 -0.58694 0.260506
-0.679865 -0.113493 0.260506
-0.674932 -0.067061 0.241926
-0.720127 -0.468082 0.260506
-0.745444 -0.343108 0.253955
-0.674932 -0.439455 0.252667
-0.727811 -0.426508 0.260506
-0.745444 -0.259686 0.26036
-0.717772 -0.30201 0.22525
-0.687912 0.027296 0.260506
-0.73454 -0.392979 0.260506
-0.745444 0.101386 0.258791
-0.697279 -0.365531 0.260506
-0.744531 -0.478528 0.260506
-0.742673 -0.653155 0.260506
-0.682089 -0.599589 0.260506
-0.632554 -0.669757 0.251475
-0.648062 -0.6286 0.260506
-0.695864 -0.634952 0.260506
-0.663028 -0.669757 0.237919
-0.70162 -0.664746 0.260506
-0.666929 -0.650223 0.260506
-0.661591 -0.599245 0.228039
-0.704507 -0.599245 0.248785
-0.614254 -0.639571 0.260506
-0.1490256581401841 -0.17777299999999996 0.5114298608067698
0.5294839102269161 -0.022270000000000012 0.8032653218790855
-0.7142422986412794 0.12701699999999994 0.3031172233969007
-0.5406393044984427 -0.269837 0.34287547559241593
-0.3563102810169097 -0.659779 0.43870608312124504
0.22519790694166597 -0.281334 0.6525338595539005
-0.3922152587964646 0.01602300000000001 0.4130986520191281
-0.13021220657040455 0.13351099999999994 0.5394255701214408
0.26359304454685306 0.022119 0.6680585377560002
-0.1339586374006616 -0.465606 0.5073126122066972
0.15502987366504506 -0.558541 0.6547602656469128
0.45807472650540604 -0.282681 0.7772933288052455
-0.547006579462592 -0.52301 0.3505103767398386
0.0592769562634593 -0.07553399999999999 0.5854454330777933
-0.3301729483683069 -0.355074 0.42797537769167143
0.021550175694261875 -0.331225 0.5804004413152987
0.5464666628009701 -0.474553 0.8044940077659071
-0.5765860859320137 -0.03146400000000005 0.33855020813628456
0.3356171169322585 -0.443956 0.7073901723269396
0.39274032558248273 -0.11421000000000003 0.7202779098903356
-0.00310543496056348 -0.627614 0.5908198832983254
-0.731481153601657 -0.230323 0.28941823757111546
-0.2230856045369618 -0.017809999999999993 0.47127504156042754
-0.44247798438870956 -0.141679 0.3927754369181976
0.5540205322035899 -0.660582 0.7934309368971038
0.01453324397403244 0.09218899999999997 0.5979519013466931
-0.3861938554704791 -0.506605 0.41553334439924733
0.19476171260555752 0.163404 0.6623159379800136
-0.7308537618276884 -0.03146400000000005 0.2900354227637089
0.19832640957389236 -0.11747200000000002 0.6416686465226833
-0.081336555593582 -0.011017999999999972 0.5387992518382778
-0.1966638120902635 -0.325464 0.4921678642013154
0.03397308632831986 -0.482395 0.5854235172034584
0.40366126969532845 0.041650999999999994 0.7172617673731303
-0.25845523405566156 -0.534606 0.48196067479902993
0.5398555977880038 -0.16595700000000002 0.8028747349679093
-0.48016761191982815 -0.401674 0.37753602444377626
-0.6958384527336572 -0.527989 0.3107204266566131
0.09707690665767132 -0.20911999999999997 0.6007294534649528
-0.27374519132594316 -0.14972200000000002 0.46100080288451295
-0.6069703003439998 -0.404123 0.3262646641692287
0.5197056691993053 0.11963400000000002 0.7987949164829335
-0.6103532483123467 -0.16202499999999997 0.30725544714054875
0.34458386257797524 -0.268427 0.7110157835202441
0.17939994279186378 -0.413342 0.6442253678897404
-0.025256315186888867 -0.189564 0.551265275940914
-0.5102651990986773 0.073735 0.3857550593026614
-0.45670687500689555 -0.612734 0.36938077475402653
0.12790851334765918 0.04980399999999996 0.6400446280278858
-0.42341060100844385 -0.26982 0.39027569372539433
0.4395623387231832 -0.40842 0.7649433141250679
-0.625437489228031 -0.636918 0.33203918118119713
0.4788745769214836 -0.561277 0.7476734930246609
0.2653179730604206 -0.537633 0.6967437836957352
-0.08478801544475412 -0.31827 0.5271942464571611
-0.07813628800876138 -0.569814 0.5224518901739128
-0.29824319789063497 0.07311599999999996 0.47148397045716556
0.29278310648260353 -0.15621600000000002 0.6900706816358466
-0.6413511915929706 -0.296021 0.29472174823036146
0.3699229619881105 -0.544912 0.7341674609126769
-0.04638738506502127 -0.41807 0.5529305887660275
-0.35215686477617364 -0.09204999999999997 0.41908640765167654
