-0.328225 -0.152463 -0.401857
0.454833 -0.309115 -0.401857
-0.516479 -0.070724 -0.415264
-0.591635 -0.196155 -0.401857
-0.590063 -0.120663 -0.401857
0.12016 0.459603 -0.401857
-0.624947 0.301237 -0.415264
-0.555173 0.243742 -0.415264
-0.412504 -0.277553 -0.415264
0.205823 -0.078139 -0.401857
-0.429736 -0.240694 -0.415264
-0.325777 -0.051296 -0.415264
-0.463348 0.169874 -0.415264
-0.508136 -0.212058 -0.415264
0.177821 0.449305 -0.415264
0.495606 -0.435583 -0.415264
-0.473344 0.35537 -0.401857
0.343933 -0.137614 -0.401857
0.03654 -0.34314 -0.401857
-0.249614 -0.135786 -0.401857
0.474009 -0.223087 -0.415264
-0.437937 0.393337 -0.401857
0.637581 0.273709 -0.415264
-0.364493 0.489085 -0.401857
0.63146 -0.090963 -0.415264
-0.228054 -0.324948 -0.401857
-0.381505 -0.15422 -0.415264
0.501212 0.422319 -0.415264
0.005743 0.099182 -0.401857
-0.164067 -0.141064 -0.415264
-0.581163 0.41556 -0.415264
0.338503 0.421984 -0.415264
0.296296 0.362641 -0.415264
0.491366 0.523037 -0.415264
0.65967 0.47221 -0.415264
0.251802 -0.168395 -0.415264
-0.053412 0.422091 -0.415264
-0.060993 0.494879 -0.401857
-0.27985 0.426924 -0.415264
0.362921 0.371108 -0.415264
-0.063764 -0.281373 -0.415264
-0.384012 -0.105449 -0.415264
0.024144 -0.030461 -0.415264
0.057185 0.391138 -0.415264
-0.219325 0.254503 -0.415264
-0.31767 -0.219128 -0.401857
-0.388679 -0.247701 -0.415264
-0.314005 0.023286 -0.401857
-0.241132 0.461668 -0.401857
0.205446 0.251079 -0.415264
-0.644458 -0.294939 -0.415264
0.166528 -0.264902 -0.415264
0.355454 0.057936 -0.401857
-0.133747 -0.284855 -0.401857
0.209424 0.351919 -0.401857
0.564701 0.081292 -0.401857
-0.065279 0.007901 -0.401857
0.020197 -0.315088 -0.415264
0.109826 -0.118613 -0.415264
-0.188752 0.057801 -0.415264
-0.058934 0.1155 -0.415264
0.423801 0.291136 -0.401857
0.364855 0.172843 -0.415264
-0.167655 -0.097474 -0.401857
-0.43212 -0.393995 -0.401857
0.389905 0.274202 -0.415264
-0.442338 -0.170557 -0.401857
-0.035269 -0.07342 -0.415264
-0.571448 -0.31631 -0.415264
0.554979 0.389306 -0.415264
0.527891 -0.112539 -0.401857
0.226604 0.185484 -0.401857
0.49915 -0.300439 -0.415264
-0.170651 -0.040159 -0.401857
-0.656668 0.09601 -0.415264
0.162998 0.300998 -0.401857
-0.657214 0.392533 -0.401857
0.572066 0.235869 -0.415264
-0.495487 0.204514 -0.401857
-0.570929 0.063371 -0.401857
-0.370483 0.295758 -0.401857
-0.087788 -0.25577 -0.401857
-0.177398 -0.343049 -0.401857
0.362719 -0.167374 -0.401857
0.404202 0.398669 -0.415264
-0.54997 -0.3441 -0.401857
-0.304785 0.353926 -0.415264
-0.120181 -0.44856 -0.415264
-0.420114 -0.10808 -0.415264
0.663232 0.049129 -0.401857
0.042741 0.227756 -0.415264
-0.508013 -0.129622 -0.401857
-0.114498 -0.325888 -0.415264
0.391284 -0.425019 -0.415264
-0.153125 0.437007 -0.415264
0.209986 0.486037 -0.415264
0.318226 0.529251 -0.409396
0.466041 0.05978 -0.415264
0.15822 0.523409 -0.415264
-0.521485 -0.037812 -0.401857
-0.43091 0.231928 -0.415264
0.194826 -0.359963 -0.415264
0.105919 0.143544 -0.415264
-0.569389 0.460282 -0.415264
0.361034 0.522428 -0.415264
-0.237543 0.523251 -0.415264
0.595469 -0.09398 -0.415264
0.405125 0.329815 -0.415264
-0.486975 0.438191 -0.415264
-0.665687 -0.17032 -0.401857
-0.095641 -0.152853 -0.401857
-0.094809 0.443985 -0.415264
0.263377 -0.450608 -0.415264
0.241591 0.045045 -0.401857
-0.08629 -0.105137 -0.401857
0.176197 0.179805 -0.401857
0.578511 -0.354597 -0.401857
0.29041 0.438901 -0.401857
0.580915 -0.38894 -0.415264
0.163438 -0.196017 -0.401857
-0.120328 0.170024 -0.401857
0.612371 0.446319 -0.401857
0.03966 -0.405215 -0.415264
-0.236057 -0.211018 -0.415264
0.095477 0.339034 -0.401857
-0.335879 0.063717 -0.401857
0.432669 0.384691 -0.401857
0.04647 0.070195 -0.415264
-0.116978 0.294652 -0.415264
-0.483267 -0.307467 -0.401857
0.312705 0.270562 -0.415264
-0.205985 0.154447 -0.415264
-0.174182 0.168199 -0.401857
-0.240307 -0.422549 -0.401857
-0.019904 -0.393461 -0.401857
-0.541858 -0.287375 -0.401857
-0.375133 0.45888 -0.401857
0.501833 -0.196757 -0.415264
-0.307877 0.183672 -0.415264
0.206267 -0.437483 -0.415264
0.295094 -0.434741 -0.415264
-0.123203 -0.24408 -0.401857
-0.143416 -0.080908 -0.415264
0.109205 0.529251 -0.413212
0.254778 0.324155 -0.415264
0.656398 -0.359937 -0.415264
0.527774 -0.215246 -0.401857
-0.414823 0.058783 -0.401857
-0.236009 -0.093905 -0.415264
-0.502812 0.071466 -0.415264
0.614898 0.233391 -0.415264
-0.623559 -0.224609 -0.415264
0.253851 -0.328543 -0.415264
-0.656528 0.454486 -0.415264
-0.107153 0.22353 -0.415264
-0.57258 -0.249973 -0.415264
-0.224216 -0.379823 -0.415264
0.317214 0.332271 -0.401857
0.312115 0.213114 -0.415264
-0.483225 -0.37855 -0.401857
0.339152 -0.065532 -0.401857
0.305162 0.078011 -0.415264
0.142676 -0.361463 -0.401857
-0.193991 0.224411 -0.415264
-0.138441 0.326859 -0.415264
0.152852 -0.037633 -0.401857
0.302497 -0.081571 -0.401857
0.214696 0.293965 -0.401857
0.10291 0.062241 -0.415264
-0.543419 0.309154 -0.415264
-0.525386 0.154316 -0.401857
-0.075352 0.280254 -0.415264
0.508315 -0.04721 -0.401857
-0.108248 -0.391352 -0.401857
0.238945 -0.269043 -0.401857
-0.012736 0.210395 -0.401857
-0.094213 -0.045339 -0.415264
-0.410504 -0.375503 -0.415264
0.009267 0.399973 -0.415264
-0.539554 -0.1474 -0.415264
-0.443421 -0.273197 -0.415264
0.47212 0.311794 -0.401857
0.472385 -0.125938 -0.415264
-0.188223 -0.203455 -0.401857
0.590747 -0.214823 -0.401857
0.490301 -0.161461 -0.415264
0.304503 -0.340429 -0.401857
-0.251705 0.493399 -0.415264
-0.01722 -0.426531 -0.415264
0.001827 -0.258841 -0.415264
-0.036297 -0.290289 -0.401857
0.570304 -0.037624 -0.415264
-0.51309 0.23201 -0.415264
0.466218 -0.446027 -0.415264
0.483173 0.487846 -0.415264
0.025706 -0.20183 -0.415264
-0.334655 0.157035 -0.415264
-0.30856 0.415315 -0.415264
0.108236 0.226663 -0.415264
0.440386 -0.389629 -0.401857
-0.250267 0.057259 -0.415264
0.092845 -0.274303 -0.401857
-0.021749 -0.236376 -0.401857
-0.643027 -0.149131 -0.401857
0.224173 0.097662 -0.401857
-0.553904 -0.373455 -0.415264
-0.008351 0.468873 -0.415264
0.587627 0.346015 -0.401857
0.479284 -0.279216 -0.401857
-0.320202 -0.345627 -0.415264
0.394927 0.112564 -0.401857
0.185175 0.135672 -0.415264
-0.19071 0.494375 -0.415264
0.611367 0.40059 -0.415264
0.587856 -0.141175 -0.401857
0.108132 -0.188449 -0.401857
-0.641651 0.524803 -0.415264
0.421512 -0.27107 -0.401857
0.08597 -0.10612 -0.401857
0.589221 -0.425364 -0.401857
-0.023166 0.427742 -0.415264
0.415103 -0.111127 -0.415264
0.615453 -0.26327 -0.401857
-0.268353 0.126055 -0.415264
-0.656901 -0.232957 -0.415264
0.449454 -0.244088 -0.401857
-0.622663 -0.384375 -0.401857
0.484947 0.12932 -0.415264
-0.165668 -0.30662 -0.401857
0.485784 0.185661 -0.415264
-0.259383 -0.185799 -0.401857
0.566036 -0.264119 -0.401857
-0.458448 0.266461 -0.401857
0.494054 -0.400854 -0.401857
0.065569 0.188783 -0.401857
-0.659369 0.208636 -0.401857
-0.59101 -0.397433 -0.415264
-0.224931 -0.000721 -0.415264
-0.060317 -0.159826 -0.415264
-0.069289 -0.312021 -0.415264
-0.24748 -0.25269 -0.415264
-0.418006 -0.342511 -0.415264
-0.367891 0.181369 -0.401857
-0.345238 0.5242 -0.401857
-0.019946 -0.128553 -0.401857
0.058737 -0.423675 -0.401857
-0.048389 0.263422 -0.401857
0.282907 -0.299231 -0.415264
-0.084412 0.382108 -0.415264
-0.586536 0.30523 -0.401857
-0.537936 0.335772 -0.401857
0.291006 -0.19871 -0.401857
-0.412764 0.490592 -0.415264
-0.034063 0.006432 -0.401857
-0.498817 -0.462524 -0.415264
-0.354942 0.127154 -0.401857
0.2069 -0.221825 -0.401857
-0.266536 -0.328869 -0.415264
-0.49078 0.276071 -0.401857
0.195459 0.425803 -0.415264
-0.418119 0.41502 -0.401857
-0.043766 -0.413084 -0.415264
-0.151571 0.353338 -0.401857
0.094483 -0.453961 -0.401857
0.516031 0.096183 -0.401857
-0.29516 0.504389 -0.415264
-0.374399 0.266747 -0.401857
0.261626 0.428614 -0.401857
0.078198 -0.173781 -0.401857
0.246897 0.387176 -0.415264
0.408836 0.169519 -0.401857
-0.349538 0.466883 -0.415264
-0.092138 0.502492 -0.415264
0.137303 -0.426313 -0.401857
-0.639313 -0.338261 -0.415264
0.438577 0.053711 -0.401857
-0.238753 0.303572 -0.415264
-0.308302 0.290455 -0.415264
-0.291722 -0.23537 -0.415264
-0.615065 -0.043596 -0.401857
-0.483872 -0.096012 -0.415264
0.66533 0.327808 -0.401857
-0.209638 -0.036735 -0.415264
0.637125 -0.323456 -0.415264
-0.440385 0.111749 -0.415264
-0.071046 0.453619 -0.401857
-0.241979 -0.465536 -0.415264
-0.225826 0.406199 -0.415264
0.409858 -0.137554 -0.401857
-0.446064 -0.302476 -0.401857
0.485743 -0.081692 -0.415264
0.573439 0.18984 -0.415264
-0.285966 -0.107944 -0.401857
0.653555 0.196491 -0.401857
-0.012311 -0.173905 -0.401857
-0.166619 -0.405996 -0.415264
0.59443 -0.277633 -0.415264
0.514459 -0.353631 -0.401857
0.000609 0.255024 -0.401857
-0.493631 0.407782 -0.401857
0.600829 0.520351 -0.415264
-0.275807 0.183656 -0.401857
-0.060601 0.169874 -0.401857
0.579816 0.3184 -0.401857
0.148101 0.226802 -0.401857
0.473047 -0.253347 -0.415264
0.221984 -0.115821 -0.401857
-0.186462 0.284478 -0.415264
-0.185881 0.102127 -0.415264
-0.449923 0.049307 -0.401857
0.571157 -0.468248 -0.415264
0.197861 -0.162747 -0.401857
-0.614993 0.084454 -0.415264
0.31141 -0.160077 -0.401857
0.349577 0.142258 -0.415264
-0.16942 0.529251 -0.410021
-0.070648 -0.406228 -0.401857
-0.121192 -0.015054 -0.401857
0.369029 0.083821 -0.401857
-0.601399 -0.339818 -0.415264
-0.488667 0.135684 -0.401857
-0.296407 -0.398717 -0.415264
-0.379845 0.322603 -0.401857
0.360234 0.315052 -0.415264
-0.356962 -0.31642 -0.415264
0.388517 0.436082 -0.415264
-0.109372 -0.114752 -0.415264
-0.024954 0.12212 -0.415264
0.052673 0.270336 -0.401857
-0.621352 0.276517 -0.401857
-0.09201 0.168945 -0.401857
-0.296175 -0.323994 -0.401857
-0.614752 0.361434 -0.401857
0.337095 0.24788 -0.401857
0.17236 0.00513 -0.415264
-0.636757 0.469582 -0.401857
0.448877 0.163688 -0.401857
-0.281677 -0.196774 -0.415264
-0.610475 0.249463 -0.401857
-0.133138 0.48787 -0.415264
0.407957 -0.21342 -0.401857
-0.028872 -0.359386 -0.415264
0.661249 0.513373 -0.415264
0.475114 -0.040502 -0.415264
-0.123179 -0.192679 -0.415264
-0.404039 0.27809 -0.415264
0.32229 0.15459 -0.415264
0.433043 -0.175427 -0.415264
0.018471 -0.176203 -0.401857
0.643363 0.384615 -0.415264
-0.588997 -0.005423 -0.415264
-0.554031 0.173344 -0.401857
0.443294 0.081318 -0.401857
-0.207743 0.333402 -0.401857
-0.469216 -0.187829 -0.415264
-0.409129 0.161636 -0.401857
0.536816 0.183313 -0.415264
0.320025 -0.463403 -0.401857
-0.04764 0.525461 -0.415264
-0.466519 0.087911 -0.401857
-0.547536 -0.411011 -0.415264
-0.183225 0.440458 -0.401857
-0.600779 0.033749 -0.401857
-0.589871 -0.300275 -0.401857
0.278426 -0.142805 -0.401857
-0.48832 0.336115 -0.415264
0.239009 0.295561 -0.415264
0.248537 -0.235694 -0.401857
-0.242261 0.034302 -0.401857
0.216337 0.004372 -0.415264
0.114695 -0.059954 -0.401857
0.279012 0.001742 -0.401857
-0.154691 0.123897 -0.415264
-0.164701 0.002604 -0.415264
-0.531086 0.37675 -0.415264
-0.320432 0.265087 -0.415264
0.398595 0.015804 -0.401857
0.174255 -0.400293 -0.415264
-0.467069 0.485058 -0.415264
-0.003826 0.318731 -0.401857
0.517794 -0.396438 -0.415264
-0.410093 -0.009488 -0.415264
-0.58465 0.506387 -0.401857
-0.465915 0.243362 -0.415264
-0.105257 -0.352723 -0.415264
0.470293 0.218462 -0.401857
0.553892 0.144746 -0.415264
0.041226 -0.140715 -0.415264
-0.128724 -0.426276 -0.401857
-0.526032 0.014389 -0.401857
-0.265868 -0.27292 -0.415264
-0.276945 -0.303589 -0.401857
-0.246101 0.365852 -0.401857
-0.391945 -0.297841 -0.415264
0.553021 0.272464 -0.401857
-0.152913 0.386034 -0.415264
0.665686 0.366456 -0.401857
0.184499 -0.061791 -0.415264
-0.470486 -0.353485 -0.401857
-0.061322 -0.202275 -0.415264
-0.325447 0.342452 -0.401857
-0.029605 -0.263321 -0.415264
-0.154764 0.190836 -0.401857
0.433732 0.2307 -0.401857
-0.50251 0.376573 -0.415264
-0.32777 -0.290617 -0.401857
-0.042065 0.480864 -0.415264
0.375523 -0.286542 -0.401857
-0.222803 -0.132511 -0.401857
0.569806 0.010472 -0.415264
-0.436237 0.195094 -0.415264
0.119744 0.124698 -0.401857
-0.01793 0.035765 -0.401857
0.544258 0.034861 -0.415264
0.37291 0.469088 -0.401857
-0.39121 0.181888 -0.415264
0.512102 -0.330429 -0.415264
0.105517 -0.341641 -0.415264
0.144949 -0.23907 -0.415264
-0.365659 0.391556 -0.415264
-0.146199 0.024922 -0.401857
-0.578208 0.087235 -0.415264
0.189385 0.471823 -0.401857
-0.40972 -0.228877 -0.401857
-0.545789 -0.09702 -0.415264
0.114336 0.485751 -0.401857
0.057813 -0.224735 -0.401857
0.355099 -0.356537 -0.415264
-0.105471 0.018303 -0.401857
0.309669 -0.01883 -0.415264
0.398235 -0.308976 -0.401857
-0.494257 0.309894 -0.415264
0.323676 0.125685 -0.415264
0.523414 0.148669 -0.415264
0.390878 0.154735 -0.415264
0.328513 -0.115938 -0.401857
-0.281278 0.061036 -0.401857
-0.269946 0.226971 -0.415264
0.221158 -0.319546 -0.401857
0.33673 -0.392143 -0.415264
-0.337925 0.285278 -0.415264
-0.448804 -0.148611 -0.415264
-0.473241 -0.028302 -0.401857
0.383297 -0.19166 -0.401857
0.303734 0.30086 -0.401857
0.511688 0.512849 -0.401857
0.537732 -0.143928 -0.415264
0.070302 0.154634 -0.401857
-0.171877 -0.062835 -0.415264
0.542788 0.087234 -0.415264
-0.076806 -0.227437 -0.401857
-0.654743 0.235419 -0.401857
0.337539 -0.332595 -0.415264
0.268327 0.217577 -0.415264
0.222879 -0.191232 -0.401857
-0.206272 0.457642 -0.401857
0.348978 -0.208378 -0.415264
0.207363 0.121719 -0.415264
-0.615106 0.520307 -0.401857
-0.657802 0.18249 -0.401857
-0.145162 -0.366821 -0.401857
0.171818 -0.144808 -0.401857
0.334802 0.211713 -0.401857
0.038809 -0.259779 -0.401857
0.126177 0.437964 -0.415264
0.543546 -0.09536 -0.415264
0.073485 -0.040009 -0.401857
-0.386971 0.211318 -0.415264
-0.052286 -0.11028 -0.401857
-0.326417 0.208263 -0.401857
0.073372 0.030689 -0.401857
0.183557 0.082559 -0.415264
-0.196226 -0.255027 -0.415264
0.611622 0.272772 -0.415264
-0.295507 0.216157 -0.401857
-0.511968 -0.107746 -0.415264
-0.163579 0.267918 -0.401857
0.169102 0.218601 -0.415264
-0.293904 0.013876 -0.415264
0.471927 -0.011117 -0.415264
-0.519007 -0.155757 -0.401857
-0.62959 0.060533 -0.415264
0.09197 0.398815 -0.401857
0.583526 0.209571 -0.401857
0.453012 0.007864 -0.415264
0.612732 -0.004937 -0.401857
0.356834 0.286218 -0.415264
0.569787 -0.19356 -0.401857
0.620999 0.151675 -0.401857
-0.601577 0.201849 -0.401857
0.622647 0.19801 -0.401857
-0.465038 -0.277278 -0.401857
-0.104528 0.319554 -0.401857
0.4803 -0.312932 -0.401857
0.110087 -0.004838 -0.401857
0.161889 0.096878 -0.415264
-0.338376 0.411669 -0.401857
0.652801 -0.074237 -0.401857
0.316981 0.439464 -0.401857
0.125517 0.34047 -0.401857
-0.595513 0.151053 -0.401857
0.6318 0.296744 -0.401857
-0.580653 -0.17415 -0.415264
-0.145461 0.091165 -0.401857
0.000834 -0.212633 -0.415264
0.482229 0.02115 -0.401857
0.433294 -0.015021 -0.401857
-0.432352 0.003935 -0.401857
-0.376524 0.034326 -0.415264
0.429365 0.357586 -0.401857
0.337798 0.024819 -0.415264
-0.306065 0.162154 -0.401857
-0.392697 0.36855 -0.415264
0.450014 -0.126183 -0.401857
0.10893 -0.257779 -0.415264
-0.421391 -0.175658 -0.415264
0.660524 -0.333282 -0.415264
-0.225635 -0.229877 -0.401857
-0.66668 -0.35298 -0.415264
0.264704 0.13004 -0.401857
0.412673 0.225497 -0.415264
0.210551 0.523687 -0.415264
0.058375 0.453496 -0.415264
-0.142125 -0.210198 -0.401857
0.570135 -0.317392 -0.415264
-0.578645 0.436754 -0.401857
-0.484083 0.038036 -0.415264
-0.095787 -0.206541 -0.401857
0.00181 0.011845 -0.415264
-0.108087 0.41141 -0.401857
0.022779 -0.001182 -0.401857
0.393672 -0.398939 -0.415264
-0.280175 -0.468433 -0.415264
-0.498148 -0.358723 -0.415264
0.145733 -0.285342 -0.415264
0.535539 0.216273 -0.415264
0.168639 0.428392 -0.401857
0.392862 -0.1242 -0.415264
0.242289 0.23741 -0.415264
0.504797 0.122216 -0.401857
-0.150667 0.41607 -0.401857
-0.427098 0.037039 -0.401857
0.340783 -0.435038 -0.401857
-0.554275 0.148407 -0.401857
0.281025 -0.121465 -0.415264
0.043828 0.039127 -0.401857
0.359151 0.235566 -0.415264
0.488032 -0.380765 -0.415264
0.025047 0.413785 -0.401857
0.003486 0.360874 -0.415264
-0.569978 -0.229204 -0.401857
-0.448213 0.510121 -0.415264
-0.557433 -0.265853 -0.401857
-0.515921 -0.328658 -0.401857
-0.556493 0.215098 -0.401857
-0.189227 0.380744 -0.401857
-0.502586 0.002694 -0.415264
0.078939 0.525578 -0.401857
-0.272362 -0.368623 -0.401857
-0.000263 -0.329126 -0.415264
0.055846 0.360944 -0.401857
-0.04857 -0.17702 -0.401857
0.126032 0.245741 -0.401857
0.016188 -0.351435 -0.415264
0.407786 0.473156 -0.401857
0.295622 -0.2829 -0.401857
0.548124 -0.192075 -0.415264
-0.606088 -0.062439 -0.415264
0.408113 -0.338734 -0.415264
0.384467 0.529251 -0.41211
-0.175584 -0.459856 -0.401857
-0.476664 0.190553 -0.415264
0.410993 0.506394 -0.415264
0.643737 0.101153 -0.415264
0.671227 -0.262546 -0.401857
0.613376 -0.036151 -0.415264
0.474227 0.089136 -0.401857
-0.444487 0.216588 -0.401857
-0.58027 0.484326 -0.415264
-0.443634 -0.101353 -0.415264
0.085797 -0.365409 -0.415264
0.602703 -0.35107 -0.401857
-0.414694 0.253803 -0.401857
0.665792 0.002007 -0.415264
-0.424512 -0.455918 -0.415264
-0.46936 0.007441 -0.415264
0.45049 0.483106 -0.401857
0.001204 0.418623 -0.401857
0.110713 0.169506 -0.415264
0.254826 0.06303 -0.415264
-0.394253 -0.387633 -0.401857
-0.494867 -0.0692 -0.401857
0.127698 0.021164 -0.415264
0.654338 -0.40896 -0.415264
-0.530631 -0.22661 -0.415264
0.190211 -0.333395 -0.401857
0.549207 -0.302338 -0.415264
0.472456 0.41734 -0.415264
0.62784 -0.140919 -0.415264
0.302002 0.387418 -0.415264
0.438872 0.188016 -0.401857
0.101075 0.453076 -0.415264
-0.116244 0.375012 -0.415264
0.19142 -0.263353 -0.401857
-0.43639 0.423473 -0.415264
-0.185444 -0.149717 -0.401857
-0.205889 0.103945 -0.401857
-0.57834 0.250549 -0.415264
0.315905 0.358326 -0.401857
-0.006765 0.191235 -0.415264
0.224615 0.402847 -0.415264
-0.559371 0.011511 -0.401857
-0.371476 -0.464546 -0.401857
-0.572898 -0.055873 -0.401857
0.283688 0.180003 -0.415264
0.669892 -0.052756 -0.415264
0.514087 0.021725 -0.415264
0.367683 0.042189 -0.415264
0.154629 -0.4141 -0.415264
-0.60099 0.413847 -0.401857
0.064477 0.286351 -0.415264
0.644274 0.345298 -0.401857
0.544631 0.410941 -0.415264
-0.347702 -0.358614 -0.401857
-0.56209 -0.127568 -0.401857
-0.605657 0.322495 -0.415264
0.155388 0.482544 -0.415264
-0.016345 0.071721 -0.415264
0.424635 -0.423893 -0.415264
0.135537 -0.460791 -0.415264
-0.394341 0.412301 -0.415264
0.362702 -0.228402 -0.401857
-0.605656 -0.132833 -0.415264
-0.410641 0.222441 -0.401857
0.327121 -0.087829 -0.401857
-0.219711 -0.075973 -0.415264
0.13355 -0.121093 -0.415264
0.616093 -0.330348 -0.401857
0.517141 0.247952 -0.401857
0.593027 0.137364 -0.415264
-0.293257 -0.150599 -0.415264
0.651648 0.147052 -0.415264
0.568997 -0.237465 -0.415264
-0.042853 0.352705 -0.415264
0.569351 -0.438446 -0.401857
0.38895 -0.080111 -0.401857
0.299494 -0.458107 -0.415264
-0.143476 0.260084 -0.415264
0.542937 -0.269953 -0.415264
0.241946 -0.35195 -0.401857
0.254944 -0.213767 -0.415264
0.148838 0.44501 -0.415264
0.559622 0.495896 -0.415264
0.444641 0.279863 -0.415264
0.55398 0.053137 -0.401857
0.277929 0.312357 -0.415264
0.044542 -0.444457 -0.401857
0.150518 0.375031 -0.401857
-0.225472 -0.348446 -0.401857
0.278794 0.378527 -0.415264
0.263601 0.094878 -0.401857
-0.511158 0.193008 -0.415264
0.617976 -0.184714 -0.415264
-0.597641 -0.0845 -0.415264
-0.518745 -0.414921 -0.415264
0.018776 0.309105 -0.401857
0.048841 0.203407 -0.415264
-0.623976 -0.152567 -0.415264
-0.072569 0.425436 -0.401857
0.411293 0.062081 -0.401857
0.152045 -0.082787 -0.415264
-0.436115 -0.322498 -0.415264
0.304583 -0.363895 -0.401857
-0.173174 0.19647 -0.415264
-0.534294 0.056608 -0.401857
-0.501129 -0.254549 -0.401857
-0.092848 -0.450301 -0.415264
0.2261 -0.372079 -0.415264
-0.661421 -0.251581 -0.401857
0.144019 0.355138 -0.415264
0.215316 0.213596 -0.415264
-0.48541 -0.240573 -0.415264
-0.425287 -0.291783 -0.401857
-0.562566 -0.45038 -0.401857
0.286909 -0.092623 -0.415264
0.258034 -0.066368 -0.415264
0.364443 -0.141971 -0.415264
0.546338 0.245664 -0.401857
0.284663 -0.318191 -0.401857
-0.629064 0.206205 -0.415264
0.246991 -0.427233 -0.415264
-0.26026 0.29103 -0.401857
0.209634 0.273932 -0.415264
-0.307812 -0.462428 -0.415264
-0.280588 -0.026807 -0.401857
0.010574 -0.289339 -0.401857
-0.664936 -0.304779 -0.401857
-0.183088 -0.274108 -0.401857
0.107703 -0.403675 -0.401857
0.525268 0.493066 -0.415264
0.479265 0.039818 -0.415264
-0.306367 -0.453907 0.028615
0.337796 -0.453907 -0.152897
0.067604 -0.453907 0.091996
-0.05589 -0.453907 -0.198496
0.430925 -0.453907 0.177425
-0.461142 -0.453907 0.256651
-0.440317 -0.453907 -0.203916
0.503048 -0.453907 -0.337647
-0.12408 -0.453907 0.227579
0.514912 -0.453907 -0.031348
0.145463 -0.453907 -0.254665
-0.513811 -0.453907 0.001015
-0.247894 -0.453907 -0.26359
0.269707 -0.453907 0.060266
-0.110048 -0.453907 0.001328
0.156489 -0.453907 -0.076614
0.213711 -0.453907 0.243883
0.352165 -0.453907 0.332025
0.031453 -0.453907 0.25346
-0.220695 -0.453907 -0.105706
0.545458 -0.453907 -0.190103
-0.543869 -0.453907 -0.310698
-0.25774 -0.453907 0.167065
0.546232 -0.453907 0.268161
0.351038 -0.453907 -0.290212
-0.420322 -0.453907 0.125477
0.00527 -0.453907 -0.072486
0.560401 -0.453907 0.134636
-0.560819 -0.453907 -0.147272
-0.3873 -0.453907 -0.074308
-0.569577 -0.453907 0.119214
0.385951 -0.453907 -0.010754
-0.36985 -0.453907 -0.312009
-0.51534 -0.453907 0.387738
-0.136112 -0.453907 -0.318843
0.134849 -0.453907 0.340842
-0.04998 -0.453907 0.114797
-0.654413 -0.453907 -0.215547
0.317055 -0.453907 0.18922
-0.327786 -0.453907 -0.183775
0.448282 -0.453907 -0.133185
-0.175663 -0.453907 0.094422
0.087981 -0.453907 -0.162108
-0.197446 -0.453907 0.338653
-0.01829 -0.453907 -0.309929
0.463934 -0.453907 0.063033
-0.113516 -0.453907 -0.107883
0.259312 -0.453907 -0.058087
0.220636 -0.453907 -0.332947
0.262766 -0.453907 -0.224107
0.167385 -0.453907 0.059542
-0.609196 -0.453907 -0.044474
-0.168172 -0.453907 -0.193495
-0.557404 -0.453907 0.228395
0.110345 -0.453907 0.191759
0.370526 -0.453907 0.096102
0.456245 -0.453907 -0.232855
-0.393886 -0.453907 0.337473
-0.229599 -0.453907 -0.359667
-0.341845 -0.453907 0.215776
0.079347 -0.453907 -0.009898
0.612468 -0.453907 -0.000307
0.630484 -0.453907 -0.146496
0.59818 -0.453907 -0.351237
-0.203062 -0.453907 -0.011201
0.182647 -0.453907 -0.169396
0.075319 -0.453907 -0.314514
-0.425136 -0.453907 0.022899
-0.45722 -0.453907 -0.332896
-0.492044 -0.453907 -0.091038
-0.026421 -0.453907 0.337357
0.208238 -0.453907 0.15749
-0.022613 -0.453907 0.032808
-0.302278 -0.453907 -0.059411
0.597929 -0.453907 -0.258186
-0.218823 -0.453907 0.241565
-0.32599 -0.453907 0.11809
-0.044399 -0.453907 0.2054
0.603142 -0.453907 0.341998
0.554545 -0.453907 -0.108689
0.62128 -0.453907 0.203215
-0.12064 -0.453907 0.311519
0.299867 -0.453907 0.267129
-0.487011 -0.453907 0.075726
0.424146 -0.453907 -0.337424
0.242956 -0.453907 0.353101
-0.611174 -0.453907 0.364146
0.359708 -0.453907 -0.379386
0.513568 -0.453907 0.348372
-0.513447 -0.453907 -0.223139
0.013517 -0.453907 0.155397
0.021894 -0.453907 -0.19808
-0.48001 -0.453907 0.170754
0.508994 -0.453907 0.188219
0.385418 -0.453907 -0.210853
-0.249411 -0.453907 0.075919
-0.636856 -0.453907 0.042604
0.340833 -0.453907 -0.065943
-0.114169 -0.453907 0.145276
-0.628381 -0.453907 0.226615
0.151127 -0.453907 -0.347218
-0.257335 -0.453907 -0.190398
-0.606462 -0.453907 -0.278242
-0.380266 -0.453907 -0.239228
0.564084 -0.453907 0.049328
-0.055721 -0.453907 0.274625
0.463624 -0.453907 0.247015
-0.119545 -0.453907 -0.242536
0.430989 -0.453907 -0.062841
0.285234 -0.453907 -0.306572
-0.048454 -0.453907 -0.131548
-0.553472 -0.453907 0.295326
0.19432 -0.453907 -0.021322
-0.288699 -0.453907 -0.328564
-0.366253 -0.453907 -0.380894
0.281076 -0.453907 0.125596
0.149544 -0.453907 0.276588
0.63052 -0.453907 0.123297
-0.387883 -0.453907 -0.157864
-0.634639 -0.453907 0.123345
0.489285 -0.453907 0.126343
0.332549 -0.453907 0.026178
0.2451 -0.453907 -0.152209
0.507371 -0.453907 -0.271176
-0.558406 -0.453907 0.056341
-0.402705 -0.453907 0.186479
-0.646469 -0.453907 -0.346892
0.132328 -0.453907 0.132606
0.019587 -0.453907 -0.133577
-0.476945 -0.453907 0.317085
-0.371134 -0.453907 0.053799
-0.253583 -0.453907 0.366874
0.381653 -0.453907 0.277913
0.023878 -0.453907 -0.259654
0.44068 -0.453907 0.376091
-0.393798 -0.453907 0.248669
-0.331791 -0.453907 -0.112957
-0.63014 -0.453907 -0.117315
-0.278684 -0.453907 0.252444
0.088327 -0.453907 -0.373209
-0.44606 -0.453907 -0.263519
-0.05504 -0.453907 -0.022326
-0.132793 -0.453907 -0.384926
-0.462661 -0.453907 -0.149358
0.266997 -0.453907 0.001471
-0.199393 -0.453907 0.163745
-0.464725 -0.453907 -0.030621
0.217764 -0.453907 -0.098962
-0.152293 -0.453907 -0.039577
-0.305654 -0.453907 -0.258137
-0.665425 -0.453907 -0.020108
-0.357971 -0.453907 -0.024772
0.165292 -0.453907 0.208102
0.088022 -0.453907 -0.066529
-0.065555 -0.453907 -0.348779
0.28539 -0.453907 -0.111816
-0.079796 -0.453907 0.066185
-0.259873 -0.453907 -0.011717
-0.614056 -0.453907 -0.17105
-0.172812 -0.453907 0.273626
0.219153 -0.453907 0.03667
0.547349 -0.453907 -0.374055
-0.192511 -0.453907 -0.26963
-0.009677 -0.453907 -0.372442
0.141099 -0.453907 -0.005161
-0.233674 -0.453907 0.29512
-0.050391 -0.453907 -0.252886
0.013225 -0.453907 0.086776
0.401079 -0.453907 -0.268447
0.030125 -0.453907 0.018937
0.50731 -0.453907 0.030364
0.41516 -0.453907 0.034923
0.502334 -0.453907 -0.122809
0.637158 -0.453907 0.069781
0.296106 -0.453907 0.370541
-0.533327 -0.453907 -0.048935
0.142301 -0.453907 -0.128027
-0.063645 -0.453907 -0.074952
-0.27872 -0.453907 -0.115752
0.646827 -0.453907 -0.052141
-0.451124 -0.453907 0.370422
-0.335693 -0.453907 0.268466
-0.560045 -0.453907 0.350764
0.307182 -0.453907 -0.195814
-0.580563 -0.453907 -0.348121
0.020763 -0.453907 0.36006
0.19758 -0.453907 -0.257319
-0.164514 -0.453907 -0.141622
0.468306 -0.453907 -0.182413
0.191393 -0.453907 0.108544
-0.428794 -0.453907 -0.10521
0.082794 -0.453907 0.248703
0.465837 -0.453907 -0.302284
0.136708 -0.453907 -0.204143
-0.58185 -0.453907 -0.100715
-0.57179 -0.453907 0.170153
0.596978 -0.453907 -0.080465
0.593954 -0.453907 0.24574
0.42054 -0.453907 0.10183
0.060806 -0.453907 0.172593
-0.59829 -0.453907 0.272465
-0.332235 -0.453907 0.336759
0.563394 -0.453907 -0.010484
-0.126928 -0.453907 0.048312
-0.182351 -0.453907 -0.378958
0.118439 -0.453907 0.069171
-0.187135 -0.453907 0.045904
-0.104042 -0.453907 -0.186224
0.250622 -0.453907 0.210814
0.419206 -0.453907 -0.174611
-0.573369 -0.453907 -0.010252
0.264149 -0.453907 -0.356269
0.041354 -0.453907 -0.350291
0.631978 -0.453907 -0.195747
-0.415145 -0.453907 0.076783
-0.211091 -0.453907 -0.170178
0.123274 -0.453907 -0.305812
0.552411 -0.453907 0.21016
0.308968 -0.453907 -0.02971
-0.243429 -0.453907 -0.311921
-0.219468 -0.453907 -0.057637
0.477528 -0.453907 0.31679
0.364162 -0.453907 0.181146
0.054026 -0.453907 -0.099995
-0.553143 -0.453907 -0.196888
-0.083706 -0.453907 0.341394
-0.505511 -0.453907 -0.176328
0.251644 -0.453907 0.2724
0.338287 -0.453907 0.23931
0.192864 -0.453907 0.376557
-0.509409 -0.453907 0.117067
0.405218 -0.453907 0.3256
0.489301 -0.453907 -0.070662
0.140082 -0.453907 -0.392817
0.330705 -0.453907 0.14443
0.296772 -0.453907 -0.389631
-0.639906 -0.453907 -0.392916
-0.421262 -0.453907 -0.303501
-0.517537 -0.453907 -0.129427
0.558802 -0.453907 -0.282306
-0.406034 -0.453907 0.292953
0.470999 -0.453907 -0.018132
0.231856 -0.453907 -0.288706
-0.017065 -0.453907 -0.17439
-0.269177 -0.453907 0.116996
0.585209 -0.453907 -0.151642
-0.512985 -0.453907 0.202125
0.593631 -0.453907 0.16573
-0.50186 -0.453907 -0.340947
0.178686 -0.453907 -0.31119
0.403247 -0.453907 -0.391768
0.404079 -0.453907 -0.09921
-0.319642 -0.453907 0.071849
0.07928 -0.453907 -0.20622
0.414111 -0.453907 0.246847
0.032004 -0.453907 0.298347
0.191445 -0.453907 -0.373359
0.304022 -0.453907 -0.241332
0.55862 -0.453907 0.344047
0.200475 -0.453907 -0.212914
-0.329806 -0.453907 -0.344923
-0.155454 -0.453907 -0.083589
0.279547 -0.453907 0.328562
-0.369415 -0.453907 0.097731
-0.480684 -0.453907 0.029738
0.63612 -0.453907 -0.315755
0.101826 -0.453907 -0.253244
-0.359919 -0.453907 0.145208
0.194306 -0.453907 0.332863
0.08615 -0.453907 0.131128
-0.622608 -0.453907 -0.003307
-0.149244 -0.453907 0.19242
-0.656597 -0.453907 0.302131
-0.312499 -0.453907 0.184346
0.092797 -0.453907 0.332245
0.273944 -0.453907 0.167869
0.651473 -0.453907 -0.364246
0.358851 -0.453907 -0.115635
0.576267 -0.453907 -0.219636
0.639037 -0.453907 0.271319
-0.259857 -0.453907 -0.077666
0.323166 -0.453907 0.067577
0.012221 -0.453907 0.197825
-0.349613 -0.453907 0.016639
0.507666 -0.453907 -0.228939
0.223412 -0.453907 0.081253
-0.075826 -0.453907 0.237801
-0.498345 -0.453907 0.275932
0.114108 -0.453907 0.026808
-0.317841 -0.453907 -0.297984
-0.191003 -0.453907 -0.228187
-0.130444 -0.453907 0.271231
0.509207 -0.453907 0.286526
-0.286469 -0.453907 -0.156166
-0.270991 -0.453907 0.312158
0.290248 -0.453907 0.221018
0.528605 -0.453907 0.109051
-0.31925 -0.453907 -0.012049
0.637527 -0.453907 0.166248
-0.272353 -0.453907 -0.231577
-0.620439 -0.453907 0.085722
0.543457 -0.453907 -0.059601
-0.437541 -0.453907 0.332778
-0.339143 -0.453907 -0.236318
-0.534081 -0.453907 -0.088842
0.603699 -0.453907 0.044491
0.390293 -0.453907 -0.306719
0.544986 -0.453907 -0.150345
-0.142052 -0.453907 -0.275261
0.118036 -0.453907 -0.037466
0.04113 -0.453907 0.12766
-0.006283 -0.453907 -0.00261
-0.114358 -0.453907 -0.068936
-0.603379 -0.453907 0.192944
0.132492 -0.453907 0.379625
-0.646848 -0.453907 -0.263861
0.5992 -0.453907 -0.041709
-0.076251 -0.453907 0.183373
0.125923 -0.453907 0.245903
0.475572 -0.453907 0.210237
0.469634 -0.453907 0.02031
0.189325 -0.453907 0.291
0.501437 -0.453907 0.070818
-0.013279 -0.453907 0.125469
-0.135077 -0.453907 0.35921
-0.103328 -0.453907 0.096245
-0.071217 -0.453907 -0.163554
-0.657728 -0.453907 -0.304918
-0.585302 -0.453907 0.322343
-0.256024 -0.453907 0.026067
0.465431 -0.453907 -0.342409
-0.212919 -0.453907 0.373064
-0.031225 -0.453907 0.240714
-0.338549 -0.453907 -0.075926
-0.52115 -0.453907 -0.280809
0.230854 -0.453907 -0.013801
0.059061 -0.453907 -0.271863
-0.151151 -0.453907 0.14797
0.559803 -0.453907 -0.339159
-0.594331 -0.453907 -0.313732
0.042899 -0.453907 -0.016301
0.436747 -0.453907 0.217628
-0.519292 -0.453907 -0.37346
0.146724 -0.453907 0.092633
-0.422088 -0.453907 0.225275
-0.371367 -0.453907 0.30464
0.199571 -0.453907 -0.130683
-0.011773 -0.453907 -0.252151
-0.284225 -0.453907 0.347267
-0.477216 -0.453907 -0.199067
-0.227756 -0.453907 0.20647
-0.605183 -0.453907 0.144252
0.420486 -0.453907 0.287626
0.521964 -0.453907 -0.088547
0.37671 -0.453907 -0.069375
0.427633 -0.453907 -0.292813
0.253563 -0.453907 0.102353
-0.532635 -0.453907 0.327479
-0.32145 -0.453907 -0.147971
0.660036 -0.453907 0.340191
-0.284148 -0.453907 0.066371
0.017578 -0.453907 -0.308377
0.119772 -0.453907 -0.100104
-0.130774 -0.453907 -0.153414
0.53216 -0.453907 0.161056
0.596556 -0.453907 -0.116137
-0.573022 -0.453907 -0.265828
-0.535039 -0.453907 0.141794
-0.391042 -0.453907 -0.193332
0.147235 -0.453907 -0.165778
0.274977 -0.453907 -0.261764
-0.101764 -0.453907 -0.310645
0.351377 -0.453907 -0.201525
-0.491892 -0.453907 -0.055866
-0.435254 -0.453907 -0.070652
-0.645592 -0.453907 0.156543
-0.134329 -0.453907 -0.210909
-0.102379 -0.453907 -0.03267
0.307381 -0.453907 -0.27601
0.157447 -0.453907 0.310417
0.329284 -0.453907 0.285566
0.038507 -0.453907 -0.062582
0.656781 -0.453907 -0.171053
-0.441639 -0.453907 0.285244
0.497696 -0.453907 0.236825
-0.378791 -0.453907 -0.348709
-0.158168 -0.453907 -0.238596
-0.660906 -0.453907 -0.097023
-0.018821 -0.453907 0.182641
-0.209528 -0.453907 0.099306
-0.64279 -0.453907 -0.05272
0.43527 -0.453907 -0.029059
0.30263 -0.453907 -0.082489
-0.310343 -0.453907 -0.218272
-0.284692 -0.453907 -0.37457
-0.484829 -0.453907 0.370815
0.643267 -0.453907 -0.013355
-0.396883 -0.453907 0.005028
-0.223013 -0.453907 -0.241336
-0.431825 -0.453907 -0.025473
0.630592 -0.453907 0.323187
0.316538 -0.453907 -0.123505
-0.425988 -0.453907 0.162828
-0.380257 -0.453907 0.210851
0.375608 -0.453907 -0.14411
-0.063728 -0.453907 0.037319
0.454177 -0.453907 0.340155
-0.075412 -0.453907 -0.105797
-0.363464 -0.453907 -0.103748
0.222139 -0.453907 -0.188082
-0.024921 -0.453907 -0.035679
-0.18677 -0.453907 -0.061415
-0.482503 -0.453907 0.231713
0.474491 -0.453907 -0.105505
0.331603 -0.453907 -0.316552
0.354302 -0.453907 -0.002398
-0.466656 -0.453907 -0.111641
0.301227 -0.453907 0.099969
-0.014442 -0.453907 0.069561
-0.06373 -0.453907 0.387278
0.429738 -0.453907 0.005893
0.483731 -0.453907 -0.149381
-0.048612 -0.453907 0.075092
-0.45022 -0.453907 0.002705
-0.175168 -0.453907 -0.109036
0.631349 -0.453907 0.368555
-0.266686 -0.453907 0.222587
0.199865 -0.453907 0.214838
-0.353156 -0.453907 0.176653
-0.171852 -0.453907 -0.003473
0.17088 -0.453907 -0.200359
-0.247906 -0.453907 0.335252
0.468417 -0.453907 0.102011
0.369746 -0.453907 -0.261837
0.46213 -0.453907 0.170356
-0.610144 -0.453907 0.302163
0.385173 -0.453907 -0.178908
0.068282 -0.453907 0.060093
0.039744 -0.453907 0.222667
-0.090123 -0.453907 -0.254526
0.351024 -0.453907 -0.348838
-0.118761 -0.453907 0.183585
-0.202004 -0.453907 0.297129
0.112609 -0.453907 -0.352799
0.621077 -0.453907 -0.387477
-0.310207 -0.453907 0.249348
-0.288471 -0.453907 -0.286189
0.229163 -0.453907 0.320216
-0.532005 -0.453907 -0.248477
0.201915 -0.453907 0.009141
-0.519553 -0.453907 0.169098
0.110547 -0.453907 -0.221412
-0.246456 -0.453907 -0.041705
-0.657039 -0.453907 0.382204
0.585156 -0.453907 0.275658
0.157907 -0.453907 0.020861
0.516676 -0.453907 -0.178883
0.367169 -0.453907 -0.040016
-0.436786 -0.453907 0.099389
-0.604466 -0.453907 -0.247462
0.646507 -0.453907 0.220873
-0.249409 -0.453907 -0.160703
-0.322944 -0.453907 0.307617
-0.168334 -0.453907 0.34793
-0.060959 -0.453907 -0.379689
0.044317 -0.453907 0.37924
-0.54856 -0.453907 -0.365345
0.418413 -0.453907 -0.128204
0.155126 -0.453907 0.237976
0.332078 -0.453907 0.09643
-0.581133 -0.453907 0.076153
0.41663 -0.453907 0.065034
-0.180606 -0.453907 0.124072
-0.199983 -0.453907 -0.354538
0.168945 -0.453907 -0.273321
-0.515437 -0.453907 0.066221
0.641912 -0.453907 0.022175
-0.42265 -0.453907 0.25649
-0.09086 -0.453907 0.212038
0.053813 -0.453907 0.277999
0.273674 -0.453907 -0.032016
-0.072271 -0.453907 -0.223286
0.574878 -0.453907 0.375242
-0.12762 -0.453907 -0.347266
0.478242 -0.453907 0.365992
0.433779 -0.453907 0.317616
-0.309939 -0.453907 0.154836
0.535742 -0.453907 -0.262823
-0.176694 -0.453907 0.31761
-0.363124 -0.453907 0.363476
-0.343454 -0.453907 -0.283379
0.562175 -0.453907 0.018959
0.270649 -0.453907 0.243019
-0.409247 -0.453907 0.047585
-0.666563 -0.453907 -0.183981
0.041796 -0.453907 0.078114
0.378479 -0.453907 0.372017
-0.103534 -0.453907 -0.384289
0.171719 -0.453907 0.351469
0.172144 -0.453907 -0.040403
-0.407128 -0.453907 -0.21766
0.355977 -0.453907 0.264103
0.533266 -0.453907 0.326878
-0.585375 -0.453907 0.236576
-0.57386 -0.453907 0.199217
-0.653557 -0.453907 0.18789
0.158757 -0.453907 0.12046
0.01517 -0.453907 -0.099782
-0.035126 -0.453907 -0.069711
0.06291 -0.453907 0.013886
-0.597901 -0.453907 0.11345
-0.510208 -0.453907 -0.30752
-0.397566 -0.453907 -0.262318
0.325238 -0.453907 -0.001686
-0.400238 -0.453907 -0.101455
0.224462 -0.453907 0.198794
0.558348 -0.453907 0.242047
0.390812 -0.453907 0.019596
-0.387072 -0.453907 0.154501
0.116405 -0.453907 -0.070401
-0.236793 -0.453907 0.263802
0.083542 -0.453907 -0.286574
0.352614 -0.453907 0.118347
0.647197 -0.453907 -0.219909
0.107476 -0.453907 0.112245
-0.229543 -0.453907 -0.000713
-0.653742 -0.453907 0.065538
-0.458084 -0.453907 0.080711
-0.323968 -0.453907 0.373698
-0.400241 -0.453907 0.105509
-0.491627 -0.453907 0.138947
-0.618724 -0.453907 -0.091547
-0.160304 -0.453907 -0.304412
-0.088029 -0.453907 0.26309
-0.17193 -0.453907 -0.352971
-0.477082 -0.453907 -0.353714
0.444062 -0.453907 -0.105678
0.308311 -0.453907 0.160757
0.202707 -0.453907 -0.297373
0.048037 -0.453907 -0.207185
0.328585 -0.453907 -0.253957
-0.54074 -0.453907 0.035137
-0.346031 -0.453907 0.083117
-0.629364 -0.453907 0.254171
0.171624 -0.453907 0.260096
-0.194998 -0.453907 -0.089927
-0.366789 -0.453907 0.332854
0.491515 -0.453907 -0.19709
0.235295 -0.453907 0.014493
0.305774 -0.453907 -0.325361
0.067763 -0.453907 -0.18043
0.412442 -0.453907 -0.21441
0.18866 -0.453907 -0.10572
-0.07532 -0.453907 0.104952
-0.352819 -0.453907 -0.052799
0.103545 -0.453907 0.218065
-0.543788 -0.453907 -0.168424
-0.125713 -0.453907 0.075423
-0.14121 -0.453907 -0.127723
-0.382612 -0.453907 -0.131338
-0.37761 -0.453907 0.124768
0.188114 -0.453907 0.175538
0.270004 -0.453907 -0.386387
-0.458495 -0.453907 -0.179693
0.052643 -0.453907 0.315565
0.230834 -0.453907 0.293394
-0.045158 -0.453907 -0.310141
0.602849 -0.453907 -0.216172
-0.577579 -0.453907 -0.185867
0.668005 -0.453907 0.092375
0.604429 -0.453907 0.128816
-0.119538 -0.453907 -0.290877
-0.299936 -0.453907 0.294409
0.276629 -0.453907 0.281255
0.5607 -0.453907 -0.25392
0.455842 -0.453907 -0.053849
-0.425054 -0.453907 0.366385
-0.301456 -0.453907 -0.185383
0.188656 -0.453907 0.082327
-0.24283 -0.453907 -0.382439
-0.142719 -0.453907 0.027271
0.38534 -0.453907 0.342819
0.213604 -0.453907 0.360555
-0.349933 -0.453907 -0.169789
-0.506704 -0.453907 0.331039
-0.062725 -0.453907 0.357022
0.621874 -0.453907 -0.340287
-0.404099 -0.453907 -0.375898
0.387975 -0.453907 0.170521
0.502263 -0.453907 0.096817
-0.384809 -0.453907 0.031747
0.596249 -0.453907 0.209885
-0.01359 -0.453907 0.315026
0.48867 -0.453907 0.048116
0.655766 -0.453907 0.24704
-0.53229 -0.453907 0.280743
-0.616907 -0.453907 -0.381512
-0.048469 -0.453907 -0.047067
0.335352 -0.453907 0.207119
-0.143566 -0.453907 0.300219
-0.537126 -0.453907 0.362063
0.514626 -0.453907 -0.314885
0.141958 -0.453907 -0.04635
0.646217 -0.453907 0.301842
0.356644 -0.453907 -0.321138
-0.091295 -0.453907 0.018477
0.241244 -0.453907 0.063242
0.361582 -0.453907 -0.224708
0.412667 -0.453907 -0.040462
0.260333 -0.453907 0.381303
-0.141598 -0.453907 -0.062496
-0.636558 -0.453907 0.286826
0.085968 -0.453907 -0.337361
0.144975 -0.453907 -0.099699
-0.52851 -0.453907 -0.202195
0.222699 -0.453907 -0.358009
0.551141 -0.453907 -0.220567
0.054805 -0.453907 0.244158
0.518999 -0.453907 0.053074
0.169699 -0.453907 -0.385611
0.319776 -0.453907 -0.052552
0.130555 -0.453907 -0.281947
0.461029 -0.453907 0.125838
0.314966 -0.453907 0.230464
0.529695 -0.453907 0.019421
-0.009293 -0.453907 -0.198004
0.320638 -0.453907 0.374456
-0.656077 -0.453907 0.02693
-0.22593 -0.453907 0.323769
-0.00166 -0.453907 -0.043956
-0.007995 -0.453907 -0.287562
-0.194687 -0.453907 -0.188528
0.445742 -0.453907 0.026224
-0.40656 -0.453907 -0.174434
-0.228658 -0.453907 -0.080134
-0.556755 -0.453907 0.377973
-0.153604 -0.453907 -0.33713
-0.329627 -0.453907 -0.261358
0.434685 -0.453907 -0.243665
0.380773 -0.453907 -0.400503
-0.451141 -0.453907 -0.287063
-0.252259 -0.453907 -0.351622
-0.315757 -0.453907 -0.08354
-0.304945 -0.453907 0.13133
-0.421427 -0.453907 -0.000816
0.046305 -0.453907 -0.122687
-0.19802 -0.453907 -0.034623
0.609985 -0.453907 -0.186361
0.655036 -0.453907 0.36356
0.015799 -0.453907 0.131611
-0.256013 -0.453907 -0.108642
0.652796 -0.453907 -0.075139
-0.593147 -0.453907 -0.159789
-0.034206 -0.453907 0.056215
0.214556 -0.453907 -0.075443
0.54017 -0.453907 -0.001863
0.442844 -0.453907 -0.173278
-0.33269 -0.453907 -0.031524
0.169958 -0.453907 -0.149425
0.644342 -0.453907 0.143659
-0.285953 -0.453907 0.370791
0.079574 -0.453907 -0.033416
0.520568 -0.453907 -0.290556
-0.246622 -0.453907 0.192697
0.500847 -0.453907 0.317918
0.358037 -0.453907 0.354597
-0.253593 -0.453907 0.279948
-0.03882 -0.453907 -0.372473
0.635559 -0.453907 0.046571
-0.519677 -0.453907 0.096191
0.568743 -0.453907 -0.16802
-0.481097 -0.453907 -0.330598
0.151321 -0.453907 0.145917
0.697951 0.198037 0.415951
0.698595 0.519661 0.408031
0.698595 0.39774 0.391624
0.686886 0.268361 0.389138
0.651122 -0.439047 0.389138
0.644969 0.175245 0.39742
0.692272 0.46425 0.415951
0.678498 -0.108072 0.389138
0.698595 -0.164932 0.396052
0.698595 -0.419077 0.404305
0.655723 0.226411 0.389138
0.692239 0.079535 0.389138
0.644969 -0.337209 0.41241
0.698595 -0.018924 0.404803
0.645132 -0.390109 0.389138
0.658806 -0.037855 0.389138
0.698595 0.338522 0.403556
0.698595 -0.060182 0.413476
0.698595 0.038836 0.393277
0.645707 0.128275 0.389138
0.672423 -0.360424 0.389138
0.698595 0.149096 0.405468
0.658279 -0.298093 0.389138
0.655014 -0.16236 0.389138
0.698595 -0.383061 0.408466
0.698595 0.432005 0.398257
0.660124 0.05613 0.389138
0.650675 0.316903 0.389138
0.690553 0.21745 0.389138
0.668673 -0.447316 0.415951
0.669297 -0.073546 0.415951
0.661756 -0.382856 0.415951
0.666327 0.200561 0.415951
0.647052 -0.108679 0.389138
0.644969 0.097435 0.392995
0.675683 -0.391864 0.389138
0.658124 -0.414072 0.415951
0.652008 -0.005205 0.389138
0.697593 0.31302 0.389138
0.677128 0.553625 0.389138
0.692178 -0.192325 0.389138
0.678273 -0.079222 0.389138
0.647579 -0.483708 0.389138
0.682725 0.416161 0.415951
0.681906 -0.142632 0.415951
0.657053 0.390206 0.389138
0.688611 -0.052112 0.389138
0.664202 -0.040615 0.415951
0.698595 0.554287 0.406434
0.674181 -0.210879 0.389138
0.691888 0.389907 0.415951
0.691415 0.008181 0.389138
0.645958 0.512606 0.415951
0.665267 -0.459583 0.389138
0.69764 0.504734 0.389138
0.688307 0.372804 0.389138
0.698595 -0.225242 0.391906
0.698595 0.28096 0.405824
0.678004 0.146998 0.389138
0.645479 0.259475 0.389138
0.666112 0.387467 0.415951
-0.402078 -0.409731 -0.415264
-0.52447 -0.382722 -0.415264
-0.360164 -0.437774 -0.415264
-0.430342 -0.429761 -0.415264
-0.604964 -0.444335 -0.415264
-0.499261 -0.400338 -0.415264
-0.45885 -0.4311 -0.415264
-0.633179 -0.443612 -0.415264
-0.091609 0.571726 -0.442077
0.264665 0.57394 -0.435945
0.487422 0.473633 -0.442077
-0.301134 0.494244 -0.442077
0.094165 0.466686 -0.436094
-0.468653 0.571215 -0.442077
0.398644 0.57394 -0.429196
0.599879 0.573806 -0.442077
0.032692 0.57394 -0.440751
-0.575722 0.519073 -0.442077
-0.206416 0.558391 -0.442077
0.1585 0.561811 -0.415264
0.585107 0.475526 -0.442077
0.000191 0.480235 -0.442077
0.491879 0.569774 -0.415264
0.181856 0.481128 -0.442077
-0.33354 0.57394 -0.433501
0.326014 0.535692 -0.442077
-0.026272 0.543445 -0.415264
-0.165546 0.477112 -0.442077
-0.54661 0.57394 -0.421002
-0.431997 0.476419 -0.442077
-0.408315 0.57394 -0.420834
-0.539481 0.468579 -0.442077
0.105762 0.544101 -0.442077
0.241367 0.466686 -0.441634
0.645057 0.489104 -0.442077
0.355536 0.466925 -0.442077
-0.069037 0.515901 -0.442077
0.542006 0.564767 -0.442077
0.433449 0.490067 -0.442077
-0.366791 0.466686 -0.441999
-0.254732 0.57394 -0.425678
0.381156 0.525867 -0.442077
-0.425136 0.529941 -0.442077
-0.345519 0.524634 -0.442077
-0.629233 0.530535 -0.442077
-0.640135 0.471885 -0.442077
-0.146426 0.569415 -0.442077
0.074164 0.570988 -0.415264
-0.233954 0.467507 -0.442077
0.049105 0.48044 -0.442077
0.214478 0.548609 -0.415264
0.283633 0.517899 -0.442077
0.35492 0.571712 -0.442077
0.304364 0.56513 -0.415264
-0.590215 0.57394 -0.431789
-0.251118 0.508675 -0.442077
0.416367 0.53036 -0.415264
0.142954 0.466686 -0.428237
0.562873 0.512984 -0.442077
0.604597 0.530848 -0.442077
0.021669 0.517534 -0.442077
-0.04581 0.466686 -0.440444
0.642559 0.57394 -0.43867
-0.467177 0.525276 -0.442077
0.070536 0.520753 -0.442077
-0.282452 0.536396 -0.442077
0.233538 0.506958 -0.442077
0.397088 0.472804 -0.442077
-0.647026 0.57394 -0.438853
0.186026 0.541279 -0.442077
-0.385851 0.535317 -0.442077
-0.545687 0.535192 -0.415264
0.145645 0.537899 -0.442077
-0.134193 0.50697 -0.442077
-0.375206 0.57394 -0.439226
0.532683 0.53764 -0.415264
-0.443809 0.562969 -0.415264
0.477459 0.548186 -0.442077
0.662512 0.522001 -0.442077
0.117795 0.57394 -0.42334
0.433313 0.572958 -0.442077
-0.027864 0.502958 -0.442077
-0.122432 0.570881 -0.415264
0.222185 0.57394 -0.439438
-0.590403 0.486782 -0.442077
-0.180336 0.534438 -0.442077
0.265072 0.539151 -0.415264
-0.048103 0.549477 -0.442077
-0.500017 0.503934 -0.442077
0.320592 0.466686 -0.440146
-0.104393 0.524854 -0.442077
0.562293 0.572214 -0.415264
-0.583293 0.539115 -0.415264
-0.495849 0.547491 -0.442077
-0.51426 0.559456 -0.415264
-0.403387 0.504163 -0.442077
-0.027961 0.57394 -0.429099
0.514954 0.492758 -0.442077
0.192163 0.57394 -0.425005
0.66551 0.564926 -0.415264
-0.076272 0.476642 -0.442077
0.160566 0.504521 -0.442077
-0.47782 0.547297 -0.415264
0.625648 0.466686 -0.431009
-0.307579 0.466686 -0.417912
-0.220275 0.507393 -0.442077
-0.399636 0.466686 -0.426428
0.463399 0.546282 -0.415264
0.017113 0.569994 -0.415264
-0.236083 0.553167 -0.442077
-0.460804 0.466686 -0.434852
0.066671 0.560124 -0.442077
0.048865 0.555205 -0.415264
-0.087026 0.560008 -0.415264
0.629576 0.516005 -0.442077
0.259715 0.489134 -0.442077
-0.381945 0.545065 -0.415264
-0.562606 0.493552 -0.442077
0.410618 0.538371 -0.442077
-0.61504 0.564558 -0.442077
0.566284 0.541095 -0.442077
0.516125 0.553491 -0.442077
0.027763 0.546305 -0.442077
0.324277 0.507691 -0.442077
-0.01441 0.553382 -0.442077
-0.312575 0.57343 -0.415264
0.206209 0.46828 -0.442077
-0.096345 0.498323 -0.442077
-0.548574 0.518316 -0.442077
-0.508589 0.478437 -0.442077
-0.337896 0.554743 -0.415264
0.62971 0.54283 -0.442077
-0.107357 0.466686 -0.421989
0.13766 0.490776 -0.442077
0.605102 0.493236 -0.442077
-0.160575 0.508432 -0.442077
0.383208 0.556908 -0.442077
0.670754 0.494554 -0.442077
-0.639971 0.497884 -0.442077
0.576225 0.466686 -0.419303
-0.210933 0.466686 -0.43008
0.302945 0.485636 -0.442077
0.35028 0.542899 -0.442077
-0.608128 0.55944 -0.415264
-0.138748 0.466686 -0.427341
-0.603805 0.466686 -0.427907
-0.347399 0.499829 -0.442077
-0.447314 0.540967 -0.442077
0.393166 0.497107 -0.442077
0.16702 0.57394 -0.434891
0.125881 0.560906 -0.442077
0.002253 0.543896 -0.415264
0.405051 0.555515 -0.415264
0.585942 0.57394 -0.422647
0.438806 0.537946 -0.415264
0.500174 0.466686 -0.421337
0.180465 0.553575 -0.415264
0.026776 0.54782 -0.415264
-0.664514 0.57394 -0.423505
-0.32307 0.530385 -0.442077
0.689657 -0.650061 -0.44078
0.689657 -0.658006 0.123685
0.689657 -0.551725 -0.160867
0.689657 -0.64831 -0.276565
0.689657 -0.650356 -0.054956
0.689657 -0.581201 0.209823
0.689657 -0.536459 -0.037908
0.689657 -0.543562 -0.275271
0.677709 -0.543796 -0.442077
0.689657 -0.605193 0.032359
0.689657 -0.60234 -0.351829
0.689657 -0.558966 0.115561
0.689657 -0.645501 0.251235
0.689657 -0.558076 0.289534
0.689657 -0.629504 -0.122701
0.689657 -0.596989 -0.229785
0.689657 -0.569644 -0.096096
0.689657 -0.524945 0.238336
0.689657 -0.598219 -0.41337
0.689657 -0.657038 -0.367511
0.689657 -0.635551 0.193267
0.689657 -0.549269 0.040319
0.689657 -0.500621 -0.236941
0.689657 -0.522451 -0.350433
0.688982 -0.652422 0.304229
0.689657 -0.595213 0.159286
0.689657 -0.615904 -0.016754
0.689657 -0.64137 0.077068
0.689657 -0.50358 0.282876
0.689657 -0.568516 -0.31659
0.689657 -0.597491 -0.166133
0.689657 -0.63813 -0.323118
0.689657 -0.513112 -0.132983
0.689657 -0.574898 0.001586
0.689657 -0.510489 -0.003557
0.689657 -0.591677 0.088382
0.689657 -0.568629 -0.198225
0.689657 -0.542284 -0.402919
0.689657 -0.576461 0.253298
0.689657 -0.645914 -0.236066
0.689657 -0.51049 0.194438
0.689657 -0.609719 0.122913
0.689657 -0.582668 -0.280411
0.689657 -0.533013 -0.076432
0.689657 -0.578345 -0.059948
0.689657 -0.578496 -0.131772
0.689657 -0.505845 -0.295642
0.689657 -0.549984 0.19322
0.689657 -0.629883 0.151944
0.689657 -0.549992 0.074662
0.689657 -0.644784 -0.093388
0.689657 -0.517508 0.032194
0.689657 -0.625172 0.286055
0.689657 -0.594425 0.281338
0.689657 -0.508462 -0.163559
0.689657 -0.571701 -0.352093
0.689657 -0.536363 -0.113335
0.689657 -0.648588 -0.396555
0.689657 -0.587202 0.055963
0.689657 -0.512709 -0.410998
0.689657 -0.60614 0.192869
0.689657 -0.59937 -0.322851
0.689657 -0.509835 -0.376441
0.689657 -0.502845 -0.030878
0.689657 -0.566347 -0.431075
0.689657 -0.606702 -0.266733
0.689657 -0.624602 -0.045009
0.689657 -0.518932 0.168606
0.689657 -0.621509 -0.397151
0.689657 -0.534907 0.1253
0.689657 -0.522094 0.300831
0.689657 -0.605928 -0.376808
0.689657 -0.648098 0.168869
0.689657 -0.578781 0.130174
0.689657 -0.568099 0.176807
0.689657 -0.534708 -0.000687
0.689657 -0.547221 -0.328206
0.689657 -0.601665 0.222801
0.689657 -0.513815 0.144949
0.689657 -0.519082 -0.434348
0.689657 -0.618975 -0.308882
