-0.057568 -0.514032 0.2879788152993854
-0.327504 -0.514032 0.5086218152993854
0.051637 -0.514032 0.01132281529938542
-0.157564 -0.505702 0.3698128152993854
-0.239209 -0.514032 0.3359858152993854
-0.189479 -0.505702 0.34343381529938544
-0.256418 -0.505702 0.4559048152993854
-0.035695 -0.505702 0.4780538152993854
-0.311317 -0.505702 0.5406008152993854
0.062174 -0.505702 0.2030078152993854
0.156697 -0.514032 0.5512198152993855
0.002416 -0.514032 -0.18508418470061458
-0.169809 -0.514032 0.18017781529938542
-0.312159 -0.505702 -0.05357418470061459
0.230001 -0.514032 -0.1714711847006146
0.269894 -0.514032 0.3707588152993854
-0.265876 -0.514032 -0.1689081847006146
-0.340487 -0.505702 0.2038338152993854
0.320443 -0.505702 0.08201181529938541
-0.234021 -0.505702 0.5754158152993855
-0.254592 -0.514032 0.0018678152993854003
0.081037 -0.514032 0.33039981529938545
-0.054978 -0.514032 0.3891098152993854
-0.020386 -0.505702 0.3668788152993854
0.217094 -0.514032 0.13274281529938542
-0.135622 -0.505702 0.2258048152993854
0.124617 -0.505702 -0.2070551847006146
-0.01113 -0.514032 0.5906448152993854
0.089103 -0.505702 0.46549581529938544
0.049098 -0.514032 -0.16456718470061457
-0.077709 -0.505702 -0.19514518470061457
0.323777 -0.230777 0.4174528152993854
0.241644 -0.352213 0.7210318152993854
-0.333708 -0.364266 0.7340338152993854
-0.080772 -0.353816 0.7323278152993854
-0.204266 -0.355402 0.7339138152993855
0.088342 -0.370487 0.7300848152993854
0.010211 -0.356469 0.7347398152993855
-0.272236 -0.359715 0.7090268152993855
-0.135872 -0.369712 0.7199478152993855
-0.035384 -0.365587 0.7164838152993854
0.199285 -0.36893 0.7191658152993854
0.128501 -0.365201 0.7349968152993854
0.047969 -0.366921 0.7342208152993854
0.275731 -0.370503 0.7213528152993854
-0.245065 -0.353429 0.7319408152993855
-0.295752 -0.353213 0.7317248152993855
-0.107493 -0.371331 0.7244418152993854
0.241775 -0.369321 0.6817578152993854
-0.255736 -0.360848 0.6764368152993855
-0.162402 -0.3715 0.7250728152993854
0.421005 -0.534175 -0.264952
0.421005 -0.555382 0.256556
0.421005 -0.544341 0.206585
0.421005 -0.520212 -0.161809
0.421005 -0.5189 0.279112
0.421005 -0.438292 0.0382
0.421005 -0.439526 -0.146429
0.421005 -0.536311 0.057133
0.421005 -0.186725 -0.19304
0.421005 -0.519671 0.236673
0.421005 -0.483355 -0.170017
0.421005 -0.558359 -0.196224
0.421005 -0.46879 -0.128036
0.443218 -0.53822 0.277843
0.443218 -0.540432 -0.185735
0.421005 -0.491246 0.078006
0.421005 -0.517365 -0.208596
0.421005 -0.479471 -0.10339
-0.467528 -0.519793 0.010439
-0.467528 -0.255639 0.02481
-0.445314 -0.411717 -0.167111
-0.445314 -0.475963 0.055327
-0.445314 -0.343322 -0.159103
-0.445314 -0.245719 -0.03257
-0.445314 -0.223065 0.061485
-0.445314 -0.419917 -0.220758
-0.467528 -0.38207 -0.195554
-0.445314 -0.400824 0.212058
-0.445314 -0.509069 0.083251
-0.445314 -0.465324 0.091567
-0.467528 -0.265483 -0.006653
-0.445314 -0.374909 -0.165831
-0.445314 -0.226534 0.030526
-0.445314 -0.507517 -0.011475
-0.445314 -0.489544 0.012984
-0.445314 -0.405032 -0.195806
-0.445314 -0.240788 -0.004998
-0.445314 -0.204975 -0.009614
-0.445314 -0.250297 0.061726
-0.445314 -0.226952 0.293129
0.026015 -0.566788 0.288218
0.165729 -0.566788 0.196845
-0.319467 -0.566788 0.05647
-0.013276 -0.566788 -0.272457
-0.051446 -0.566788 -0.154714
0.375168 -0.566788 0.207575
0.337667 -0.566788 0.08115
-0.237047 -0.566788 0.08894
-0.074889 -0.566788 0.262938
-0.137153 -0.566788 -0.156954
0.163973 -0.566788 0.030146
0.109386 -0.566788 0.134903
0.236357 -0.566788 -0.251402
-0.18989 -0.566788 0.201802
-0.273485 -0.566788 0.170206
-0.256868 -0.566788 0.011339
0.260891 -0.566788 0.091118
0.008781 -0.566788 -0.206099
0.092906 -0.566788 0.202382
0.23073 -0.566788 0.37475
0.342839 -0.566788 0.148378
0.08442 -0.566788 0.009687
0.269327 -0.566788 -0.196051
-0.097223 -0.566788 -0.215054
0.133598 -0.566788 0.247538
0.076467 -0.566788 0.259137
-0.359396 -0.566788 0.118173
-0.144837 -0.566788 0.238016
0.293051 -0.566788 0.026951
0.218182 -0.566788 0.129553
-0.221201 -0.566788 0.141473
-0.206333 -0.566788 0.032037
0.104077 -0.566788 0.059036
-0.288926 -0.566788 0.100198
-0.246025 -0.566788 0.215127
-0.150606 -0.566788 -0.2067
0.163416 -0.566788 0.081238
-0.052754 -0.566788 -0.234706
0.175956 -0.566788 0.292441
-0.312111 -0.566788 0.145634
0.234479 -0.566788 0.054609
0.310034 -0.566788 0.118225
-0.115886 -0.566788 0.279309
0.287893 -0.566788 -0.247449
0.385237 -0.566788 -0.158403
0.00882 -0.566788 -0.162547
0.386734 -0.566788 -0.210935
0.13023 -0.566788 0.003675
-0.075611 -0.566788 0.221032
0.124583 -0.566788 0.171982
0.211476 -0.566788 0.091164
-0.200668 -0.566788 0.078287
-0.287956 -0.566788 0.036199
-0.10334 -0.566788 -0.142516
-0.353883 -0.566788 0.07845
0.129314 -0.566788 0.104314
0.024367 -0.566788 -0.257602
0.3286 -0.566788 0.03123
0.314413 -0.566788 0.266639
0.181167 -0.566788 0.237724
0.352274 -0.566788 0.233545
0.162311 -0.566788 0.162923
0.078285 -0.566788 0.166268
-0.059897 -0.566788 -0.187617
-0.232328 -0.566788 0.052759
0.344826 -0.566788 0.181396
-0.268074 -0.566788 0.13768
0.074133 -0.566788 0.045542
0.373428 -0.566788 0.137228
-0.031877 -0.566788 -0.210034
0.391117 -0.566788 0.252006
-0.097834 -0.566788 -0.247285
-0.043868 -0.566788 0.218375
-0.26219 -0.566788 0.069576
-0.085383 -0.566788 0.292578
0.134722 -0.566788 0.069059
-0.007072 -0.566788 -0.241997
0.064883 -0.566788 0.215673
0.105981 -0.566788 -0.014544
0.340561 -0.566788 0.118216
-0.26336 -0.566788 0.409689
0.080161 -0.566788 0.130326
0.153687 -0.566788 0.273849
-0.208801 -0.566788 0.167578
0.131254 -0.566788 0.032391
0.10799 -0.566788 0.26055
-0.344787 -0.566788 0.148089
0.384077 -0.566788 0.06981
0.413117 -0.566788 0.191399
0.27951 -0.566788 0.069923
-0.132795 -0.566788 -0.184448
0.033677 -0.566788 -0.182279
-0.057154 -0.566788 -0.261329
0.402893 -0.566788 0.116805
0.387685 -0.442556 0.461922
0.387685 -0.507956 0.459174
0.415773 -0.431737 0.484447
0.38821 -0.267777 0.484447
0.387685 -0.407888 0.473001
0.421921 -0.51194 0.484447
0.387685 -0.480908 0.453336
-0.426293 -0.471312 0.451127
-0.411994 -0.432632 0.45558
-0.411994 -0.584916 0.466499
-0.411994 -0.527324 0.461662
-0.41288 -0.482832 0.484447
-0.414243 -0.435985 0.484447
-0.411994 -0.292091 0.455922
-0.344181 -0.566162 0.484447
-0.397679 -0.555682 0.451309
0.34824 -0.555682 0.468205
-0.13981 0.380011 1.2157911999939615
0.232753 0.29978 1.1784961999939614
-0.139764 0.161741 1.1784961999939614
-0.246584 -0.072683 1.2410101999939616
0.051505 0.337763 1.2451361999939614
0.105501 0.020178 1.1784961999939614
0.445995 -0.051671 1.2385001999939615
-0.319852 0.319298 1.2451361999939614
-0.080162 0.021486 1.2451361999939614
0.251768 0.062908 1.1784961999939614
0.40825 0.328714 1.2451361999939614
0.007324 0.207787 1.1784961999939614
0.170955 0.176928 1.1784961999939614
-0.385136 -0.032453 1.2451361999939614
-0.231827 0.059518 1.2137831999939614
0.377388 0.072284 1.2118161999939614
-0.219683 0.275685 1.1784961999939614
-0.401659 0.087993 1.2451361999939614
-0.093483 0.268603 1.2118161999939614
0.010975 0.089173 1.2137831999939614
0.185474 0.379975 1.2412981999939614
0.120317 0.254197 1.2451361999939614
0.029217 -0.017678 1.2451361999939614
-0.422955 0.319245 1.2118161999939614
-0.156919 -0.005628 1.1784961999939614
0.178539 -0.02481 1.2451361999939614
-0.467105 -0.091979 1.2262541999939613
-0.244713 0.176282 1.1784961999939614
0.171744 0.095938 1.2402771999939615
-0.23583 0.366617 1.2451361999939614
0.307532 0.346193 1.2451361999939614
0.298229 0.008386 1.2451361999939614
-0.317946 0.030648 1.2118161999939614
-0.129756 0.096474 1.2402771999939615
0.078387 0.165086 1.2118161999939614
-0.079079 -0.066108 1.2435781999939615
-0.057317 0.130122 1.1784961999939614
0.242738 0.234669 1.2348461999939615
-0.001941 0.261874 1.2451361999939614
-0.470304 0.019074 1.2365701999939613
0.445995 0.032477 1.2396131999939615
0.146896 0.307861 1.1876661999939615
-0.17274 0.263781 1.2451361999939614
-0.272236 0.229545 1.2349351999939615
0.359915 0.145395 1.2451361999939614
0.254054 0.154806 1.1784961999939614
0.090981 0.090614 1.2402771999939615
0.020597 0.306657 1.1784961999939614
0.390374 0.218634 1.2451361999939614
-0.292043 0.111139 1.2137831999939614
-0.337751 -0.036817 1.1784961999939614
-0.17382 -0.046652 1.2451361999939614
-0.313432 0.260018 1.1784961999939614
0.246801 0.107218 1.2402771999939615
0.013617 0.022394 1.1784961999939614
0.445995 0.269919 1.2182931999939615
0.086897 0.259756 1.1784961999939614
-0.126739 0.205803 1.2402771999939615
0.324877 0.269235 1.2451361999939614
-0.067296 0.333647 1.2451361999939614
-0.078588 0.051844 1.1784961999939614
0.193503 0.287364 1.2451361999939614
-0.171053 0.025932 1.2451361999939614
-0.260625 -0.001669 1.2451361999939614
-0.421609 0.157106 1.2451361999939614
0.176006 0.059455 1.1784961999939614
-0.17178 0.077085 1.1784961999939614
-0.012648 0.151607 1.2402771999939615
-0.150947 0.232391 1.1784961999939614
-0.359179 0.135071 1.2118161999939614
-0.314751 -0.091128 1.2433661999939614
0.095396 -0.058617 1.2451361999939614
-0.210201 0.126468 1.2137831999939614
-0.368506 0.367421 1.2118161999939614
-0.144492 0.303081 1.1784961999939614
-0.423349 0.227543 1.2451361999939614
0.213891 0.171269 1.2402771999939615
0.371736 -0.067954 1.2386751999939616
-0.254185 0.296374 1.2451361999939614
0.117703 0.105691 1.1784961999939614
-0.403458 0.024732 1.2118161999939614
-0.269028 -0.014719 1.1784961999939614
-0.013178 0.377385 1.2447431999939615
0.307891 0.08204 1.2118161999939614
0.196097 0.239959 1.1784961999939614
0.245622 -0.034438 1.2451361999939614
0.218447 0.029654 1.2451361999939614
-0.311886 0.170459 1.1784961999939614
0.389198 0.006174 1.2118161999939614
-0.027127 -0.031454 1.2118161999939614
0.13546 0.04026 1.2355601999939614
-0.205224 0.206742 1.2402771999939615
-0.17586 0.329368 1.2451361999939614
-0.06563 0.18387 1.2137831999939614
0.032192 0.207229 1.2402771999939615
-0.038754 0.282084 1.1784961999939614
0.430045 0.146479 1.2449251999939615
0.118496 0.315302 1.2451361999939614
-0.372277 0.280316 1.2118161999939614
0.131734 0.158184 1.2402771999939615
0.298184 -0.091979 1.2357001999939614
0.069564 0.027639 1.2451361999939614
0.181093 -0.000738 1.1784961999939614
-0.12345 -0.047552 1.2058951999939613
-0.46183 0.08564 1.2451361999939614
-0.208425 -0.010922 1.2118161999939614
-0.470304 0.263984 1.2404051999939614
0.166037 -0.091979 1.2322031999939616
-0.072426 0.081683 1.2402771999939615
0.264125 0.212911 1.1784961999939614
-0.425079 0.367788 1.2451361999939614
0.121085 0.207868 1.1784961999939614
0.231077 0.343412 1.2451361999939614
0.271857 0.17966 1.2402771999939615
0.368527 0.380054 1.2367481999939614
0.091364 0.3796 1.2426971999939616
0.05502 0.270438 1.2451361999939614
0.311965 0.143175 1.2137831999939614
0.088974 -0.047552 1.1816641999939614
0.012661 -0.071378 1.2386751999939616
-0.033602 0.051298 1.2118161999939614
-0.085425 0.139325 1.2402771999939615
-0.018085 0.328319 1.2118161999939614
0.024883 0.155248 1.1784961999939614
0.188141 0.225776 1.2351601999939614
0.135066 -0.018948 1.2118161999939614
-0.36134 0.034985 1.2451361999939614
-0.268717 0.041478 1.1784961999939614
-0.072733 0.224294 1.1784961999939614
-0.32046 0.164857 1.2349241999939613
0.037102 0.131196 1.2402771999939615
-0.216675 0.222189 1.1784961999939614
0.222061 0.111995 1.1784961999939614
-0.470304 0.151815 1.2209781999939615
0.267086 0.278492 1.2118161999939614
0.364346 0.261105 1.2118161999939614
-0.470112 0.328376 1.2417171999939614
0.332489 0.047507 1.2451361999939614
-0.116569 0.051258 1.2137831999939614
0.01429 0.041894 1.2346451999939614
0.093582 0.307861 1.1962591999939614
0.213116 0.07255 1.2118161999939614
-0.189601 0.073775 1.2402771999939615
-0.030838 0.221794 1.2118161999939614
0.145189 0.368146 1.2118161999939614
-0.269026 0.234395 1.1784961999939614
-0.247887 0.104157 1.2402771999939615
0.190944 0.13492 1.2118161999939614
-0.294632 -0.043341 1.2118161999939614
0.400178 0.10314 1.2451361999939614
0.30763 -0.041458 1.2451361999939614
-0.12286 0.342404 1.2451361999939614
0.253623 0.014993 1.2118161999939614
0.065711 -0.009438 1.2118161999939614
0.056974 0.212323 1.1784961999939614
-0.182966 0.168028 1.2137831999939614
-0.291171 0.307861 1.2065491999939615
-0.229177 0.330828 1.2118161999939614
0.114828 0.205643 1.2402771999939615
-0.218051 0.02373 1.1784961999939614
-0.415622 -0.083688 1.2118161999939614
0.309017 0.290064 1.1784961999939614
-0.314358 0.070457 1.2399861999939614
-0.360241 0.246654 1.2451361999939614
-0.374893 0.315868 1.2451361999939614
-0.310234 -0.003686 1.2451361999939614
0.062583 0.124927 1.1784961999939614
-0.158435 0.126423 1.2137831999939614
-0.023193 0.164139 1.1784961999939614
-0.079409 0.307779 1.1784961999939614
-0.426976 0.284961 1.2451361999939614
-0.243221 0.089856 1.1784961999939614
0.324021 0.188038 1.2451361999939614
0.276275 0.103667 1.1784961999939614
-0.013661 0.111455 1.1784961999939614
0.163615 0.338063 1.2451361999939614
-0.278671 0.165354 1.2118161999939614
-0.114161 0.014315 1.1784961999939614
-0.437562 -0.052314 1.2451361999939614
-0.310246 0.215362 1.2118161999939614
0.213115 -0.007668 1.2118161999939614
0.11049 0.151533 1.1784961999939614
-0.425945 0.195431 1.2118161999939614
-0.194046 0.294809 1.2118161999939614
-0.356394 0.096956 1.2451361999939614
0.172727 0.263424 1.2118161999939614
0.400045 0.283477 1.2451361999939614
-0.340929 0.307861 1.1878711999939615
-0.072667 -0.033308 1.2118161999939614
-0.031532 -0.07671 1.2118161999939614
0.353723 0.091542 1.2451361999939614
0.432719 0.196743 1.2451361999939614
-0.216428 -0.090052 1.2125101999939614
0.401378 0.053968 1.2451361999939614
0.13387 0.250966 1.1784961999939614
-0.045363 0.273308 1.2451361999939614
-0.109842 0.164825 1.2118161999939614
0.27566 -0.023679 1.2118161999939614
0.223875 0.268109 1.2118161999939614
0.023126 0.249288 1.1784961999939614
0.284504 0.233787 1.2118161999939614
0.210826 -0.047552 1.1907891999939615
0.205145 -0.088375 1.2119581999939615
0.08885 0.055359 1.2137831999939614
-0.342185 -0.042443 1.2451361999939614
-0.099693 0.118032 1.1784961999939614
-0.005252 0.068199 1.1784961999939614
-0.28155 -0.09161 1.2145741999939614
-0.289633 0.08008 1.1784961999939614
0.021455 0.277676 1.2118161999939614
-0.185402 0.118536 1.1784961999939614
-0.141917 0.258914 1.2118161999939614
-0.283921 0.264324 1.2118161999939614
0.189198 0.30722 1.1784961999939614
0.276419 0.327851 1.2118161999939614
0.306609 0.038117 1.2118161999939614
0.445995 0.326237 1.2244741999939615
-0.041141 0.111737 1.2137831999939614
-0.238514 0.199698 1.2137831999939614
-0.052313 -0.01602 1.2451361999939614
-0.267262 0.04026 1.2407791999939615
0.000116 0.182481 1.2137831999939614
0.278293 0.005534 1.1784961999939614
0.071689 -0.071956 1.2118161999939614
-0.044844 0.004948 1.1784961999939614
-0.160869 0.211332 1.2137831999939614
0.036674 -0.042531 1.2118161999939614
0.410799 0.18295 1.2118161999939614
0.221947 0.20621 1.2118161999939614
-0.309414 0.126018 1.1784961999939614
0.405808 -0.013168 1.2451361999939614
0.270971 0.134628 1.2118161999939614
-0.162651 0.053345 1.2118161999939614
-0.071795 0.379831 1.2151201999939614
-0.230384 0.239569 1.2347611999939614
-0.445089 0.240531 1.2118161999939614
-0.359244 0.18483 1.2451361999939614
0.079416 0.239014 1.2137831999939614
-0.334956 0.366337 1.2451361999939614
0.05804 0.014229 1.1784961999939614
0.186878 0.024592 1.2118161999939614
0.138617 0.098878 1.2137831999939614
0.047494 0.059298 1.2137831999939614
-0.391583 0.064478 1.2118161999939614
-0.100558 -0.024362 1.1784961999939614
0.444282 0.072749 1.2127241999939615
-0.324891 0.123304 1.2348471999939614
0.262714 -0.073189 1.2428981999939615
0.210949 0.02687 1.1784961999939614
-0.451328 0.186481 1.2422041999939615
-0.204288 0.183802 1.1784961999939614
0.317338 -0.065996 1.2118161999939614
0.223404 0.180742 1.1784961999939614
0.007738 -0.011434 1.2118161999939614
0.137019 0.068853 1.1784961999939614
-0.105113 0.306477 1.2451361999939614
0.445978 0.237016 1.2410641999939616
-0.13429 0.057603 1.1784961999939614
0.149447 0.181878 1.2118161999939614
0.110135 0.126813 1.2118161999939614
0.37096 0.3448 1.2118161999939614
0.445995 -0.00787 1.2319851999939613
-0.094866 0.229237 1.2349411999939615
-0.338271 0.247075 1.2118161999939614
0.012755 0.346812 1.2451361999939614
-0.418991 0.009529 1.2451361999939614
-0.109948 0.254434 1.1784961999939614
-0.197189 0.029505 1.2118161999939614
-0.154811 0.324632 1.2118161999939614
-0.440153 0.064095 1.2118161999939614
0.130232 -0.080799 1.2451361999939614
0.282086 0.374791 1.2118161999939614
0.155813 0.115734 1.1784961999939614
0.057116 0.108325 1.2137831999939614
0.036247 0.320495 1.2118161999939614
0.34838 0.162514 1.2118161999939614
0.131418 -0.058986 1.2118161999939614
0.283901 0.070073 1.2402771999939615
0.390674 0.179388 1.2451361999939614
0.284778 0.288705 1.2451361999939614
0.006614 0.232628 1.2118161999939614
-0.008876 0.300203 1.2451361999939614
-0.095094 -0.001525 1.2118161999939614
-0.249286 -0.018222 1.2118161999939614
-0.270011 0.190397 1.2402771999939615
-0.051091 0.307861 1.2107831999939616
0.162432 0.133607 1.2402771999939615
0.301306 -0.033063 1.1784961999939614
0.119834 0.273826 1.2118161999939614
-0.167104 0.031669 1.1784961999939614
-0.213235 -0.02988 1.2451361999939614
-0.221361 0.145538 1.1784961999939614
-0.252009 0.307861 1.1908051999939615
0.350799 0.040972 1.2118161999939614
0.324505 0.249966 1.2118161999939614
0.173434 -0.048179 1.2118161999939614
0.197488 0.336318 1.2118161999939614
-0.041865 0.024416 1.2451361999939614
0.240128 -0.061674 1.2118161999939614
0.130107 0.234654 1.2137831999939614
-0.020604 0.259315 1.2118161999939614
-0.138874 -0.061834 1.2451361999939614
0.00124 0.361245 1.2118161999939614
0.28983 0.061935 1.1784961999939614
-0.096967 0.331344 1.2118161999939614
-0.303017 0.004547 1.1784961999939614
-0.062789 0.246306 1.2137831999939614
0.241268 0.173549 1.2118161999939614
-0.273456 0.148059 1.1784961999939614
-0.326808 0.224616 1.1784961999939614
-0.13889 0.28058 1.2451361999939614
0.017909 -0.043104 1.1784961999939614
-0.040542 0.081364 1.1784961999939614
-0.032086 0.197289 1.2402771999939615
-0.077176 0.17822 1.1784961999939614
0.352896 0.220305 1.2451361999939614
-0.295749 0.347936 1.2451361999939614
-0.048566 0.161695 1.2402771999939615
-0.091368 0.099815 1.2137831999939614
0.038063 0.168366 1.2402771999939615
0.148569 0.278336 1.2451361999939614
0.183744 -0.061575 1.2451361999939614
0.0374 0.053773 1.1784961999939614
0.432253 -0.091979 1.2248271999939615
-0.150139 0.177095 1.2402771999939615
-0.184136 -0.032303 1.1784961999939614
0.33207 -0.008795 1.2451361999939614
-0.4182 0.055251 1.2451361999939614
0.050636 -0.048864 1.2451361999939614
-0.350662 -0.084431 1.2451361999939614
-0.390953 0.156415 1.2118161999939614
0.068544 0.304383 1.2451361999939614
0.061906 0.30411 1.1784961999939614
0.087003 -0.011268 1.1784961999939614
0.068115 0.277362 1.2118161999939614
0.314519 -0.02095 1.2118161999939614
0.376416 0.22331 1.2118161999939614
0.362087 0.275266 1.2451361999939614
-0.214283 0.059692 1.1784961999939614
0.257688 0.058376 1.2137831999939614
0.313705 0.113805 1.2346181999939614
-0.018962 -0.020512 1.1784961999939614
-0.437134 0.124644 1.2451361999939614
-0.207553 0.255286 1.2118161999939614
0.127774 0.077087 1.2402771999939615
0.405418 -0.057112 1.2451361999939614
0.098819 -0.023178 1.2118161999939614
0.213975 0.304489 1.2118161999939614
-0.345444 -0.056284 1.2118161999939614
-0.183929 0.276387 1.1784961999939614
-0.27182 0.063261 1.2137831999939614
-0.469356 0.100349 1.2134891999939614
0.156839 0.029377 1.1784961999939614
-0.036391 0.377452 1.2122271999939613
-0.05414 -0.091436 1.2430271999939615
-0.172842 0.093976 1.2137831999939614
0.160798 -0.029862 1.1784961999939614
-0.23317 -0.044786 1.1784961999939614
0.090098 0.058477 1.1784961999939614
0.062675 0.160361 1.1784961999939614
-0.074879 0.058307 1.2137831999939614
-0.01197 0.017872 1.2118161999939614
0.19163 0.148315 1.1784961999939614
0.313756 0.233392 1.2409821999939614
0.419245 0.227262 1.2118161999939614
-0.412047 0.321203 1.2451361999939614
0.230527 0.119404 1.2118161999939614
0.322032 0.238729 1.1784961999939614
-0.029711 0.248369 1.1784961999939614
-0.316286 0.284237 1.2118161999939614
-0.158194 0.375885 1.2451361999939614
-0.210435 0.086938 1.2137831999939614
-0.324807 0.094901 1.1784961999939614
0.431917 0.071518 1.2451361999939614
0.252411 0.276317 1.2451361999939614
0.179268 0.170428 1.2402771999939615
-0.283329 0.029691 1.2118161999939614
0.367079 0.047984 1.2451361999939614
-0.055278 0.143224 1.2118161999939614
-0.220224 0.367151 1.2118161999939614
-0.282499 -0.008722 1.2118161999939614
0.245416 0.028734 1.1784961999939614
0.252589 0.370395 1.2451361999939614
0.109782 0.179394 1.2118161999939614
0.218794 0.038423 1.2118161999939614
-0.165393 -0.049087 1.2118161999939614
0.068266 0.145816 1.2402771999939615
0.398753 0.261504 1.2118161999939614
-0.303422 0.247644 1.2346201999939614
-0.392547 0.176641 1.2451361999939614
0.351761 -0.054433 1.2118161999939614
0.34134 0.341009 1.2451361999939614
0.030957 0.013667 1.2118161999939614
0.260783 0.274295 1.1784961999939614
-0.335323 0.190801 1.2118161999939614
-0.369215 0.32056 1.2118161999939614
0.16443 0.324228 1.2118161999939614
0.211719 -0.042237 1.2451361999939614
0.037959 -0.08857 1.2120101999939614
0.291206 0.207511 1.2390401999939615
0.16789 0.007409 1.2451361999939614
0.16801 0.26756 1.1784961999939614
-0.422702 -0.050593 1.2118161999939614
0.102587 0.034799 1.2451361999939614
-0.359378 0.151047 1.2451361999939614
0.309426 0.183562 1.1784961999939614
-0.118431 0.291307 1.2118161999939614
-0.278703 0.090558 1.2402771999939615
-0.290893 -0.046343 1.2451361999939614
0.262605 0.098699 1.2118161999939614
0.063447 -0.013271 1.2451361999939614
-0.464922 0.051121 1.2451361999939614
0.289436 0.00696 1.2118161999939614
0.139189 -0.019465 1.2451361999939614
0.005617 0.006204 1.2451361999939614
-0.222108 -0.04154 1.2118161999939614
-0.125506 0.154345 1.2402771999939615
0.154769 0.015326 1.2118161999939614
0.421716 0.020799 1.2118161999939614
-0.462579 -0.062346 1.2118161999939614
-0.112993 -0.082803 1.2451361999939614
-0.252063 0.123535 1.2137831999939614
0.306657 0.134469 1.1784961999939614
-0.059456 0.373636 1.2451361999939614
0.164892 0.226945 1.2118161999939614
-0.386119 0.360756 1.2388361999939614
-0.01889 0.337821 1.2451361999939614
0.19486 0.182035 1.2137831999939614
-0.097802 0.195279 1.2137831999939614
-0.20927 -0.008032 1.1784961999939614
-0.348045 0.066253 1.2118161999939614
0.10817 0.284583 1.1784961999939614
-0.306502 0.199846 1.2402771999939615
-0.257779 0.256911 1.2451361999939614
0.224214 0.268341 1.1784961999939614
-0.46928 -0.045114 1.2435391999939616
-0.148263 0.024144 1.2118161999939614
0.088478 0.177034 1.2402771999939615
0.301803 0.307624 1.2118161999939614
0.399009 0.135561 1.2451361999939614
-0.189673 0.151914 1.1784961999939614
0.329309 -0.090275 1.2442191999939616
0.038365 0.221212 1.2118161999939614
0.334097 0.280798 1.2118161999939614
-0.148443 0.271043 1.1784961999939614
-0.042484 0.064152 1.2400351999939614
0.059637 0.368918 1.2451361999939614
0.197096 0.121251 1.2402771999939615
0.131614 0.356812 1.2386751999939616
0.418214 0.052759 1.2118161999939614
-0.289384 0.155208 1.2402771999939615
-0.195608 0.136675 1.2402771999939615
-0.104342 0.133419 1.2118161999939614
-0.320429 0.08497 1.2118161999939614
0.284719 0.131145 1.2402771999939615
0.129406 -0.042379 1.1784961999939614
0.242518 -0.019705 1.2118161999939614
-0.064205 0.005841 1.2118161999939614
0.217242 0.152578 1.2137831999939614
0.247246 0.303261 1.2118161999939614
-0.237309 0.028343 1.2118161999939614
0.439533 0.285483 1.2451361999939614
-0.206312 0.223622 1.2118161999939614
-0.180767 0.22175 1.1784961999939614
0.131685 0.126071 1.2402771999939615
-0.001443 0.059751 1.2137831999939614
0.003266 -0.03562 1.2451361999939614
0.086666 0.100234 1.1784961999939614
0.414917 0.239802 1.2451361999939614
-0.31653 -0.068596 1.2118161999939614
-0.244653 0.285742 1.2118161999939614
-0.28219 0.201621 1.2118161999939614
-0.109371 0.307861 1.1870281999939614
0.073884 0.326306 1.2118161999939614
0.445564 0.162291 1.2143411999939615
0.02489 0.097335 1.2402771999939615
0.022373 0.160974 1.2118161999939614
0.072563 0.029125 1.2118161999939614
-0.451006 0.303923 1.2409791999939614
-0.323588 -0.032783 1.2118161999939614
0.104025 -0.088328 1.2119461999939614
-0.378649 0.009541 1.2451361999939614
-0.451727 0.239249 1.2432361999939614
-0.21539 0.177722 1.2402771999939615
0.211883 0.380054 1.2256401999939615
0.236159 0.141669 1.2402771999939615
0.298335 0.265988 1.2118161999939614
-0.415445 0.22512 1.2118161999939614
0.237141 0.313366 1.2451361999939614
0.149995 0.145827 1.1784961999939614
0.098266 0.13969 1.2402771999939615
0.080082 0.088092 1.2118161999939614
-0.207817 0.35487 1.2424051999939616
-0.146319 0.16684 1.2118161999939614
-0.250474 0.01721 1.1784961999939614
-0.25089 -0.047552 1.2041961999939614
-0.387875 0.19076 1.2118161999939614
0.30808 0.103826 1.1784961999939614
0.405481 -0.05841 1.2118161999939614
-0.004361 0.264847 1.1784961999939614
-0.451378 -0.003772 1.2423901999939613
0.29377 0.11485 1.2118161999939614
-0.012828 0.228938 1.2349461999939613
0.025425 0.237977 1.2347881999939614
-0.197527 0.331276 1.2118161999939614
-0.051859 0.077741 1.2137831999939614
-0.098175 -0.002598 1.2451361999939614
0.198388 0.241726 1.2118161999939614
-0.097081 0.155695 1.1784961999939614
0.381991 -0.031482 1.2451361999939614
0.316161 0.181439 1.2118161999939614
-0.122061 0.090943 1.2118161999939614
0.313756 0.072457 1.2403611999939614
0.076282 0.194893 1.2137831999939614
0.125103 0.30329 1.2118161999939614
-0.330805 0.144253 1.2118161999939614
-0.260908 0.263054 1.1784961999939614
-0.023476 0.143432 1.2137831999939614
-0.377631 0.07045 1.2451361999939614
0.185093 0.097493 1.2137831999939614
0.356223 -0.025126 1.2118161999939614
-0.079301 0.291922 1.2451361999939614
-0.180719 -0.023795 1.2118161999939614
-0.063381 0.213338 1.2137831999939614
0.100673 0.229197 1.1784961999939614
0.012995 0.184147 1.2402771999939615
0.213493 0.064008 1.2399971999939614
0.240544 0.230501 1.1784961999939614
0.379663 0.035296 1.2118161999939614
-0.293775 0.218539 1.1784961999939614
-0.470304 0.128778 1.2392001999939615
-0.376948 -0.072681 1.2395291999939615
0.379526 0.304388 1.2451361999939614
-0.427029 0.380054 1.2186711999939615
-0.06904 0.284627 1.2118161999939614
0.22394 0.200025 1.2402771999939615
-0.263748 -0.030687 1.2451361999939614
-0.096695 0.11075 1.2402771999939615
-0.02844 0.219251 1.1784961999939614
-0.19033 -0.064122 1.2118161999939614
0.136114 0.153894 1.2118161999939614
-0.166387 0.274671 1.2118161999939614
0.132788 -0.051832 1.2451361999939614
-0.249687 0.164323 1.2137831999939614
0.259823 0.218445 1.2118161999939614
-0.044274 -0.034789 1.1784961999939614
-0.128681 0.213775 1.1784961999939614
-0.084213 0.026857 1.2118161999939614
-0.234047 0.273595 1.2451361999939614
-0.216193 0.307861 1.1986071999939614
-0.026321 -0.028547 1.2451361999939614
-0.143629 0.04026 1.2352921999939614
-0.418315 0.199157 1.2451361999939614
-0.175488 0.184067 1.1784961999939614
-0.166873 0.244556 1.2118161999939614
0.26501 -0.047066 1.1784961999939614
-0.017563 0.090989 1.2118161999939614
-0.201932 0.317467 1.2451361999939614
0.015456 -0.006206 1.1784961999939614
-0.188954 0.013263 1.1784961999939614
0.050531 0.156555 1.2118161999939614
-0.420311 -0.018937 1.2451361999939614
-0.3399 0.004219 1.2118161999939614
-0.199534 0.026179 1.2451361999939614
0.010748 0.307861 1.2107421999939614
0.299583 0.221238 1.1784961999939614
0.230575 -0.063417 1.2450341999939614
0.031994 0.063424 1.2396551999939613
-0.247159 0.083247 1.2118161999939614
0.002318 0.179939 1.1784961999939614
0.081897 0.279215 1.2451361999939614
-0.170963 0.122864 1.2402771999939615
-0.048888 0.312231 1.2451361999939614
0.208669 0.054983 1.1784961999939614
-0.028057 0.193764 1.2118161999939614
-0.054145 0.35561 1.2118161999939614
0.065886 0.105236 1.2402771999939615
-0.19636 0.236275 1.2348181999939616
-0.121588 0.239671 1.2118161999939614
0.351574 -0.049647 1.2451361999939614
0.135486 0.014016 1.2451361999939614
-0.112988 0.363399 1.2118161999939614
0.404632 -0.087783 1.2451361999939614
0.031145 0.016977 1.2451361999939614
-0.030018 0.307861 1.1834541999939614
0.322754 0.021685 1.2451361999939614
-0.296128 0.038345 1.1784961999939614
0.156811 0.119609 1.2137831999939614
-0.079877 0.024388 1.1784961999939614
0.415597 0.359223 1.2386751999939616
0.28285 -0.054675 1.2451361999939614
-0.331479 0.209602 1.2347321999939616
0.145286 0.263772 1.2118161999939614
0.176876 -0.000815 1.2118161999939614
0.155707 0.251985 1.2451361999939614
0.247208 0.12838 1.1784961999939614
0.340751 0.292222 1.2451361999939614
0.121476 0.07758 1.2137831999939614
-0.256516 0.222826 1.2137831999939614
0.3398 0.246515 1.2451361999939614
0.165285 0.159973 1.2137831999939614
-0.163433 0.14554 1.1784961999939614
0.289458 0.307861 1.1838991999939614
0.285227 0.361088 1.2422401999939614
0.299364 0.341859 1.2118161999939614
-0.46783 0.164181 1.2446911999939614
0.049968 0.249015 1.1784961999939614
0.013976 0.14476 1.2402771999939615
-0.321217 0.058198 1.2118161999939614
0.251923 0.092523 1.1784961999939614
-0.064522 -0.047552 1.1904881999939614
0.239965 0.176841 1.2402771999939615
0.445995 0.136444 1.2208541999939615
0.268364 0.221162 1.2402771999939615
0.128942 0.008804 1.2118161999939614
0.268315 0.254956 1.2451361999939614
-0.366977 0.125559 1.2451361999939614
-0.179178 0.2121 1.2402771999939615
0.432455 -0.073506 1.2451361999939614
-0.193125 0.192536 1.2137831999939614
0.323822 0.164839 0.9123741999939614
0.323822 0.188431 0.37363519999396144
0.357142 0.013199 1.0808491999939616
0.323822 0.165823 0.7327841999939614
0.357142 -0.023817 0.5862951999939614
0.357142 -0.023718 0.9172381999939614
0.357142 0.175637 1.0745251999939613
0.323822 0.2087 0.5319881999939614
0.323822 0.301022 0.8399091999939614
0.323822 0.028688 0.43366219999396144
0.323822 0.029466 0.7170791999939614
0.338587 0.307861 1.0718451999939616
0.323822 0.287858 0.6388221999939614
0.323822 0.208845 1.2022531999939614
0.330601 0.307861 0.45319219999396143
0.341196 -0.047552 0.33461119999396144
0.337042 -0.047552 1.1816801999939615
0.323822 0.084127 0.8287111999939615
0.323822 0.085672 0.5342341999939615
0.357142 -0.043391 0.7974691999939614
0.323822 0.086962 1.0053821999939614
0.323822 0.141308 0.6235781999939615
0.357142 0.29302 1.1702561999939614
0.357142 0.155536 0.4572491999939614
0.357142 0.292527 0.35835419999396145
0.357142 0.251657 0.7520221999939615
0.357142 0.170847 0.8213471999939614
0.326508 -0.047552 0.48605019999396143
0.357142 0.29595 0.5440341999939614
0.323822 0.118225 1.1553481999939614
0.357142 0.061379 0.6300241999939614
0.357142 0.086069 0.9259911999939614
0.357142 -0.038416 1.0019821999939613
0.357142 0.095613 1.0838681999939614
0.357142 0.217745 0.6041671999939614
0.323822 0.025808 1.1536251999939615
0.357142 0.161417 0.9890841999939615
0.357142 0.264412 0.9010911999939615
0.323822 0.227251 0.4419161999939614
0.357142 0.028641 0.33041319999396146
0.357142 0.106211 0.7607821999939615
0.323822 0.304898 0.7139691999939615
0.323822 0.112353 0.4083941999939614
0.323822 -0.036737 0.4061391999939614
0.357142 0.143039 0.5610821999939615
0.357142 0.082264 0.46543519999396143
0.357142 0.203109 0.6731161999939614
0.357142 0.026838 0.9755171999939615
0.323822 0.216387 1.1203701999939615
0.350835 0.234877 0.32328319999396143
0.357142 0.025924 0.8578441999939614
0.357142 0.028338 0.7750601999939615
0.357142 0.305711 1.0042991999939614
0.357142 0.229447 1.0252971999939615
0.357142 0.10956 0.6930351999939615
0.357142 0.034305 0.5140291999939615
0.357142 0.066066 0.38428219999396146
0.343324 0.307861 0.7728451999939614
0.352291 0.307861 0.9433351999939614
0.357142 0.267309 1.1129981999939615
0.357142 0.13442 0.36343719999396146
0.348745 -0.047552 1.0949721999939614
0.357142 0.218245 0.8641571999939615
0.357142 0.258773 0.6934421999939614
0.323822 0.210065 0.7932341999939614
0.323822 0.26756 0.5819631999939614
0.357142 0.090315 0.5814241999939614
0.323822 0.254282 1.0643261999939615
0.334069 0.166436 0.32328319999396143
0.357142 0.031108 0.5796821999939614
0.323822 0.026384 1.0191721999939614
0.357142 0.140058 0.8773271999939615
0.357142 0.193134 0.9451221999939614
0.323822 0.162404 1.1201871999939614
0.357142 0.267145 0.8149891999939615
0.323822 0.01421 0.8998701999939615
0.357142 -0.035884 0.7448021999939615
0.323822 0.125167 1.0547761999939613
0.323822 0.133128 0.49186919999396145
0.357142 0.223102 0.4825731999939614
0.357142 0.282153 0.49320319999396145
0.323822 0.097039 0.6547071999939614
0.357142 0.026888 0.6771731999939614
0.357142 0.064818 1.1622211999939616
0.357142 0.005987 0.40094119999396144
0.323822 0.152719 0.7823091999939614
0.357142 0.263977 0.4298061999939614
0.323822 0.026101 0.8203821999939614
0.323822 0.230947 0.7184021999939615
0.357142 0.233807 1.1704821999939614
0.357142 0.07342 0.8781711999939614
0.357142 0.24126 0.5570011999939615
0.323822 0.086196 0.7206751999939615
0.357142 0.196417 0.7502291999939614
0.323822 0.128659 0.9762131999939614
0.323822 0.049227 1.0614741999939614
0.357142 0.001274 0.47910319999396145
0.357142 0.160764 0.6956311999939614
0.341567 0.003488 1.2118161999939614
0.357142 -0.035045 0.8712021999939614
0.323822 0.275677 1.0223761999939613
0.323822 0.242765 0.8421441999939614
0.357142 0.254977 0.6385771999939615
0.323822 0.182498 0.6458011999939615
0.323822 0.213868 0.9197821999939615
0.323822 0.194054 0.9896321999939615
0.323822 0.131057 0.8234681999939615
0.323822 0.186208 1.0440781999939615
0.323822 0.264877 0.3976161999939614
0.357142 0.11131 1.1867841999939615
0.323822 0.07242 1.1310381999939614
0.357142 -0.013118 1.1585401999939615
0.323822 0.233303 0.6616061999939614
0.323822 0.297133 1.1229691999939615
0.323822 0.182962 0.5696251999939614
0.357142 0.199447 0.4024771999939614
0.323822 0.17791 0.4864451999939614
0.357142 -0.00186 1.0293501999939614
0.350753 0.307861 0.39987219999396145
0.323822 0.042177 0.9500101999939614
0.357142 0.122019 1.0101131999939614
0.323822 0.056903 0.5943091999939614
0.323822 0.267879 0.5186251999939614
0.357142 0.156267 1.1483091999939614
0.357142 0.196661 0.3450211999939614
0.323822 -0.006999 0.9773571999939614
0.357142 0.073691 0.34132719999396144
0.357142 0.109246 0.5064821999939615
0.323822 0.266204 0.46335319999396146
0.357142 0.131979 0.9198931999939615
0.357142 -0.042865 0.5476491999939614
0.357142 0.088872 0.42213219999396145
0.324577 0.307861 0.5967801999939615
0.323822 0.12587 1.0977391999939614
0.323822 0.053469 0.6812821999939614
0.357142 0.040286 1.1138771999939614
0.354056 -0.047552 0.45344019999396146
0.323822 0.287644 0.8804051999939615
0.323822 0.070998 0.4411801999939614
0.357142 0.003761 0.7167381999939615
0.323822 0.067467 0.4863241999939614
0.323822 0.049991 0.8683421999939614
0.357142 -0.039843 0.9601111999939614
0.357142 0.004024 0.5427291999939614
0.357142 0.078164 0.8043501999939614
0.357142 0.231637 0.9611211999939614
0.323822 0.006454 0.5836891999939614
0.323822 -0.022066 0.8100881999939614
0.323822 0.208578 1.1609871999939614
0.357142 0.041036 0.4681121999939614
0.323822 -0.026133 1.0283941999939614
0.357142 0.185737 1.1807981999939614
0.357142 0.23568 1.0868051999939614
0.323822 -0.030185 0.8946671999939615
0.323822 0.25705 0.7746631999939615
0.336122 -0.047552 0.6113581999939615
0.357142 0.067783 0.9932861999939615
0.323822 0.073127 0.9013121999939614
0.323822 0.004475 1.0601381999939614
0.357142 0.193598 1.1334221999939613
0.323822 0.152908 0.3921531999939614
0.323822 0.226741 0.3854661999939614
0.357142 -0.030016 0.6499941999939615
0.323822 0.102021 0.9469111999939614
0.323822 0.159914 0.9515711999939614
0.355005 0.274057 0.32328319999396143
0.323822 0.252428 0.9276011999939614
0.323822 -0.023798 0.6824051999939614
0.357142 0.049472 0.9117981999939615
0.323822 0.077455 0.36716219999396144
0.323822 0.023408 0.5363851999939615
0.323822 0.141279 0.6915801999939615
0.357142 0.150093 0.7449461999939614
0.357142 0.021165 0.6388231999939614
0.357142 0.079822 0.6642991999939615
0.353321 0.132912 0.32328319999396143
0.323822 -0.00234 0.7745751999939614
0.357142 0.086897 1.0464051999939614
0.323822 0.153005 0.4382771999939614
0.323822 0.292035 0.9877011999939614
0.323822 0.140344 1.0196671999939615
0.357142 0.194331 1.0105531999939614
0.357142 0.279021 1.0403071999939615
0.323822 0.235954 0.49546519999396144
0.323822 0.040207 0.34417319999396145
0.357142 0.102337 0.5436831999939614
0.357142 0.27083 0.9493741999939614
0.357142 0.106789 0.6154491999939614
0.323822 0.198106 0.8290201999939615
0.357142 0.15188 1.1066681999939614
0.357142 0.086945 1.1224001999939615
0.342488 0.307861 0.9074151999939615
0.325097 -0.047552 0.7790111999939614
0.323822 0.080385 1.1675341999939615
0.357142 -0.025036 0.3594781999939614
0.357142 0.168957 1.0376221999939614
0.357142 0.070848 0.7155861999939614
0.323822 0.119286 0.8582401999939614
0.357142 0.070141 0.5060811999939614
0.357142 0.172058 0.3722291999939614
0.357142 0.298645 0.6281011999939614
0.323822 0.017387 1.0951691999939615
0.343268 0.307861 0.6833001999939614
0.323822 0.225527 0.6165981999939615
0.323822 -0.001384 0.4934281999939614
0.357142 0.206666 0.9078721999939614
0.323822 -0.04674 0.9908451999939614
0.357142 0.062986 0.7659201999939614
0.323822 0.008757 0.3880511999939614
0.357142 0.027518 0.3659301999939614
0.357142 0.270536 0.38622619999396146
0.357142 0.045432 1.0502801999939615
0.323822 0.232937 1.0032311999939614
0.357142 0.306071 0.8301711999939614
0.323822 0.039032 0.7734841999939615
0.357142 0.183262 0.8654001999939614
0.323822 -0.044055 1.1205081999939615
0.323822 0.241584 0.5466761999939614
0.357142 0.201191 0.6348021999939615
0.357142 0.03738 1.0165041999939615
0.323822 0.279991 1.0874801999939614
0.323822 0.265652 0.6880501999939614
0.357142 0.118731 0.43921619999396144
0.323822 0.119437 0.7284351999939614
0.323822 0.22055 1.0593111999939615
0.357142 0.115363 0.8521571999939614
0.323822 -0.018406 0.36234419999396145
0.323822 -0.016178 1.0991441999939615
0.353525 0.307861 1.1349241999939614
0.357142 0.125667 0.9720711999939614
0.323822 0.081901 1.0987401999939614
0.357142 0.144187 0.8008271999939615
0.357142 0.021846 0.8079321999939615
0.339109 0.307861 0.5048721999939614
0.357142 0.083765 0.9593341999939614
0.323822 0.007342 1.1837621999939614
0.357142 0.027603 1.1531111999939614
0.357142 -0.013728 1.0605361999939613
0.323822 0.266941 0.8134861999939614
0.337824 0.122203 1.2118161999939614
0.357142 0.029986 0.43317819999396145
0.323822 0.29607 0.5438211999939615
0.323822 0.172172 0.6110731999939615
0.323822 0.135544 0.6587961999939614
0.357142 0.138365 1.0506441999939615
0.323822 0.28341 0.34485819999396145
0.323822 0.124977 0.5950341999939615
0.350974 0.307861 1.1985871999939615
0.357142 0.237544 0.9291701999939614
0.323822 0.159111 0.8804441999939614
0.357142 0.227058 0.6999681999939614
0.357142 -0.011496 0.9840031999939614
0.323921 0.068563 0.32328319999396143
0.323892 -0.047552 0.7387771999939614
0.357142 0.17754 0.48068219999396145
0.323822 0.307147 1.0161321999939614
0.323822 0.041399 0.5662291999939615
0.337971 -0.047552 1.1490731999939614
0.357142 0.170991 0.6652401999939614
0.357142 0.27033 0.5699311999939615
0.357142 0.141119 0.5279901999939615
0.323822 0.273787 0.42800419999396144
0.323822 0.112182 0.7591241999939614
0.323822 0.18956 0.9398161999939614
0.357142 0.26095 1.1549151999939613
0.323822 0.053071 0.8048111999939614
0.323822 0.093361 0.7990031999939614
0.323822 0.220753 0.7641211999939614
0.323822 0.081573 0.9701371999939614
0.329308 0.307861 1.1634031999939614
0.323822 0.014601 0.9307691999939615
0.323822 -0.012965 0.6468681999939614
0.357142 0.041179 0.7237311999939614
0.357142 0.107578 0.37833219999396145
0.344403 0.307861 0.8699771999939614
0.357142 -0.042309 0.42338519999396146
0.327218 0.257538 0.32328319999396143
0.357142 0.042945 0.40422119999396144
0.357142 0.004173 0.9550751999939614
0.323822 -0.032501 0.9610541999939615
0.357142 0.039038 0.5506811999939614
0.357142 -0.014825 0.8490611999939615
0.357142 0.17145 0.5515481999939614
0.357142 0.108254 1.1433531999939615
0.357142 0.095027 0.8302771999939614
0.323822 0.002939 0.7305601999939615
0.357142 0.233935 0.7757651999939614
0.323822 0.194621 0.7261331999939614
0.352069 0.307861 1.0442111999939614
0.357142 -0.019268 1.0958911999939613
0.323822 -0.030817 0.5896891999939614
0.357142 0.284165 0.7909291999939614
0.357142 0.092599 1.0109921999939615
0.357142 -0.004027 0.8954071999939615
0.323822 0.053555 1.1936881999939615
0.357142 -0.002043 0.6818391999939615
0.323822 0.202348 0.5915701999939614
0.323822 0.00739 0.3470231999939614
0.323822 0.054557 0.7320571999939615
0.357142 0.220543 1.0619581999939616
0.33388 0.307861 0.3666671999939614
0.357142 0.272432 0.6678141999939614
0.357142 0.219564 0.42341519999396143
0.323822 0.0151 1.1266561999939615
0.323822 0.255177 0.3643161999939614
0.323822 0.048714 1.0009261999939614
0.357142 0.256216 0.8734581999939615
0.357142 0.214903 0.3781801999939614
0.344757 0.094266 1.2118161999939614
0.357142 -0.04227 0.7167541999939614
0.357142 0.259657 1.0614831999939613
0.323822 -0.028631 0.46441619999396144
0.323822 0.12608 0.3823461999939614
0.357142 -0.023713 0.6221861999939614
0.357142 0.228154 0.6478961999939614
0.323822 0.057677 0.9262521999939615
0.357142 -0.00118 1.1886501999939614
0.357142 0.186676 0.6106201999939614
0.323822 0.28002 1.1567711999939614
0.357142 0.073642 1.1888971999939615
0.357142 -0.014327 0.42103319999396144
0.323822 0.194565 1.1028031999939614
0.357142 0.188793 1.0991631999939615
0.323822 0.19225 0.9022481999939614
0.357142 0.287067 0.8831271999939614
0.357142 0.153358 0.9625901999939614
0.357142 0.090222 0.6388101999939615
0.327055 -0.047552 0.44481819999396144
0.346496 -0.047552 0.5776391999939614
0.357142 0.22631 0.45538719999396143
0.356612 -0.047552 1.0277671999939615
0.323822 -0.010392 0.4131931999939614
0.323822 0.053654 0.46288519999396144
0.357142 0.208464 1.1561761999939615
0.323822 -0.029703 0.8360581999939615
0.323822 0.210461 0.3323191999939614
0.323822 0.236207 0.9047101999939614
0.323822 0.157478 1.0404551999939615
0.357142 0.173366 0.7193151999939614
0.34273 -0.047552 0.8194721999939615
0.357142 0.130312 1.0910731999939616
-0.348131 0.25788 0.5512531999939614
-0.348131 0.264862 1.0773371999939614
-0.381451 0.222155 0.34122719999396145
-0.348131 0.188758 0.8333261999939614
-0.348131 0.094879 0.5596291999939614
-0.348131 0.123749 1.1411551999939613
-0.381451 0.040342 0.7968661999939615
-0.348131 0.14822 0.9775951999939614
-0.348131 0.26648 0.6965911999939615
-0.381451 -0.026991 0.4563111999939614
-0.348131 0.300967 0.9032641999939615
-0.348131 0.159668 0.44410819999396145
-0.348131 0.303383 0.4271561999939614
-0.348131 0.138652 0.7135411999939615
-0.348131 0.036124 0.9366701999939614
-0.363957 0.209373 1.2118161999939614
-0.381451 0.085998 1.0520911999939615
-0.381451 0.050336 0.6764741999939614
-0.36156 -0.047552 0.8835041999939615
-0.348131 0.062881 0.4208161999939614
-0.348131 0.016677 1.1220191999939615
-0.381451 -0.03908 0.5594081999939614
-0.381451 0.306297 0.9966111999939614
-0.381451 0.272833 0.8050941999939615
-0.381451 -0.024314 0.33368119999396145
-0.381451 0.119707 0.8982081999939614
-0.381451 0.20831 0.9153461999939614
-0.37908 -0.047552 0.7806751999939614
-0.381451 0.203166 0.6121361999939614
-0.349013 0.305168 0.32328319999396143
-0.381451 0.186596 1.0913721999939614
-0.366478 0.307861 1.1500351999939613
-0.381451 0.217003 1.0125541999939616
-0.381451 -0.047504 0.9682211999939614
-0.37061 0.307861 0.6284771999939615
-0.381451 0.056881 0.49720319999396145
-0.381451 0.251317 0.4782371999939614
-0.381451 0.146965 0.3683291999939614
-0.348131 0.110242 0.8215781999939614
-0.381451 0.211963 0.7336001999939614
-0.348131 0.026308 0.5864211999939615
-0.381451 0.13804 0.6500881999939614
-0.381451 0.134324 0.5009551999939614
-0.381451 -0.041582 1.0839451999939613
-0.348131 0.234176 0.41777619999396143
-0.376948 0.307861 0.7458711999939615
-0.348131 -0.005807 0.7048131999939614
-0.348131 0.038651 1.0155641999939613
-0.381451 0.025468 0.8789641999939615
-0.348131 -0.042583 0.3889121999939614
-0.381451 0.15365 0.7829351999939614
-0.381451 0.016791 0.3871841999939614
-0.364314 0.307861 0.5066001999939614
-0.381451 0.072762 1.1162451999939615
-0.348131 0.159842 0.5640881999939614
-0.381451 0.092172 0.7441881999939615
-0.381451 0.267271 0.9477371999939614
-0.381451 0.026707 1.0659451999939615
-0.381451 0.221469 0.6732671999939615
-0.381451 0.194958 0.5021011999939614
-0.348131 0.087148 0.9796991999939615
-0.378656 0.035011 0.32328319999396143
-0.348131 0.253027 0.8669331999939615
-0.348131 0.011255 0.6459291999939615
-0.381451 0.16008 1.0395851999939614
-0.348131 -0.000901 0.7665051999939614
-0.348609 0.307861 0.8371501999939615
-0.348131 0.067054 1.1790611999939613
-0.348131 0.23521 0.7792391999939614
-0.381451 0.171998 1.1453371999939614
-0.381451 0.307483 0.5739601999939614
-0.381451 0.103242 0.6075561999939614
-0.348131 0.053312 0.7242141999939614
-0.381451 0.01287 0.5422381999939614
-0.348131 0.122096 1.0878141999939615
-0.348131 0.066679 0.8935711999939614
-0.381451 0.101216 0.45986419999396144
-0.370492 -0.047552 1.1387661999939613
-0.348131 0.161881 0.9268681999939614
-0.348131 0.256202 1.0200161999939614
-0.381451 0.297119 1.0538921999939614
-0.348131 0.060925 0.8377041999939614
-0.348131 0.275659 0.36802919999396144
-0.381451 -0.015307 1.0145461999939616
-0.381451 0.203773 0.5530841999939614
-0.381451 -0.00556 0.8338151999939615
-0.348131 0.181036 0.38744919999396144
-0.348131 0.212464 0.46723619999396143
-0.348131 0.18549 0.6593131999939614
-0.381451 0.078786 0.38633019999396145
-0.381451 -0.017463 0.6211701999939614
-0.348131 0.272988 0.5993681999939614
-0.381451 0.303432 0.6883711999939615
-0.363615 0.307861 1.0995791999939615
-0.348131 0.038227 0.46496419999396144
-0.381451 0.101602 0.3269811999939614
-0.348131 0.103054 0.6430811999939614
-0.381451 0.119951 1.0121191999939614
-0.381451 0.091542 0.8551061999939614
-0.381451 0.201498 0.7889281999939615
-0.348131 0.21823 1.1052031999939613
-0.381451 0.265105 1.1350921999939614
-0.381451 0.267131 0.41131319999396143
-0.348131 0.22666 0.5129811999939614
-0.348131 0.008839 1.1744461999939615
-0.377363 -0.047552 0.5133811999939615
-0.348131 0.085829 0.5131871999939615
-0.348131 0.093973 0.9317171999939614
-0.381451 0.255308 0.7507851999939614
-0.381451 0.169025 0.7016831999939614
-0.348131 0.113794 0.4300571999939614
-0.381451 0.098773 1.1728471999939614
-0.3664 0.261945 0.32328319999396143
-0.348131 0.187724 1.0543571999939614
-0.381451 0.227002 0.8497611999939614
-0.348131 0.121041 0.7774151999939615
-0.381451 0.177753 0.9686101999939615
-0.348131 0.153471 0.8823711999939614
-0.366358 -0.047552 0.8278451999939614
-0.381451 0.067274 1.0070011999939614
-0.348131 0.256076 0.6533651999939615
-0.381451 0.177524 0.42071919999396146
-0.381451 0.06173 0.6233601999939614
-0.348131 0.233458 0.9301421999939614
-0.381451 0.084045 0.8031801999939614
-0.381451 0.065002 0.9626831999939615
-0.381451 0.266429 0.5189621999939614
-0.381451 0.247135 0.6090041999939615
-0.381451 -0.007715 1.1523921999939615
-0.381451 0.122218 0.5598151999939615
-0.381451 0.011785 0.7257021999939615
-0.348131 0.042887 0.5201101999939615
-0.364305 -0.047552 0.9290241999939615
-0.366933 -0.01274 1.2118161999939614
-0.348131 0.233457 0.36577419999396144
-0.36447 0.307861 0.7895051999939614
-0.381451 0.010715 0.9372431999939614
-0.348131 0.222902 0.6985751999939614
-0.348131 0.275793 0.48440219999396145
-0.381451 0.203132 1.1727921999939614
-0.381451 0.001791 0.5024111999939614
-0.348131 0.244679 0.8267171999939614
-0.380389 -0.047552 1.0399511999939615
-0.348131 0.270114 1.1585501999939614
-0.379578 0.307861 0.9535451999939615
-0.348131 0.136419 0.5304321999939614
-0.348131 0.15827 0.8061631999939615
-0.381451 0.253599 1.0566571999939613
-0.348131 0.276621 0.7596581999939614
-0.381451 0.297155 0.8805241999939615
-0.348131 0.190004 1.0141091999939613
-0.348131 0.022377 0.4202641999939614
