0.215149 0.184824 -0.235822
0.293844 -0.020384 -0.235822
-0.727969 0.198987 -0.235822
0.390376 -0.306499 -0.235822
-0.327125 0.034285 -0.235822
-0.446908 0.548025 -0.235822
0.170508 0.580208 -0.220777
-0.265254 -0.283188 -0.220777
-0.235603 0.196904 -0.220777
0.713957 -0.495094 -0.220777
-0.362744 0.46483 -0.220777
0.485313 -0.097848 -0.235822
-0.307013 -0.250421 -0.235822
-0.295727 0.528334 -0.235822
-0.124856 0.229537 -0.220777
0.365741 -0.052325 -0.220777
-0.47397 -0.428855 -0.220777
0.340169 0.576516 -0.235822
-0.560369 0.044493 -0.220777
-0.479327 0.022319 -0.235822
0.07009 -0.177524 -0.235822
0.539043 0.500271 -0.220777
-0.188625 -0.311411 -0.235822
0.559074 -0.217934 -0.235822
0.564461 -0.27718 -0.235822
0.559638 0.402075 -0.235822
0.544343 -0.433149 -0.235822
-0.246337 0.451857 -0.235822
0.394182 -0.073454 -0.235822
-0.742642 0.47231 -0.235822
-0.150405 0.379852 -0.235822
-0.537773 0.088827 -0.235822
-0.390417 -0.149927 -0.235822
0.461733 0.396591 -0.220777
0.098782 -0.384506 -0.235822
-0.58374 0.50085 -0.235822
-0.088001 -0.268776 -0.220777
0.594701 -0.559292 -0.220777
0.627982 0.130368 -0.235822
0.298024 0.09916 -0.220777
0.63442 -0.352799 -0.220777
-0.322478 -0.189545 -0.235822
-0.18154 0.403601 -0.235822
0.465968 -0.263912 -0.235822
-0.606475 0.207012 -0.220777
0.213542 0.004116 -0.220777
0.618691 -0.044391 -0.220777
-0.090631 -0.160905 -0.235822
0.140242 0.056656 -0.235822
-0.532946 0.002515 -0.235822
-0.250763 0.26658 -0.235822
0.568818 -0.028433 -0.220777
-0.498129 0.309001 -0.235822
-0.014627 -0.463586 -0.235822
0.500705 -0.489762 -0.235822
-0.364183 -0.340174 -0.235822
-0.515221 -0.249723 -0.235822
-0.539001 0.262308 -0.220777
-0.341225 0.393907 -0.220777
0.18857 -0.210024 -0.235822
-0.385373 -0.42982 -0.220777
-0.113992 -0.033587 -0.220777
0.575711 -0.491731 -0.220777
-0.616495 0.532237 -0.220777
-0.129177 -0.532878 -0.235822
-0.669755 0.286149 -0.235822
-0.25548 -0.342588 -0.235822
-0.244076 -0.045901 -0.220777
0.506077 -0.022786 -0.235822
0.019315 -0.1879 -0.235822
-0.424846 0.453231 -0.235822
-0.233223 0.15104 -0.220777
-0.029554 0.431223 -0.220777
-0.192433 -0.243371 -0.220777
-0.181789 0.532995 -0.235822
-0.594112 -0.543047 -0.235822
0.274131 0.105943 -0.235822
-0.081422 -0.420933 -0.220777
0.024646 -0.223265 -0.235822
0.254139 0.522067 -0.235822
-0.587843 -0.063905 -0.235822
-0.153778 -0.080346 -0.220777
0.201696 0.135246 -0.220777
0.293968 -0.440649 -0.235822
-0.395628 0.141412 -0.235822
0.471551 0.334403 -0.220777
-0.515909 -0.112665 -0.220777
0.669426 -0.053937 -0.220777
0.081989 0.180831 -0.235822
-0.146108 -0.516766 -0.235822
-0.231351 -0.393461 -0.220777
-0.058529 -0.262803 -0.220777
0.072733 -0.401878 -0.220777
-0.034879 -0.581206 -0.241314
-0.54538 -0.580541 -0.255882
0.455421 -0.581206 -0.143462
0.778344 -0.577068 -0.242103
0.070962 -0.581206 0.105675
-0.532605 -0.581206 0.052973
0.691136 -0.581206 0.006051
-0.786328 -0.570486 -0.179179
-0.188231 -0.581206 -0.026825
0.287126 -0.561146 0.01649
0.120968 -0.581206 -0.098896
0.494636 -0.561146 0.058565
-0.734045 -0.581206 0.007787
-0.383184 -0.581206 -0.166568
-0.210035 -0.581206 -0.243708
-0.11416 -0.581206 0.130153
0.220566 -0.581206 0.171508
-0.58891 -0.561146 -0.102156
0.639764 -0.581206 0.157092
0.288577 -0.581206 -0.145536
-0.653965 -0.581206 0.13381
0.617457 -0.581206 -0.122553
0.116952 -0.581206 -0.242331
0.767417 -0.561146 -0.106698
0.369356 -0.581206 -0.255804
-0.414602 -0.581206 -0.031912
-0.092916 -0.581206 -0.120839
-0.281088 -0.581206 0.064024
-0.673668 -0.581206 -0.248473
-0.064679 -0.581206 0.009801
0.52189 -0.579426 -0.255882
0.366984 -0.581206 0.105747
0.658065 -0.579364 -0.255882
-0.27004 -0.561146 -0.133294
0.177384 -0.581206 0.057929
0.377648 -0.581206 -0.059543
0.774593 -0.581206 0.083856
0.057555 -0.561146 -0.008265
0.245372 -0.581206 -0.249047
-0.541735 -0.581206 0.163089
0.542758 -0.581206 -0.038295
0.026987 -0.561146 -0.151822
-0.627878 -0.561146 0.008426
-0.322196 -0.581206 -0.254544
-0.71167 -0.561146 -0.094917
-0.440961 -0.562851 -0.255882
0.218027 -0.561146 -0.064155
-0.48993 -0.581206 -0.119683
-0.306029 -0.581206 -0.035301
0.600638 -0.581206 0.047669
-0.208091 -0.581206 0.141605
-0.504646 -0.561146 -0.032006
-0.171977 -0.561146 -0.160701
0.453943 -0.561146 0.138417
-0.162625 -0.561146 0.056455
0.704657 -0.581206 -0.172884
0.778344 -0.562758 -0.002125
0.187519 -0.581206 -0.155606
-0.00863 -0.581206 0.157809
0.371569 -0.561146 -0.172136
-0.004375 -0.581206 -0.074721
-0.445492 -0.581206 0.047862
0.256626 -0.561146 0.095793
-0.622387 -0.561146 -0.180247
-0.115595 -0.561146 -0.228113
0.562205 -0.581206 0.124629
0.557873 -0.561146 -0.178162
-0.786328 -0.561294 -0.05734
0.455761 -0.581206 -0.029933
0.146446 -0.561146 0.135129
0.685142 -0.561146 0.090418
-0.460257 -0.581206 0.188985
0.686075 -0.561146 -0.084662
-0.762915 -0.575926 -0.255882
0.296422 -0.581206 -0.059279
-0.31294 -0.581206 0.138328
0.146784 -0.561146 -0.027992
0.522909 -0.561146 -0.110134
-0.001057 -0.581206 0.074803
-0.701833 -0.561146 0.071437
0.622489 -0.581206 -0.049175
-0.519903 -0.581206 -0.186317
0.086545 -0.581206 0.175995
-0.158385 -0.561146 -0.087492
-0.15665 -0.561146 0.186803
-0.574613 -0.581206 -0.036696
-0.616235 -0.581206 0.075632
0.298336 -0.581206 0.162653
-0.232313 -0.561146 -0.075748
-0.493203 -0.581206 0.109276
-0.111712 -0.581206 -0.041247
0.591283 -0.564009 -0.255882
0.114775 -0.581206 -0.174095
-0.420558 -0.561146 -0.111721
-0.690172 -0.561146 -0.173674
-0.319942 -0.561146 -0.189703
-0.052126 -0.581206 -0.175676
-0.662663 -0.581206 -0.045528
-0.454019 -0.561146 -0.172032
-0.727163 -0.581206 0.168423
0.096481 -0.581206 0.040492
-0.248997 -0.561146 0.010772
-0.24789 -0.561146 -0.19403
0.766716 -0.561146 -0.181098
0.062101 -0.581206 -0.073506
-0.06421 -0.581206 0.077026
0.616918 -0.581206 -0.187973
0.436869 -0.581206 0.073851
-0.328106 -0.581206 -0.119202
-0.606701 -0.567409 -0.255882
0.229578 -0.581206 0.002595
0.337162 -0.581206 -0.108104
0.305243 -0.570185 -0.255882
-0.379316 -0.561146 -0.240599
-0.590647 -0.561146 0.126994
0.322484 -0.561146 0.070072
0.539513 -0.561146 0.016919
-0.657436 -0.581206 -0.105532
0.348052 -0.561146 -0.011299
0.233622 -0.561146 -0.126237
0.003808 -0.581206 0.005108
0.182631 -0.581206 -0.254206
-0.462348 -0.561146 -0.071385
-0.755965 -0.581206 -0.131659
0.462724 -0.581206 -0.086738
-0.783762 -0.561146 0.028481
-0.357107 -0.581206 -0.06054
-0.370874 -0.581206 0.166084
0.715628 -0.581206 -0.22842
-0.322645 -0.581206 0.018758
-0.053014 -0.581206 -0.045955
0.653948 -0.561146 0.043111
-0.129103 -0.561146 0.008239
0.508623 -0.581206 -0.196015
0.506204 -0.581206 0.13791
-0.063969 -0.561146 0.144411
0.302616 -0.581206 -0.201269
-0.49632 -0.561146 -0.237462
0.219566 -0.561146 -0.196005
0.418712 -0.581206 -0.193426
-0.02698 -0.581206 -0.126683
0.4269 -0.581206 -0.2529
-0.25538 -0.561146 0.124533
-0.200029 -0.581206 -0.115362
0.049966 -0.561146 0.058797
-0.551218 -0.561146 -0.147373
0.12491 -0.561146 0.085829
0.067911 -0.581206 -0.20051
0.731922 -0.581206 0.051348
0.666782 -0.561146 -0.204931
-0.123032 -0.581206 -0.168567
-0.218149 -0.581206 0.049492
0.17815 -0.561146 -0.10707
-0.540878 -0.581206 -0.090794
0.023361 -0.561146 0.117369
0.666249 -0.561146 -0.133674
-0.162869 -0.581206 0.110003
-0.270281 -0.581206 -0.245851
-0.053951 -0.581206 0.195283
0.59207 -0.581206 -0.006603
0.638578 -0.581206 0.104836
0.194343 -0.561146 0.114904
-0.368655 -0.581206 -0.00455
-0.704862 -0.561146 0.122844
-0.745056 -0.561146 -0.209995
0.565886 -0.581206 -0.090661
-0.46578 -0.561146 0.001372
0.068005 -0.581206 -0.128851
0.403445 -0.561146 -0.020308
0.537872 -0.581206 0.0767
-0.671605 -0.581206 0.023232
-0.166106 -0.581206 -0.206361
0.719095 -0.561146 -0.129539
-0.109331 -0.561146 0.078608
-0.407978 -0.581206 0.079846
0.098709 -0.561146 -0.037139
-0.564105 -0.581206 -0.210834
-0.7071 -0.561146 -0.044329
0.30044 -0.561146 0.116759
-0.41499 -0.581206 -0.202949
0.069106 -0.581206 -0.249093
-0.562022 -0.561146 0.020376
-0.563884 -0.581206 0.089623
-0.163744 -0.561146 -0.251843
0.651173 -0.561146 -0.011734
-0.347059 -0.581206 0.060171
0.138871 -0.561146 0.030169
0.7131 -0.581206 0.180322
-0.444938 -0.561146 0.122745
0.408423 -0.581206 0.129632
0.764458 -0.581206 0.148426
0.37651 -0.581206 0.169889
0.5537 -0.581206 0.179166
-0.71819 -0.561146 -0.252442
-0.082481 -0.561146 -0.076911
0.49546 -0.561146 -0.014704
-0.275512 -0.581206 -0.091163
-0.500931 -0.561146 0.151049
-0.507117 -0.581206 0.011135
-0.786328 -0.577146 0.143331
0.044326 -0.581206 0.194984
-0.598535 -0.581206 -0.146096
-0.284199 -0.561146 0.168362
0.252068 -0.561146 -0.03233
0.185209 -0.581206 -0.009051
0.39202 -0.581206 0.062697
0.008354 -0.561146 -0.193576
-0.394102 -0.581206 0.036414
-0.604668 -0.581206 0.165421
0.51026 -0.561146 -0.155149
-0.786328 -0.574358 0.071988
0.257986 -0.581206 -0.093446
0.256764 -0.581206 -0.177817
-0.638424 -0.581206 -0.219982
0.177785 -0.581206 -0.062725
0.343793 -0.561146 0.138568
-0.621354 -0.581206 -0.078511
0.691181 -0.581206 -0.044976
-0.489122 -0.581206 0.064732
0.418138 -0.581206 -0.085307
0.339958 -0.581206 0.034526
0.38929 -0.561146 -0.219582
-0.647071 -0.581206 -0.148228
-0.265167 -0.561146 -0.029945
0.030722 -0.581206 -0.105968
-0.071308 -0.561146 -0.209416
0.220134 -0.581206 0.082879
0.047419 -0.561146 0.156478
-0.189902 -0.581206 0.016547
-0.23426 -0.581206 -0.147096
-0.73974 -0.581206 0.066005
0.2385 -0.581206 0.132192
0.334604 -0.581206 -0.162305
-0.758558 -0.561146 -0.093646
-0.739281 -0.581206 -0.172721
-0.417787 -0.581206 0.192857
0.340292 -0.561146 -0.063477
0.209919 -0.561146 0.039478
0.031471 -0.581206 -0.222947
0.517209 -0.561146 -0.0655
0.114986 -0.561146 -0.137078
-0.296623 -0.581206 -0.159034
0.544775 -0.561146 -0.22593
-0.650337 -0.561146 0.089
0.694323 -0.581206 0.125749
0.151022 -0.561146 -0.170192
0.111135 -0.581206 0.126254
-0.59331 -0.581206 0.038983
-0.420518 -0.581206 -0.072984
0.264485 -0.561146 0.17579
0.272925 -0.561146 -0.222086
-0.090506 -0.581206 0.169027
-0.349425 -0.581206 0.118961
-0.758175 -0.581206 -0.034744
-0.420306 -0.581206 -0.14871
0.597547 -0.561146 -0.152452
0.301479 -0.561146 -0.109801
0.100922 -0.581206 -0.000204
0.283528 -0.581206 0.072436
-0.145527 -0.561146 -0.030505
0.031748 -0.581206 -0.032399
-0.685406 -0.561146 0.160995
0.42955 -0.561146 0.039507
-0.425719 -0.561146 0.006319
-0.203899 -0.581206 -0.174987
-0.342226 -0.561146 -0.027362
0.130222 -0.581206 0.165852
-0.283653 -0.581206 0.008596
-0.230929 -0.581206 0.099952
0.778344 -0.57629 -0.039789
-0.327574 -0.561146 -0.08461
0.467502 -0.561146 -0.175838
-0.72303 -0.561146 -0.142031
-0.246176 -0.581206 0.178563
0.395 -0.581206 -0.136959
0.435166 -0.581206 0.167256
-0.343055 -0.581206 -0.215127
-0.453739 -0.581206 -0.038083
0.47234 -0.581206 0.091156
-0.19895 -0.581206 -0.069463
0.591919 -0.561146 -0.063883
0.05767 -0.581206 0.025763
0.555624 -0.561146 -0.138873
0.762862 -0.561146 0.037762
-0.471571 -0.581206 -0.200896
0.186988 -0.581206 -0.204851
0.314447 -0.581206 -0.024669
0.485005 -0.581206 0.026578
-0.374635 -0.561146 0.093493
-0.712099 -0.581206 -0.214086
0.4898 -0.581206 -0.234249
-0.522944 -0.561146 0.09475
0.019173 -0.581206 0.041859
-0.224474 -0.581206 -0.039962
0.589494 -0.581206 -0.215057
-0.079352 -0.578352 -0.255882
0.627359 -0.561146 0.187533
-0.294944 -0.561146 -0.218977
-0.454936 -0.581206 0.085114
0.21461 -0.581206 -0.096748
0.778344 -0.571497 -0.142046
-0.387888 -0.581206 -0.113744
-0.41943 -0.561146 0.154689
-0.598134 -0.581206 -0.004568
-0.484229 -0.581206 -0.161146
0.754008 -0.581206 -0.07755
0.675228 -0.561146 0.151523
0.092054 -0.561146 -0.084561
0.713389 -0.561146 -0.016807
-0.037759 -0.581206 0.050252
0.528276 -0.561146 0.114966
0.433677 -0.561146 0.106712
-0.574082 -0.561146 0.174104
-0.537711 -0.581206 -0.043761
0.622893 -0.561146 0.021986
0.514739 -0.581206 0.177064
0.214889 -0.581206 -0.032729
-0.160182 -0.581206 0.155439
-0.019664 -0.581206 -0.029158
-0.1216 -0.581206 -0.096945
-0.340419 -0.581206 -0.165819
-0.090979 -0.561146 -0.017701
0.716886 -0.581206 0.095271
0.581423 -0.561146 0.149336
0.0161 -0.561146 0.176897
-0.469863 -0.581206 0.150051
-0.534456 -0.561146 0.133007
0.440265 -0.561146 -0.107888
-0.366875 -0.561146 -0.195568
-0.686188 -0.581206 -0.010511
-0.565968 -0.561146 -0.073048
0.371603 -0.581206 0.008251
-0.49676 -0.561146 -0.08377
0.424997 -0.561146 -0.145904
0.751886 -0.581206 -0.208214
0.651297 -0.561146 -0.059221
0.484244 -0.561146 -0.129625
0.576162 -0.561146 0.065651
-0.525972 -0.581206 -0.124728
-0.0643 -0.561146 -0.110869
0.747189 -0.581206 -0.157982
0.617841 -0.581206 -0.086256
-0.786328 -0.580498 -0.001898
-0.380117 -0.561146 -0.080658
-0.318709 -0.581206 0.082314
0.260618 -0.561146 0.040786
-0.079757 -0.561146 -0.16443
0.146107 -0.561146 -0.082941
-0.634059 -0.561146 0.160845
-0.072091 -0.581206 0.115914
-0.754123 -0.581206 0.124106
-0.526114 -0.581206 -0.226002
0.023007 -0.57086 -0.255882
0.694708 -0.572396 -0.255882
0.457207 -0.56299 -0.255882
0.747659 -0.565956 -0.255882
0.222366 -0.581206 -0.161805
0.137578 -0.581206 -0.201098
0.597547 -0.581206 0.17742
0.171442 -0.561146 0.08637
-0.448616 -0.561146 -0.133134
0.040372 -0.581206 -0.178476
0.659187 -0.581206 -0.095517
-0.094423 -0.561146 0.046683
0.102285 -0.561146 -0.200202
0.615857 -0.561146 0.122694
-0.37665 -0.561146 -0.033803
0.466927 -0.561146 0.17521
-0.052065 -0.561146 -0.015928
-0.412383 -0.581206 -0.247888
0.12348 -0.581206 -0.051259
0.56674 -0.561146 -0.019693
0.597979 -0.581206 0.083883
-0.624143 -0.561146 0.111871
0.445404 -0.561146 -0.064604
0.632745 -0.561146 0.070289
0.150748 -0.581206 -0.23293
0.489575 -0.581206 -0.061104
-0.146775 -0.581206 0.079505
-0.418016 -0.561146 0.05374
-0.569655 -0.561146 0.053926
0.293856 -0.561146 0.19538
-0.248357 -0.561146 -0.106665
-0.61785 -0.581206 -0.112649
-0.728744 -0.581206 -0.072923
-0.034147 -0.581206 0.09325
-0.444986 -0.581206 -0.096785
-0.045094 -0.561146 -0.077113
0.09014 -0.561146 0.085983
0.565823 -0.581206 0.024698
-0.644737 -0.564697 -0.255882
-0.564842 -0.581206 0.136194
0.405163 -0.561146 0.088352
-0.141326 -0.561146 0.129926
-0.685652 -0.561146 -0.070401
0.203259 -0.581206 0.140526
0.734341 -0.561146 -0.096238
0.556729 -0.561146 -0.061473
0.337477 -0.561146 -0.135462
0.534077 -0.561146 0.147979
0.07691 -0.561146 0.14065
-0.593448 -0.581206 -0.194806
0.03377 -0.561146 -0.079466
0.161765 -0.561146 0.003405
0.629161 -0.561146 -0.164424
-0.290225 -0.561146 0.034197
-0.165122 -0.581206 -0.050631
-0.558577 -0.561146 -0.012588
-0.679771 -0.561146 -0.207783
-0.731697 -0.561146 -0.021186
-0.636502 -0.561146 -0.045177
0.586177 -0.561146 -0.107068
0.106985 -0.561146 0.153928
-0.016993 -0.581206 -0.187907
0.351247 -0.581206 -0.037033
-0.314373 -0.561146 -0.010253
-0.202612 -0.561146 -0.2171
0.334662 -0.581206 0.092743
0.139396 -0.581206 0.109988
0.268556 -0.581206 -0.001202
-0.345693 -0.561146 0.16121
-0.14024 -0.581206 -0.140954
0.268654 -0.581206 0.120047
-0.361141 -0.581206 0.030873
0.164392 -0.561146 0.162208
-0.268489 -0.561146 -0.062216
-0.401329 -0.561146 -0.056166
-0.505296 -0.581206 -0.059842
0.476556 -0.581206 0.124924
-0.381371 -0.561146 0.061851
0.361788 -0.581206 -0.195506
-0.295892 -0.581206 -0.065982
0.488043 -0.561146 -0.086478
-0.130816 -0.581206 -0.248334
-0.261834 -0.581206 0.03257
-0.696785 -0.561146 0.025599
-0.744885 -0.561146 0.147531
-0.139905 -0.581206 0.045688
-0.256224 -0.561146 0.064721
-0.217594 -0.561146 0.004957
0.138998 -0.581206 -0.148464
-0.705594 -0.581206 0.098034
0.313238 -0.581206 0.01717
0.708494 -0.581206 -0.09509
-0.773146 -0.581206 -0.206104
-0.501159 -0.561146 -0.205999
0.206782 -0.561146 -0.249102
0.38427 -0.561146 0.123262
0.234814 -0.561146 -0.226826
0.032465 -0.561146 0.085175
-0.422905 -0.561146 0.099249
0.277917 -0.561146 -0.075259
0.298182 -0.561146 -0.167984
-0.648754 -0.581206 -0.017155
-0.703574 -0.581206 -0.127319
-0.661956 -0.581206 0.167687
-0.750297 -0.561146 0.025703
-0.348633 -0.561146 0.009009
0.644734 -0.581206 0.011615
0.503765 -0.561146 0.09534
0.630028 -0.581206 -0.216469
0.155373 -0.561146 -0.128636
-0.183566 -0.581206 0.178541
0.743388 -0.581206 0.022328
-0.777701 -0.561146 -0.150696
-0.626726 -0.561146 -0.135737
-0.171198 -0.561146 0.086426
0.451485 -0.561146 -0.006508
-0.21059 -0.561146 -0.149605
0.163256 -0.561146 -0.203034
-0.29648 -0.581206 -0.19342
0.281249 -0.561146 0.14618
-0.345854 -0.561146 -0.254267
-0.483357 -0.581206 0.030976
0.271938 -0.566877 -0.255882
0.085479 -0.561146 0.017447
-0.274851 -0.581206 0.146881
0.091711 -0.581206 -0.148513
-0.034918 -0.581206 0.017631
0.002396 -0.581206 0.12745
0.628212 -0.581206 -0.248981
0.675565 -0.581206 -0.163111
-0.526504 -0.561146 -0.073165
0.398759 -0.581206 -0.170665
0.548431 -0.581206 -0.19872
-0.264121 -0.561146 0.192286
0.354937 -0.581206 -0.229337
-0.521906 -0.561146 -0.154158
-0.587739 -0.581206 -0.078286
0.589347 -0.581206 -0.173192
-0.266176 -0.581206 -0.155194
0.12444 -0.561146 -0.008107
0.679883 -0.561146 0.057819
-0.194283 -0.561146 -0.090989
-0.754266 -0.561146 0.084248
0.226512 -0.561146 0.11377
0.514049 -0.581206 0.03305
-0.780461 -0.581206 -0.093584
-0.143495 -0.561146 -0.11319
0.698177 -0.581206 0.034888
-0.643547 -0.581206 0.064213
-0.046373 -0.561146 -0.136312
-0.082322 -0.561146 0.188926
0.469975 -0.561146 0.041923
0.492259 -0.561146 0.1901
0.318557 -0.561146 0.169843
0.24994 -0.581206 0.160048
-0.171176 -0.581206 -0.110021
0.755594 -0.581206 -0.124479
-0.201364 -0.561146 0.121366
-0.111721 -0.561146 -0.075468
-0.370176 -0.561146 0.187377
0.269321 -0.561146 -0.136499
-0.428564 -0.581206 -0.176757
0.071212 -0.581206 0.058042
0.199452 -0.561146 0.006732
0.306679 -0.561146 0.038211
-0.069512 -0.561146 0.031429
0.0408 -0.581206 0.136344
0.669508 -0.581206 -0.025455
0.589141 -0.581206 -0.129534
-0.646718 -0.581206 -0.192092
0.036365 -0.581206 -0.003671
0.720264 -0.581206 -0.044339
-0.662682 -0.581206 0.106065
-0.643266 -0.561146 0.193198
0.671659 -0.561146 0.013849
-0.102738 -0.581206 -0.211562
-0.296764 -0.561146 0.077726
0.058831 -0.561146 -0.037148
-0.142057 -0.561146 -0.176945
-0.571704 -0.581206 -0.238684
-0.111847 -0.581206 0.101384
0.279128 -0.561146 -0.022371
-0.590444 -0.561146 -0.057871
0.185234 -0.581206 0.172291
-0.448086 -0.561146 0.156343
-0.248816 -0.581206 -0.056434
-0.116343 -0.561146 -0.149216
0.367061 -0.581206 -0.097315
-0.757699 -0.581206 -0.066684
0.412982 -0.581206 -0.114659
0.123883 -0.561146 0.057225
-0.294438 -0.561146 0.129748
0.24093 -0.581206 0.035514
0.509886 -0.581206 -0.084492
-0.511342 -0.581206 -0.100186
0.472254 -0.561146 -0.224048
0.7139 -0.581206 -0.199938
0.374232 -0.581206 -0.020119
0.035375 -0.561146 0.029776
-0.399884 -0.581206 0.116061
0.778344 -0.563853 0.166147
-0.526822 -0.581206 -0.009349
-0.385624 -0.581206 0.141798
0.564422 -0.581206 -0.229969
0.416878 -0.561146 0.01413
-0.323357 -0.581206 0.164705
0.394471 -0.561146 -0.048648
-0.323428 -0.561146 -0.138637
0.326251 -0.561146 -0.180414
0.407612 -0.581206 0.03921
-0.786328 -0.579756 -0.034641
-0.328837 -0.581206 -0.051839
0.692543 -0.561146 0.17401
-0.056989 -0.561146 0.058754
0.058375 -0.581206 -0.156991
0.634057 -0.561146 -0.136836
-0.515372 -0.581206 0.172454
-0.028303 -0.581206 0.137928
-0.607143 -0.561146 -0.021812
0.611678 -0.581206 0.153335
-0.511804 -0.581206 -0.24997
0.630081 -0.561146 -0.101221
0.174168 -0.561146 -0.033024
0.298151 -0.561146 0.084969
-0.007596 -0.581206 -0.106759
-0.758449 -0.561146 -0.183391
0.203677 -0.561146 0.072993
0.760302 -0.581206 -0.012365
0.316257 -0.561146 -0.005647
-0.051157 -0.561146 0.101867
0.490447 -0.561146 -0.201735
0.518337 -0.561146 -0.217784
-0.263817 -0.581206 -0.011004
0.376141 -0.581206 0.040107
0.559242 -0.561146 -0.249408
-0.436887 -0.581206 -0.235243
-0.250355 -0.561146 -0.165481
-0.507238 -0.561146 0.059596
0.549926 -0.561146 0.098108
0.254796 -0.581206 -0.217477
0.610725 -0.561146 -0.005485
-0.528549 -0.561146 -0.206858
0.560983 -0.581206 0.054802
-0.783852 -0.581206 -0.133129
-0.571554 -0.581206 0.001763
-0.600723 -0.581206 0.111462
0.71358 -0.561146 0.053698
-0.475895 -0.561146 -0.131655
0.479427 -0.581206 0.152023
-0.750528 -0.561146 -0.149553
-0.723602 -0.561146 -0.193315
0.092125 -0.561146 0.193806
-0.47807 -0.581206 -0.236063
0.350078 -0.561146 -0.211723
0.64434 -0.581206 -0.174576
0.403064 -0.581206 -0.239996
0.747293 -0.581206 0.105394
-0.754537 -0.561146 -0.006778
-0.257787 -0.561146 0.162875
-0.104575 -0.561146 0.145389
-0.187672 -0.561146 -0.182631
0.284235 -0.581206 -0.105045
0.772696 -0.561146 -0.221248
0.729472 -0.581206 -0.115077
0.485278 -0.581206 -0.17515
0.484336 -0.581206 -0.000858
0.773795 -0.561146 -0.080682
0.530478 -0.561146 0.060601
-0.453616 -0.581206 0.014098
-0.245705 -0.581206 -0.235501
0.520423 -0.581206 -0.127496
-0.388612 -0.581206 -0.199214
-0.133725 -0.581206 0.152798
0.103029 -0.561146 0.10918
-0.684616 -0.561146 -0.030347
0.776682 -0.581206 -0.195202
0.552157 -0.561146 -0.112646
-0.030273 -0.561146 0.173737
0.685571 -0.581206 -0.232694
-0.268132 -0.561146 -0.210998
0.191758 -0.561146 -0.052712
0.320092 -0.581206 -0.128239
-0.728049 -0.581206 -0.238419
0.342999 -0.581206 -0.082393
0.034883 -0.581206 0.066858
0.420736 -0.561146 0.15808
-0.265815 -0.581206 0.085486
0.389247 -0.564072 -0.255882
0.659111 -0.561146 0.093546
0.198695 -0.581206 0.026933
0.170934 -0.561146 -0.149694
-0.479582 -0.581206 -0.034015
-0.45739 -0.561146 -0.209805
-0.661889 -0.561146 -0.156003
-0.204596 -0.561146 -0.023374
0.321992 -0.581206 -0.06453
-0.675832 -0.561146 -0.094584
-0.074307 -0.581206 -0.148697
0.074402 -0.561146 0.04172
0.276298 -0.581206 0.046319
-0.66047 -0.581206 -0.079666
0.574827 -0.581206 0.095794
-0.344087 -0.581206 -0.086045
-0.088446 -0.561146 0.118451
0.199983 -0.561146 -0.121168
-0.722756 -0.581206 -0.035079
0.455959 -0.561146 0.093379
0.531722 -0.561146 -0.169755
-0.772734 -0.581206 -0.232046
-0.765951 -0.581206 -0.162184
-0.194027 -0.581206 -0.203243
-0.154354 -0.561146 -0.217628
0.000943 -0.561146 0.021126
0.742661 -0.581206 0.134608
0.433438 -0.581206 0.135907
0.349071 -0.561146 0.109359
-0.751384 -0.561146 0.183377
-0.464396 -0.561146 -0.02617
-0.597 -0.561146 0.05453
-0.357394 -0.561146 -0.222141
-0.026778 -0.581206 -0.164216
0.077045 -0.581206 -0.224458
0.34008 -0.581206 0.002505
0.49948 -0.581206 -0.142249
0.056469 -0.561146 -0.21158
-0.070748 -0.581206 -0.225326
0.40365 -0.581206 0.184651
-0.311123 -0.561146 -0.165584
0.363938 -0.561146 0.15432
0.414161 -0.561146 -0.225505
-0.42994 -0.561146 -0.195816
-0.358629 -0.581206 -0.147888
-0.093577 -0.561146 -0.196898
0.667391 -0.581206 0.02907
-0.633976 -0.561146 -0.08801
0.497454 -0.561146 0.165158
-0.532778 -0.561146 0.17674
-0.110778 -0.561146 -0.108305
-0.506141 -0.561146 -0.004492
-0.552435 -0.561146 -0.051509
-0.503672 -0.581206 0.085571
-0.546381 -0.581206 -0.192679
0.470092 -0.561146 -0.024046
0.170184 -0.581206 0.101762
0.447499 -0.581206 0.050878
-0.112757 -0.561146 0.027567
-0.714719 -0.561146 0.043458
0.126168 -0.561146 0.119994
-0.216991 -0.581206 0.020366
0.057749 -0.561146 0.085841
-0.398908 -0.561146 0.169449
0.74644 -0.581206 -0.183241
0.676547 -0.561146 -0.040354
0.652797 -0.561146 -0.112194
-0.165686 -0.581206 -0.015555
-0.112439 -0.565699 -0.255882
-0.114566 -0.581206 0.003678
-0.228925 -0.581206 -0.122488
0.257294 -0.561146 0.138471
0.745116 -0.561146 -0.005207
-0.765041 -0.581206 0.029327
0.422333 -0.561146 0.069481
-0.364235 -0.581206 -0.242157
-0.254685 -0.581206 0.10939
0.62942 -0.581206 0.129424
0.562684 -0.561146 0.166074
-0.719144 -0.561146 0.005199
0.603127 -0.581206 -0.03324
-0.725831 -0.561146 0.10911
-0.121574 -0.561146 0.114504
0.456033 -0.581206 -0.185515
-0.413896 -0.581206 0.136826
0.053252 -0.561146 -0.185943
-0.089275 -0.581206 0.005572
-0.391814 -0.561146 -0.152581
-0.582774 -0.581206 -0.126752
0.651426 -0.581206 0.057733
0.727841 -0.561146 0.17899
-0.279807 -0.561146 -0.16094
0.683587 -0.561146 -0.109461
0.587046 -0.581206 0.12275
-0.297348 -0.58057 -0.255882
-0.146325 -0.581206 -0.079024
0.464968 -0.561146 -0.11391
-0.622926 -0.581206 0.126449
-0.055383 -0.581206 -0.124814
0.109372 -0.561146 -0.066802
0.091506 -0.573 -0.255882
-0.429013 -0.581206 -0.123495
-0.054947 -0.561146 -0.189881
0.515419 -0.561146 -0.040828
0.000377 -0.581206 -0.050461
0.245904 -0.561146 -0.101298
-0.535965 -0.581206 -0.157302
-0.743909 -0.561146 -0.113519
-0.464824 -0.561146 0.026032
0.128356 -0.581206 -0.126198
-0.479041 -0.581206 -0.097579
-0.659235 -0.561146 -0.026839
-0.698057 -0.581206 0.171765
0.688018 -0.581206 -0.190972
-0.480067 -0.561146 0.191613
0.16478 -0.581206 -0.111836
0.125792 -0.561146 -0.208909
-0.097184 -0.581206 0.071371
0.249982 -0.561146 -0.056769
-0.243701 -0.561146 -0.041652
0.444045 -0.561146 0.183811
-0.636907 -0.581206 0.180785
0.406661 -0.561146 -0.069814
-0.3561 -0.581206 -0.028502
0.601421 -0.561146 -0.180098
-0.614734 -0.581206 -0.237447
0.56593 -0.581206 -0.122111
0.540967 -0.561146 0.184717
-0.352164 -0.581206 -0.115509
-0.27719 -0.581206 -0.221386
-0.612434 -0.581206 0.023944
0.322251 -0.561146 0.098648
-0.133441 -0.561146 0.082813
0.044026 -0.561146 -0.102589
0.333198 -0.561146 0.048255
-0.317231 -0.561146 0.152433
0.061015 -0.581206 0.157889
-0.409583 -0.561146 -0.081145
0.043449 -0.561146 -0.055898
-0.328371 -0.561146 0.031097
0.640935 -0.561146 -0.25376
-0.140632 -0.561146 -0.238947
0.305409 -0.561146 -0.085901
-0.387557 -0.581206 -0.025743
-0.047657 -0.581206 0.123411
-0.203024 -0.581206 -0.007691
0.081146 -0.581206 -0.058621
-0.195571 -0.561146 0.184672
0.318722 -0.561146 0.132557
-0.63841 -0.581206 0.016804
-0.629787 -0.581206 -0.165092
-0.532888 -0.561146 -0.031234
0.546829 -0.581206 -0.148992
-0.326498 -0.581206 0.111481
0.429131 -0.561146 -0.185028
-0.665379 -0.581206 0.046524
-0.211832 -0.581206 0.16542
0.19017 -0.581206 -0.130223
-0.441884 -0.561146 -0.058675
-0.558054 -0.561146 0.124737
-0.18037 -0.561146 0.025829
0.079336 -0.561146 0.115979
-0.3292 -0.581206 -0.024801
0.673306 -0.581206 -0.122465
0.593961 -0.581206 -0.089003
-0.314409 -0.581206 -0.085522
-0.556854 -0.581206 0.05663
0.41929 -0.581206 -0.06141
0.62204 -0.581206 -0.146003
-0.560791 -0.561146 0.077038
0.252235 -0.581206 0.083622
-0.649675 -0.561146 -0.12917
0.161347 -0.581206 -0.03129
-0.012227 -0.581206 0.102638
-0.210307 -0.561146 -0.063367
0.36532 -0.561146 -0.049107
0.764555 -0.581206 0.06227
0.503211 -0.561146 0.026262
0.719731 -0.581206 -0.005727
-0.292367 -0.561146 -0.181112
0.402031 -0.561146 -0.151855
0.426393 -0.581206 -0.21581
0.377069 -0.561146 0.082617
0.564846 -0.581206 0.148124
-0.453245 -0.581206 -0.014455
0.239792 -0.581206 -0.03459
-0.385092 -0.561146 0.027837
-0.637445 -0.561146 0.131365
0.624188 -0.581206 0.079222
-0.493234 -0.581206 -0.21803
0.27068 -0.581206 -0.200088
-0.179734 -0.581206 -0.131949
-0.300896 -0.561146 0.013234
-0.244526 -0.581206 -0.095065
-0.153356 -0.581206 -0.241734
-0.305436 -0.581206 -0.113122
0.334219 -0.581206 -0.189575
-0.465818 -0.581206 -0.175631
0.168645 -0.561146 0.127663
0.214562 -0.581206 0.112543
0.39653 -0.581206 -0.030068
-0.193515 -0.561146 -0.125361
0.667721 -0.561146 -0.229141
-0.611025 -0.561146 -0.20062
0.707214 -0.581206 -0.129869
-0.59467 -0.561146 -0.157334
0.710682 -0.561146 -0.162659
-0.214411 -0.561823 -0.255882
-0.308176 -0.581206 0.000517
-0.352213 -0.561146 0.038593
-0.095274 -0.581206 -0.239162
0.695782 -0.561146 -0.224078
0.382033 -0.581206 0.134775
-0.238891 -0.581206 0.029222
-0.490822 -0.561146 0.076193
0.212477 -0.561146 -0.167788
-0.236898 -0.561146 -0.249096
0.308168 -0.581206 0.125334
0.639675 -0.561146 0.145596
-0.718907 -0.561146 -0.067018
-0.026667 -0.561146 -0.249318
-0.254427 -0.581206 -0.203394
-0.58981 -0.561146 0.028113
-0.682349 -0.581206 -0.227093
-0.112379 -0.561146 -0.007649
-0.089698 -0.581206 -0.169949
-0.477161 -0.561146 -0.221649
-0.081896 -0.561146 0.158884
0.412212 -0.561146 -0.125953
-0.100414 -0.581206 -0.075078
0.357965 -0.561232 -0.255882
0.572634 -0.581206 -0.029253
-0.026282 -0.561146 -0.181596
0.503247 -0.561146 0.118307
-0.448617 -0.581206 -0.200349
-0.111525 -0.581206 0.159792
-0.48908 -0.561146 -0.186485
0.023094 -0.581206 -0.0764
-0.705841 -0.581206 0.019237
0.306668 -0.581206 -0.175068
-0.314855 -0.561146 -0.103628
-0.377025 -0.581206 -0.046027
-0.056633 -0.576131 -0.255882
0.652773 -0.581206 -0.048432
-0.192008 -0.561146 -0.237301
-0.720353 -0.581206 0.078001
-0.264137 -0.561146 -0.090216
0.047604 -0.57786 -0.255882
-0.684691 -0.562681 -0.255882
-0.786328 0.588298 -0.246957
-0.122003 0.585039 -0.255882
0.333675 0.592146 -0.255882
-0.461972 0.602328 -0.136123
0.460054 0.602328 0.078843
-0.786328 0.596978 0.059557
0.108312 0.602328 -0.064527
-0.22795 0.602328 0.029807
0.596943 0.602328 -0.150019
0.778344 0.598079 -0.038591
-0.590362 0.582268 0.017691
0.263662 0.602328 0.066481
0.125271 0.586437 -0.255882
0.77488 0.602328 -0.218424
0.39822 0.602328 -0.086646
0.633045 0.602328 0.0632
-0.074655 0.602328 -0.068523
-0.671462 0.602328 -0.126923
-0.683184 0.582268 0.192906
-0.243329 0.582268 -0.136983
0.028233 0.602328 0.111026
-0.548656 0.587365 -0.255882
-0.354166 0.602328 -0.252101
0.233906 0.602328 -0.140035
-0.479202 0.602328 0.093163
-0.338931 0.602328 0.104133
-0.109525 0.602328 0.087774
0.520696 0.602328 -0.033601
-0.786328 0.602016 -0.072383
-0.009992 0.602328 -0.195703
-0.206248 0.602328 0.184722
-0.331475 0.602328 -0.052921
0.660572 0.583064 -0.255882
0.13952 0.582268 0.067794
-0.24048 0.589688 -0.255882
0.548207 0.595346 -0.255882
0.011893 0.582268 0.000764
-0.482447 0.582268 -0.022149
0.670315 0.602328 -0.065562
0.259031 0.602328 0.176916
0.677601 0.602328 0.163027
-0.583862 0.602328 0.138311
0.30322 0.582268 -0.038821
0.482417 0.602328 -0.153037
-0.559654 0.602328 -0.094695
0.203209 0.602328 -0.019623
-0.681039 0.602328 -0.022837
-0.13242 0.602328 -0.151351
0.558619 0.582268 0.135944
-0.362943 0.602328 -0.145281
0.110407 0.582268 -0.159456
0.018978 0.602328 -0.101485
-0.687392 0.582268 0.068732
-0.174683 0.582268 -0.044714
0.426208 0.592671 -0.255882
0.71425 0.582268 0.023011
-0.615215 0.602328 -0.197702
0.101742 0.582268 0.157054
0.32701 0.602328 -0.145433
-0.753531 0.602328 -0.15356
0.414337 0.582268 -0.00445
-0.413146 0.602328 0.029814
-0.043315 0.602328 0.153338
0.54916 0.582268 0.041842
0.185515 0.582268 0.143906
0.677938 0.602328 -0.167782
-0.089484 0.582268 0.01155
-0.284807 0.602328 0.170295
-0.417825 0.582268 -0.067954
0.040011 0.599922 -0.255882
0.40291 0.582268 -0.167824
0.772378 0.602328 0.137634
-0.212817 0.582268 0.10363
-0.521996 0.582268 -0.183141
-0.461567 0.602328 -0.230261
-0.250855 0.582268 -0.03995
-0.038928 0.582268 0.06806
-0.300729 0.582268 0.031317
-0.751382 0.602328 0.128615
0.336814 0.602328 0.06104
0.539321 0.602328 -0.104734
0.189701 0.602328 -0.198166
0.077569 0.602328 0.034927
0.177818 0.582268 -0.098631
0.590312 0.582268 -0.037116
-0.48105 0.582268 0.167202
0.412172 0.582268 0.181918
-0.17722 0.582268 -0.20211
0.279322 0.582268 -0.206307
-0.134682 0.602328 0.155872
-0.757522 0.582268 -0.003721
-0.285088 0.602328 -0.198022
-0.724895 0.602328 -0.218076
-0.155069 0.582268 0.031113
-0.067667 0.582268 -0.159119
0.688939 0.582268 0.099141
-0.547983 0.582268 0.085328
-0.724169 0.582268 -0.090811
0.539982 0.602328 -0.187224
-0.621201 0.602328 -0.068472
-0.305223 0.582268 -0.1116
-0.625707 0.602328 0.083788
-0.647663 0.601036 -0.255882
-0.548862 0.602328 -0.030436
0.484117 0.582268 0.015877
-0.272224 0.602328 0.088032
0.142546 0.602328 0.001642
0.487665 0.602328 -0.236085
-0.606013 0.582268 -0.138114
0.198285 0.602328 0.043406
0.296853 0.582268 0.121688
0.400598 0.582268 0.072998
0.640899 0.602328 -0.005549
0.47998 0.582268 0.140188
-0.666831 0.582268 0.132583
0.729746 0.582268 0.193804
0.456957 0.582268 -0.083822
0.622356 0.602328 0.134776
-0.515451 0.602328 0.037035
0.746832 0.602328 -0.091226
-0.194429 0.602328 -0.09926
0.078413 0.602328 -0.208081
0.771221 0.602328 -0.150352
0.620946 0.602328 -0.213344
0.292667 0.602328 -0.095385
0.207497 0.599048 -0.255882
0.7476 0.602328 0.083398
0.632757 0.582268 -0.106931
0.360281 0.602328 -0.203407
-0.409862 0.583834 -0.255882
-0.504631 0.582268 -0.09806
0.323027 0.582268 0.17895
0.083631 0.602328 0.09309
0.361984 0.582268 -0.028552
0.245057 0.582268 0.015892
0.414947 0.602328 0.128399
-0.683772 0.582268 -0.183719
-0.126975 0.582268 -0.080071
0.776066 0.602328 0.018345
-0.6523 0.582268 0.021826
-0.009595 0.602328 -0.052962
0.722855 0.602328 -0.030731
0.02548 0.602328 0.05437
0.24983 0.602328 -0.049875
-0.03805 0.602328 0.015111
-0.229963 0.602328 -0.196666
-0.531993 0.602328 0.168588
0.715015 0.602328 -0.212919
0.157875 0.582268 -0.046728
0.518282 0.602328 0.082051
0.582819 0.602328 0.084314
0.057765 0.602328 -0.019959
-0.159265 0.582268 0.088751
0.182205 0.602328 0.094329
-0.421284 0.582268 0.083686
0.459466 0.602328 -0.026567
0.265625 0.602328 -0.253296
-0.35389 0.602328 0.053722
-0.292783 0.592533 -0.255882
-0.40715 0.602328 -0.117406
0.034121 0.602328 -0.151276
0.169886 0.582268 -0.154443
-0.786328 0.59948 -0.196557
-0.362756 0.602328 0.163728
0.306219 0.582268 0.024968
-0.706362 0.582268 0.017039
0.136244 0.602328 0.124881
-0.089288 0.602328 -0.200859
0.520991 0.582268 0.17286
0.231454 0.602328 0.105316
-0.620419 0.582268 0.174731
0.698623 0.602328 -0.107155
-0.018701 0.582268 0.114073
-0.624892 0.582268 -0.019583
-0.601824 0.582268 -0.25463
-0.417579 0.582268 -0.01847
-0.242743 0.582268 0.153771
-0.737709 0.602328 0.056544
-0.570793 0.582268 -0.17868
0.367529 0.602328 0.183661
0.104771 0.582268 -0.109055
0.433195 0.582268 -0.126466
0.582034 0.582268 -0.092582
-0.112935 0.602328 -0.038342
0.590126 0.602328 0.19035
-0.052972 0.602328 -0.117838
-0.718102 0.602328 0.166545
0.061575 0.582268 0.183322
-0.471896 0.582268 0.035343
0.121943 0.582268 -0.20728
0.604594 0.582268 0.018432
-0.178462 0.602328 0.130173
0.278417 0.602328 -0.162916
-0.664586 0.582268 -0.067602
-0.279198 0.602328 -0.007197
0.595429 0.602172 -0.255882
0.578308 0.582268 -0.207841
0.726835 0.582268 0.145379
-0.520747 0.582268 0.123969
-0.432618 0.602328 0.153954
0.037422 0.582268 -0.197238
-0.065893 0.602328 0.104712
-0.306542 0.582268 0.131101
-0.738363 0.602328 -0.041083
0.048549 0.582268 -0.069636
-0.19418 0.602328 -0.001657
0.383798 0.582268 -0.237661
-0.356984 0.602328 -0.198029
0.444372 0.602328 -0.179101
-0.163244 0.602328 -0.244797
0.331258 0.582268 -0.080284
-0.286428 0.602328 -0.152298
-0.685848 0.582268 -0.234181
-0.097941 0.582268 -0.124955
-0.427232 0.602328 -0.169454
-0.129368 0.582268 -0.192667
-0.286314 0.602328 -0.060292
-0.263507 0.602328 -0.101536
-0.204005 0.602328 -0.146388
0.55746 0.582268 -0.006293
-0.048774 0.582268 -0.023423
0.206107 0.602328 -0.064224
0.187492 0.582268 0.189645
-0.504564 0.582268 -0.227566
0.005708 0.602328 0.168025
-0.311135 0.582268 0.076151
-0.02567 0.602328 -0.154394
-0.566038 0.602328 -0.139719
-0.050396 0.582268 -0.205867
-0.505844 0.602328 -0.138842
-0.317999 0.582268 -0.01032
0.328774 0.602328 -0.008542
-0.376037 0.602328 -0.079785
-0.215611 0.602328 -0.061307
0.675136 0.582268 0.041774
0.227873 0.582268 -0.197204
-0.519244 0.582268 -0.057579
-0.467728 0.582268 -0.192754
-0.324367 0.582268 -0.154065
0.066141 0.602328 0.144079
0.678087 0.582268 -0.01274
0.492649 0.582268 -0.058989
0.772259 0.582274 -0.255882
-0.451903 0.582268 -0.093332
0.098624 0.582268 -0.028515
-0.256792 0.582268 0.054248
0.226793 0.602328 0.149751
-0.781615 0.582268 0.149772
0.15742 0.602328 0.168463
-0.594249 0.602328 0.056137
0.222264 0.582268 -0.105191
-0.537866 0.582268 0.008101
-0.196256 0.602328 0.071192
0.644822 0.582268 -0.152846
-0.593549 0.602328 -0.037411
-0.624674 0.602328 0.132347
0.40441 0.602328 0.037174
-0.11695 0.602328 0.193045
0.654031 0.602328 0.106577
0.418006 0.602328 -0.217171
-0.649756 0.602328 -0.174127
-0.724719 0.582268 -0.253412
0.657592 0.582268 -0.211563
-0.203463 0.602328 -0.240077
0.051606 0.582268 0.07859
0.11511 0.582268 0.035582
0.079302 0.589152 -0.255882
-0.451908 0.602328 0.006545
0.711518 0.582268 -0.063883
0.388387 0.602328 -0.135998
-0.452393 0.582268 0.125098
0.477391 0.602328 -0.113072
0.303479 0.582268 0.071396
-0.165271 0.582268 0.172643
-0.55459 0.602328 0.050568
-0.019127 0.582268 -0.091122
0.517226 0.602328 0.024913
0.549905 0.602328 -0.143033
0.642291 0.582268 0.16258
0.764105 0.602328 0.176345
-0.7819 0.602328 0.020014
-0.245007 0.602328 0.191754
-0.156792 0.602328 -0.110836
0.764355 0.582268 0.05
0.512134 0.602328 0.120699
-0.080734 0.582268 -0.233317
0.545031 0.582268 -0.056631
-0.113325 0.582268 0.054564
-0.601185 0.582268 0.106127
-0.108673 0.602328 0.126515
-0.654607 0.602328 0.16323
0.44153 0.602328 0.014106
0.292693 0.582268 -0.128214
0.137083 0.602328 -0.140444
0.005582 0.602328 -0.238765
0.511269 0.582268 -0.171657
0.078549 0.602328 -0.128385
0.606374 0.582268 -0.180964
-0.428516 0.582268 -0.222761
-0.782161 0.582268 -0.138723
0.53438 0.582268 -0.223161
-0.442478 0.602328 0.053603
0.707761 0.582268 -0.156194
0.146051 0.602328 -0.095359
-0.385251 0.582268 0.094744
-0.73344 0.602328 -0.121683
0.602743 0.582268 0.109184
-0.07654 0.582268 0.069791
0.309739 0.602328 -0.215632
-0.396102 0.582268 0.171239
0.609995 0.602328 -0.062085
0.778087 0.582268 0.092268
-0.128182 0.582268 0.004998
-0.395848 0.602328 0.06498
0.168226 0.582268 0.019748
0.25572 0.602328 -0.099931
-0.642881 0.582268 -0.143618
-0.218256 0.602328 0.134457
0.443683 0.582268 0.162447
-0.491444 0.602328 0.008846
-0.331876 0.582268 -0.085958
0.320713 0.602328 0.101811
-0.040021 0.582268 0.186046
-0.231873 0.582268 -0.000908
-0.0153 0.602328 0.048262
0.560976 0.582268 0.180483
-0.332282 0.582268 0.159752
0.585934 0.602328 0.042823
0.625572 0.582268 -0.244991
0.626918 0.582268 -0.035198
0.285254 0.602328 0.15003
0.009184 0.582268 -0.169034
0.462359 0.584867 -0.255882
-0.557255 0.582268 0.120674
-0.421894 0.602328 0.116909
-0.71669 0.602328 -0.011647
0.037034 0.582268 0.152645
-0.70341 0.602328 -0.051489
0.588382 0.602328 0.147474
0.273495 0.602328 0.101361
-0.043171 0.582268 -0.064048
-0.520149 0.602328 0.073874
-0.658753 0.602328 -0.221262
0.359503 0.602328 -0.070165
0.047702 0.582268 0.032872
-0.705349 0.602328 -0.163011
-0.224266 0.582268 -0.097224
0.30958 0.582268 -0.169645
0.698535 0.602328 -0.244842
0.754524 0.602328 -0.182141
0.37092 0.602328 0.074279
-0.08726 0.582268 0.165885
0.778344 0.59469 -0.07603
-0.202171 0.582268 -0.175953
0.718074 0.602328 0.107561
0.512722 0.582268 -0.116812
0.104846 0.602328 -2e-06
0.233938 0.582268 0.049454
0.386833 0.602328 -0.0437
0.272853 0.582268 -0.005926
-0.656427 0.582268 0.085659
-0.483991 0.582268 -0.15782
0.009765 0.582268 -0.13103
-0.315695 0.582268 -0.187887
0.512921 0.582268 0.053106
0.185185 0.602328 -0.130465
-0.46777 0.602328 -0.046372
-0.231091 0.602328 0.066083
0.491223 0.602328 -0.201587
-0.241738 0.602328 0.104557
-0.544142 0.582268 -0.221921
0.242539 0.582268 -0.022688
-0.200954 0.582268 0.037488
-0.390088 0.602328 -0.222272
0.561686 0.582268 -0.168466
-0.085209 0.582268 -0.034785
0.141003 0.602328 -0.18686
0.746516 0.602328 -0.125549
-0.775709 0.582268 -0.046433
-0.722386 0.602328 0.087144
0.35463 0.582268 -0.147221
-0.486556 0.582268 0.125465
-0.263226 0.582268 -0.181117
-0.443726 0.583738 -0.255882
0.659153 0.602328 -0.100159
-0.342437 0.602328 -0.118469
-0.166232 0.602328 -0.0705
-0.786328 0.593443 -0.107182
0.071913 0.582268 0.117624
0.326966 0.602328 0.152228
-0.618812 0.582268 0.035648
0.176223 0.602328 -0.228951
0.460381 0.602328 -0.214848
-0.541836 0.582268 -0.150795
0.44433 0.582268 0.100285
0.365729 0.602328 0.004341
-0.059995 0.582268 0.130532
0.601572 0.602328 -0.117123
-0.334093 0.602328 -0.223424
-0.152656 0.602328 0.063193
-0.672741 0.602328 0.046821
0.13379 0.582268 -0.071217
-0.770902 0.582268 0.084879
-0.338933 0.602328 0.005634
0.203187 0.582268 -0.175302
0.110588 0.582268 0.188779
0.37161 0.602328 0.150096
0.341474 0.602328 0.028629
-0.464267 0.582268 0.067493
0.678823 0.602328 0.127895
-0.170087 0.582268 -0.010585
0.091908 0.582268 0.068769
-0.392437 0.602328 -0.023377
0.557539 0.582268 0.080436
-0.748427 0.602328 -0.18562
-0.582813 0.602328 -0.006683
0.561807 0.582268 -0.120478
0.145382 0.602328 -0.219293
-0.378219 0.602328 0.120148
0.512581 0.597133 -0.255882
0.063261 0.582268 -0.177979
-0.568154 0.602328 -0.229628
0.496241 0.602328 0.168171
-0.584713 0.582268 -0.0972
0.684702 0.602328 0.074378
-0.341723 0.602328 0.136149
0.512935 0.602328 -0.086406
-0.129857 0.602328 0.035709
0.645279 0.582268 -0.06425
0.485644 0.582268 0.069914
-0.508597 0.602328 0.145722
-0.164154 0.602328 -0.147934
-0.55448 0.602328 -0.197389
-0.279475 0.602328 0.119083
-0.024839 0.602328 -0.016998
0.514169 0.602328 -0.141441
0.102374 0.602328 -0.182764
0.716946 0.602328 0.0475
-0.083981 0.602328 -0.098864
-0.73897 0.602328 0.012423
-0.035038 0.602328 0.092312
0.277293 0.582268 -0.076355
-0.184613 0.582268 -0.131655
-0.041531 0.602328 -0.228546
-0.135881 0.582268 -0.046434
0.129995 0.582268 -0.025367
-0.39435 0.602328 -0.147963
0.722687 0.582268 -0.110135
-0.506538 0.602328 -0.019955
0.049926 0.602328 -0.106614
0.251492 0.602328 -0.192397
-0.176456 0.602328 0.042783
0.130652 0.582268 0.097846
0.378007 0.582268 0.044147
0.035693 0.602328 0.002672
0.686329 0.602328 -0.200848
-0.64993 0.582268 -0.040169
-0.591968 0.602328 -0.157279
0.440752 0.582268 0.065017
0.739222 0.602328 -0.061098
0.077543 0.602328 -0.060225
-0.369797 0.602328 0.027042
-0.502758 0.582268 0.08994
-0.046185 0.602328 0.045342
0.196052 0.602328 0.010552
-0.103285 0.602328 -0.007593
0.657431 0.582268 0.067141
0.331305 0.602328 -0.10381
0.71779 0.602328 -0.177472
0.64578 0.602328 -0.127919
0.034162 0.602328 -0.220361
0.626229 0.582268 0.089314
0.443214 0.602328 -0.102568
0.298083 0.602328 0.049037
0.599348 0.582268 0.167684
-0.501257 0.602328 -0.204867
-0.306428 0.602328 0.05339
-0.37681 0.602328 -0.116534
-0.760599 0.602328 0.158505
-0.125744 0.582268 0.103703
-0.127375 0.602328 -0.117929
0.005558 0.602328 0.022444
-0.72394 0.582268 -0.150185
-0.086614 0.602328 0.03394
0.437214 0.582268 -0.030321
0.208973 0.582268 0.106958
0.707181 0.602328 0.179637
-0.494969 0.582268 0.05469
0.778344 0.585912 -0.190483
0.123117 0.602328 0.163852
-0.78142 0.602328 0.127071
-0.569777 0.602328 0.090448
0.382125 0.602328 -0.18276
-0.200634 0.602328 -0.203235
0.326808 0.602328 -0.058386
0.437423 0.602328 -0.148339
0.229824 0.602328 0.075403
0.281214 0.582268 0.175476
-0.345098 0.582268 -0.024471
0.189187 0.602328 0.165757
0.160841 0.582268 -0.010827
0.088184 0.602328 -0.094401
0.119427 0.602328 0.076941
0.148923 0.582268 0.188836
-0.568348 0.582268 -0.040801
-0.43982 0.582268 -0.038279
0.55402 0.602328 -0.07886
0.199776 0.602328 -0.097786
-0.440948 0.582268 0.031726
-0.423654 0.602328 -0.089059
0.353972 0.602328 -0.232417
0.460867 0.582268 -0.149412
0.156888 0.582268 -0.239757
0.233217 0.582268 0.128894
0.726889 0.602328 -0.253383
-0.732505 0.582268 0.109381
0.542892 0.602328 0.064419
-0.765348 0.582268 -0.172037
0.741929 0.582268 -0.231252
-0.4283 0.582268 -0.122078
0.287248 0.602328 -0.05714
0.337518 0.602328 -0.17299
-0.750923 0.602328 0.094523
0.206647 0.602328 -0.15112
0.657535 0.582268 0.13072
-0.488605 0.582268 -0.05108
-0.654963 0.602328 -0.102727
-0.527817 0.582268 -0.027411
0.578146 0.602328 -0.010904
-0.258223 0.582268 0.129038
-0.064115 0.602328 -0.041393
-0.104364 0.602328 -0.078093
0.529845 0.582268 0.008197
-0.762383 0.602328 -0.238656
0.089839 0.602328 0.186303
0.702028 0.582268 -0.036528
-0.365918 0.602328 0.086912
-0.301724 0.582268 -0.082896
0.031043 0.602328 -0.058371
0.328469 0.582268 -0.206618
0.227192 0.602328 0.005282
-0.409935 0.602328 0.00085
0.482591 0.582268 -0.1748
-0.378832 0.602328 -0.179249
0.417814 0.582268 -0.192441
-0.217819 0.582268 -0.025834
-0.631242 0.602328 -0.126873
0.295567 0.602328 -0.019952
0.465233 0.602328 0.030045
0.340789 0.602328 0.127274
0.5575 0.602328 -0.209728
0.005564 0.582268 0.058146
-0.604913 0.582268 0.13658
0.649932 0.602328 -0.172627
-0.707756 0.602328 -0.240746
-0.095707 0.582268 -0.154703
-0.282435 0.602328 0.023074
-0.264802 0.582268 0.171707
-0.440043 0.602328 0.090769
-0.013543 0.582268 0.162463
0.668307 0.582268 -0.045696
-0.703642 0.582268 0.093994
0.429375 0.602328 0.087089
0.473711 0.602328 -0.052758
0.406188 0.602328 -0.114034
-0.476229 0.582268 -0.107653
-0.175243 0.582268 -0.167566
0.036034 0.582268 -0.024446
0.535391 0.582268 -0.156472
0.297294 0.602328 -0.185138
-0.740711 0.602328 -0.079998
-0.538443 0.602328 -0.06218
-0.07713 0.598688 -0.255882
-0.046153 0.602328 -0.186598
-0.309131 0.602328 -0.169296
-0.318567 0.582268 -0.243417
0.273751 0.602328 -0.122937
0.745833 0.602328 0.150436
-0.721948 0.582268 -0.057994
-0.193046 0.582268 -0.065907
-0.665817 0.602328 0.00773
-0.750778 0.582268 0.028166
-0.185721 0.602328 -0.02832
0.053323 0.602328 0.056981
-0.150481 0.602328 0.132803
0.53874 0.582268 0.116298
0.402259 0.602328 -0.243781
-0.595398 0.602328 -0.079171
0.568536 0.582268 0.021763
-0.233093 0.582268 -0.22748
0.588125 0.582268 -0.132841
-0.45018 0.582268 0.161954
-0.681846 0.582268 0.155998
-0.13331 0.602328 -0.211469
-0.300501 0.582268 0.104021
0.689669 0.582268 -0.135164
0.281593 0.582268 0.039456
-0.351778 0.582268 0.033179
0.158478 0.602328 0.067659
-0.672596 0.602328 -0.158648
0.673613 0.582268 -0.186184
0.633344 0.602328 0.020956
-0.533407 0.602328 -0.238505
0.402025 0.602328 -0.018639
0.027189 0.602328 -0.177866
0.740971 0.602328 0.122725
0.657906 0.582268 0.020419
0.724866 0.602328 0.0076
0.605701 0.602328 0.065357
0.623931 0.582268 -0.132896
-0.610189 0.602328 -0.007557
0.149865 0.582268 -0.113537
-0.001395 0.602328 0.141636
0.746047 0.602328 0.047022
-0.281876 0.582268 0.072197
0.54562 0.602328 0.149164
0.254067 0.602328 0.148502
-0.262983 0.602328 -0.247009
-0.573146 0.602328 0.024444
0.30947 0.602328 -0.120144
-0.187307 0.582268 0.087321
-0.07245 0.602328 0.144132
-0.568573 0.582268 0.067524
0.778344 0.585894 0.192717
-0.11261 0.602328 -0.16999
0.33223 0.582268 -0.127822
-0.609493 0.602328 0.019845
-0.246793 0.602328 0.010232
0.465295 0.602328 0.17367
-0.526987 0.602328 0.100156
0.746108 0.602328 -0.207942
0.264498 0.582268 0.11727
-0.469948 0.582268 0.003785
-0.39274 0.602328 0.153313
0.626268 0.602328 -0.186764
0.01876 0.582268 0.095714
0.338828 0.582268 0.109398
0.228052 0.602328 0.032158
-0.708923 0.602328 -0.081462
-0.758202 0.602328 -0.210595
-0.529003 0.582268 -0.10919
-0.054692 0.582268 -0.088235
-0.697505 0.602328 0.036656
-0.445371 0.602328 -0.07346
0.179802 0.582268 -0.253441
0.114708 0.602328 0.105163
0.563508 0.582268 0.106381
-0.689665 0.582268 -0.007631
-0.538649 0.582268 0.152479
-0.737794 0.582268 -0.023664
0.149061 0.602328 -0.024067
-0.511397 0.602328 -0.169475
0.145194 0.582268 0.032791
-0.543122 0.602328 -0.167995
0.206587 0.582268 -0.046991
0.357446 0.582268 -0.181265
0.615332 0.602328 0.182362
-0.582408 0.602328 0.164704
-0.003692 0.602328 -0.083529
0.671972 0.602328 -0.124532
-0.335412 0.582268 0.086477
0.739084 0.582268 -0.189481
-0.38709 0.602328 -0.049177
0.69866 0.582268 -0.218209
-0.10534 0.582268 -0.095035
0.720984 0.602328 -0.086542
-0.733001 0.582268 0.073945
0.461289 0.582268 -0.118289
-0.613254 0.582268 0.072374
-0.629408 0.582268 -0.254387
0.045931 0.582268 -0.237169
-0.037449 0.582268 -0.172274
-0.55801 0.582268 -0.016394
-0.269938 0.582268 -0.206363
-0.644412 0.602328 0.065572
0.516351 0.582268 0.136851
0.433339 0.582268 -0.072805
-0.124781 0.602328 0.066599
-0.314864 0.582268 -0.052999
-0.468582 0.602328 0.121524
0.615459 0.602328 -0.000111
-0.354721 0.582268 -0.106015
0.706335 0.602328 -0.139707
0.263372 0.602328 -0.02768
0.140784 0.602328 -0.048713
0.635586 0.582268 0.116787
0.682093 0.582268 -0.107336
0.111986 0.602328 -0.133677
-0.266694 0.582268 -0.148349
-0.626295 0.582268 -0.052803
-0.150782 0.582268 -0.15894
0.290266 0.582268 -0.250512
-0.362114 0.582268 0.07095
0.610543 0.602328 -0.03506
-0.054166 0.602328 -0.149899
0.184637 0.582268 0.115601
0.219871 0.582268 -0.131874
0.420633 0.582268 0.037583
0.738549 0.602328 0.179698
-0.555903 0.602328 0.158981
-0.081391 0.602328 -0.147197
0.305445 0.582268 -0.085509
0.161314 0.602328 -0.074626
-0.489094 0.582268 -0.07759
0.288437 0.602328 0.080479
-0.465039 0.582268 0.100666
