-0.019125 0.809848 0.091983
0.405012 0.831546 -0.030942
0.131494 0.831546 -0.032884
-0.432628 0.831546 -0.010136
-0.492562 0.831546 -0.082016
0.398615 0.831546 0.235534
-0.248051 0.831546 -0.09826
-0.400007 0.831546 -0.225822
0.320646 0.809848 0.078421
-0.443647 0.831546 0.210802
0.249471 0.809848 0.072705
-0.234367 0.831546 -0.002709
0.04033 0.809848 0.148356
-0.380016 0.809848 0.021713
-0.389645 0.831546 0.214276
-0.460773 0.831546 -0.052409
-0.383832 0.831546 -0.074536
-0.143394 0.809848 0.143999
-0.04147 0.817375 -0.259338
-0.211341 0.831546 -0.248471
0.158173 0.831546 0.186226
-0.414165 0.831546 -0.086983
-0.112481 0.809848 0.097398
0.114273 0.809848 -0.140906
-0.29314 0.831546 -0.248582
0.155218 0.809848 0.204056
-0.034548 0.831546 0.192047
0.358482 0.831546 -0.024904
0.366918 0.831546 -0.212189
0.352862 0.831546 0.079731
0.312713 0.831546 0.147712
-0.357304 0.809848 -0.099763
-0.144187 0.809848 0.214305
-0.194288 0.831546 0.194172
-0.182694 0.809848 -0.079185
0.069442 0.809848 0.007194
-0.126896 0.831546 -0.010105
-0.372129 0.831546 -0.191153
0.095046 0.831546 -0.20642
-0.103654 0.830338 -0.259338
-0.369205 0.809848 -0.217407
-0.382507 0.809848 0.186185
-0.485585 0.831546 0.190521
-0.436078 0.831546 0.182646
0.439005 0.809848 0.020413
0.212792 0.831546 -0.115575
-0.21377 0.831546 -0.121333
0.08529 0.809848 0.167986
0.133115 0.809848 0.001774
-0.292806 0.831546 0.217087
-0.376509 0.831546 0.118468
0.283177 0.831546 -0.009489
-0.329034 0.814093 0.239722
0.104935 0.831546 0.00723
0.362227 0.831546 -0.113907
-0.180085 0.809848 -0.127529
0.055728 0.831546 -0.054891
-0.515593 0.831546 0.003948
-0.48952 0.831546 0.064769
0.038858 0.831546 -0.228518
-0.421233 0.809848 0.119531
0.161697 0.831546 -0.225118
0.43633 0.809848 -0.155729
-0.370563 0.809848 -0.07697
0.022141 0.831546 -0.060852
0.162895 0.809848 -0.162314
-0.080808 0.831546 0.163538
-0.503366 0.809848 0.098812
-0.127314 0.809848 0.013764
-0.00475 0.831546 0.041441
0.081835 0.831546 -0.188435
-0.019317 0.831546 0.162675
-0.124923 0.831546 0.166959
-0.406937 0.831546 -0.150456
0.063511 0.831546 0.146899
-0.378163 0.831546 0.005846
0.162019 0.831546 -0.07909
-0.408196 0.831546 -0.192615
0.37672 0.809848 0.03506
-0.046004 0.831546 0.056051
-0.324237 0.809848 0.094286
-0.088695 0.809848 -0.038607
-0.278689 0.809848 -0.119185
0.248191 0.831546 -0.237247
-0.444432 0.809848 -0.219572
-0.017649 0.831546 -0.229111
0.356282 0.831546 0.193343
-0.337808 0.809848 0.208445
-0.508441 0.831546 0.19979
-0.251998 0.809848 0.183579
-0.340706 0.809848 -0.009969
-0.445862 0.831546 0.097597
-0.470431 0.809848 0.154396
0.247587 0.831546 -0.108495
-0.276286 0.831546 -0.137979
-0.046193 0.809848 0.171073
-0.271544 0.831546 -0.008182
-0.139349 0.809848 -0.050213
0.19291 0.824324 -0.259338
0.362453 -0.715231 -0.259338
-0.226238 -0.700032 -0.259338
-0.330532 -0.679901 -0.259338
-0.135688 -0.71433 -0.243064
0.089527 -0.760464 -0.259338
0.449927 -0.718525 -0.243064
-0.506256 -0.736256 -0.259338
-0.181871 -0.760431 -0.243064
0.31187 -0.751249 -0.259338
-0.08684 -0.691378 -0.259338
-0.392608 -0.696778 -0.259338
0.144979 -0.752912 -0.259338
-0.02231 -0.770911 -0.259338
0.25969 -0.75162 -0.243064
-0.275166 -0.696194 -0.243064
-0.241295 -0.775243 -0.259338
-0.41142 -0.754134 -0.243064
-0.530695 -0.698459 -0.253926
-0.324785 -0.720597 -0.243064
-0.141322 -0.755762 -0.259338
0.335634 -0.785115 -0.259338
0.170209 -0.70291 -0.259338
-0.528107 -0.769098 -0.243064
-0.315468 -0.759642 -0.259338
-0.457367 -0.697469 -0.259338
0.338455 -0.678445 -0.258606
-0.373317 -0.786937 -0.259011
0.090274 -0.678445 -0.244636
0.468543 -0.690305 -0.259338
0.449009 -0.754848 -0.259338
0.238372 -0.72909 -0.259338
0.282443 -0.678846 -0.259338
0.245248 -0.680589 -0.259338
-0.138218 -0.680554 -0.243064
0.391757 -0.731654 -0.259338
0.110332 -0.740474 -0.243064
0.42804 -0.700569 -0.259338
0.135467 -0.720361 -0.259338
-0.486211 -0.764436 -0.259338
-0.0434 -0.710655 -0.259338
-0.059069 -0.678445 -0.250415
0.394822 -0.763556 -0.259338
0.200943 -0.699379 -0.259338
-0.305286 -0.686336 -0.243064
-0.299409 -0.722376 -0.259338
-0.197713 -0.721822 -0.259338
0.033787 -0.703502 -0.259338
0.156424 -0.780501 -0.259338
-0.274461 -0.760814 -0.259338
0.282852 -0.768676 -0.259338
-0.359756 -0.68147 -0.259338
0.094544 -0.70328 -0.259338
0.134682 -0.689126 -0.259338
-0.247941 -0.681178 -0.259338
0.293414 -0.704941 -0.259338
0.368685 -0.737123 -0.243064
0.041014 -0.730256 -0.259338
-0.385938 -0.764161 -0.243064
-0.427837 -0.730365 -0.259338
-0.349942 -0.742541 -0.259338
-0.504743 -0.70466 -0.259338
-0.166945 -0.682546 -0.259338
0.403753 -0.786937 -0.250115
0.197213 -0.767128 -0.259338
0.070458 -0.774601 -0.243064
0.40482 -0.682441 -0.259338
0.183757 -0.72987 -0.259338
-0.467476 -0.721467 -0.259338
-0.423301 -0.678445 -0.258546
-0.003421 -0.678445 -0.2569
0.002115 -0.749977 -0.259338
-0.066545 -0.735612 -0.259338
-0.372747 -0.732466 -0.259338
-0.251995 -0.759877 -0.243064
0.09585 -0.728756 -0.259338
0.214648 -0.737418 -0.259338
-0.178215 -0.742286 -0.259338
0.157252 -0.679324 -0.259338
0.267241 -0.726602 -0.243064
-0.335385 -0.696915 -0.243064
0.038366 -0.763886 -0.259338
0.072361 -0.684569 -0.259338
0.127123 -0.756863 -0.243064
-0.105523 -0.709902 -0.259338
-0.0804 -0.746983 -0.243064
0.233363 -0.706229 -0.259338
-0.319978 -0.736766 -0.259338
-0.137002 -0.698264 -0.259338
-0.229607 -0.747706 -0.259338
-0.368898 -0.754836 -0.259338
0.065731 -0.718956 -0.259338
0.09036 -0.786867 -0.259338
-0.006555 -0.704029 -0.259338
-0.438893 -0.76452 -0.259338
0.181999 -0.693384 -0.243064
-0.500546 -0.75023 -0.243064
-0.526435 -0.786937 -0.257578
0.408012 -0.716625 -0.259338
0.174873 -0.755377 -0.243064
0.051006 -0.036441 -0.259338
-0.251908 0.020682 -0.259338
0.30589 -0.010646 -0.259338
-0.480352 0.005668 -0.259338
0.466128 -0.04279 -0.259008
-0.362223 -0.04279 -0.246047
0.430313 0.065701 -0.257795
-0.185867 -0.04279 -0.256732
-0.35299 0.040043 -0.259338
0.346007 0.062742 -0.243064
0.397802 -0.000972 -0.259338
-0.087689 0.036117 -0.243064
0.041673 0.031164 -0.259338
0.252218 -0.041253 -0.243064
-0.513164 0.059797 -0.259338
0.159609 0.011346 -0.259338
-0.237686 -0.038417 -0.243064
-0.302015 0.050285 -0.259338
0.291209 0.036282 -0.243064
-0.122293 -0.000981 -0.259338
-0.400001 0.065193 -0.259338
0.132171 0.065701 -0.252191
0.450619 0.023938 -0.259338
0.382796 0.037572 -0.243064
-0.405886 -0.028695 -0.259338
-0.052115 0.056522 -0.259338
-0.132558 -0.04279 -0.256861
-0.452174 0.033809 -0.243064
0.342184 0.023482 -0.259338
0.260041 0.006611 -0.259338
-0.210004 0.043435 -0.259338
-0.16791 0.00725 -0.259338
0.153779 -0.026203 -0.243064
0.198505 0.034941 -0.259338
-0.44379 -0.024041 -0.259338
-0.001776 0.000296 -0.259338
0.123334 0.0093 -0.259338
0.191841 0.002938 -0.243064
0.033383 -0.011589 -0.243064
-0.127606 0.048563 -0.259338
0.38701 -0.04279 -0.25735
0.318996 -0.03741 -0.243064
-0.288646 -0.026906 -0.259338
0.154969 0.043438 -0.259338
0.124772 -0.04279 -0.249697
0.316228 0.014832 -0.243064
-0.16793 -0.01996 -0.243064
0.027489 0.058761 -0.259338
-0.440769 0.00645 -0.259338
0.389152 0.065701 -0.258555
0.286145 0.065701 -0.255524
-0.011326 0.048235 -0.259338
-0.338647 -0.004286 -0.259338
-0.4734 -0.017853 -0.243064
-0.095229 0.059295 -0.259338
-0.388973 -0.011231 -0.243064
-0.329278 0.058527 -0.243064
-0.028266 0.014127 -0.259338
0.074541 0.022417 -0.259338
0.108053 0.052297 -0.259338
0.240016 0.057855 -0.259338
0.41323 -0.024265 -0.259338
0.097331 0.001542 -0.259338
-0.063005 -0.026364 -0.243064
-0.41031 0.023931 -0.259338
0.4144 0.020014 -0.259338
-0.159282 -0.04279 -0.254555
-0.340548 -0.030503 -0.259338
-0.377974 0.065701 -0.245011
-0.294153 -0.001246 -0.259338
-0.224718 0.010743 -0.259338
-0.14379 0.065701 -0.248333
0.364945 0.047226 -0.259338
-0.033337 -0.027691 -0.243064
0.332096 -0.000182 -0.259338
-0.314171 -0.028461 -0.259338
0.215006 0.045591 -0.243064
0.252282 -0.017581 -0.259338
0.077251 0.065701 -0.254726
0.092753 -0.04279 -0.247843
0.018626 0.042081 -0.243064
-0.529353 -0.037945 -0.243064
-0.472071 -0.036151 -0.259338
-0.422512 -0.04279 -0.247331
-0.45711 0.051329 -0.259338
-0.2472 0.064587 -0.259338
-0.177514 0.028862 -0.259338
0.072072 -0.022189 -0.259338
-0.378046 -0.024364 -0.259338
0.286056 -0.035158 -0.259338
0.450939 -0.001413 -0.259338
-0.513961 -0.030795 -0.259338
-0.076272 0.018257 -0.259338
-0.252297 -0.021929 -0.259338
0.227308 -0.031337 -0.259338
0.363935 0.010323 -0.259338
0.441495 0.047686 -0.243064
0.326489 -0.022742 -0.259338
0.287876 0.00367 -0.259338
-0.46131 0.020355 -0.259338
-0.027547 0.047994 -0.243064
-0.112955 0.030901 -0.259338
-0.098945 -0.024316 -0.259338
0.213833 0.017952 -0.259338
0.052267 0.051302 -0.259338
-0.422944 -0.007386 -0.259338
-0.015662 -0.00662 -0.243064
-0.518252 0.032026 -0.259338
0.257917 0.720829 -0.259338
0.43184 0.725629 -0.259338
0.126002 0.769566 -0.259338
-0.174892 0.786057 -0.259338
-0.480567 0.748473 -0.259338
0.416101 0.805356 -0.259338
0.066075 0.722229 -0.259338
0.060942 0.797872 -0.243064
-0.429591 0.716036 -0.243064
-0.310871 0.72292 -0.259338
0.478273 0.77149 -0.249947
0.313306 0.725924 -0.243064
0.116417 0.716086 -0.243064
-0.218733 0.755895 -0.259338
0.313788 0.779046 -0.243064
0.232526 0.758529 -0.259338
-0.321056 0.765155 -0.243064
-0.350471 0.707643 -0.243064
-0.366661 0.789115 -0.243064
-0.020315 0.761303 -0.259338
-0.045012 0.796121 -0.243064
-0.139365 0.809848 -0.257919
0.160885 0.713219 -0.243064
0.37182 0.802607 -0.259338
-0.452558 0.771457 -0.243064
-0.284398 0.809848 -0.248775
0.222582 0.707294 -0.259338
0.211878 0.785 -0.243064
0.272829 0.750919 -0.243064
0.096758 0.789551 -0.243064
-0.083997 0.77139 -0.259338
0.291429 0.809848 -0.244617
-0.485914 0.783127 -0.259338
-0.104708 0.737745 -0.259338
0.239652 0.800112 -0.259338
-0.278767 0.733032 -0.259338
-0.351867 0.764002 -0.259338
-0.074536 0.710072 -0.243064
0.396245 0.732349 -0.259338
0.341717 0.731252 -0.259338
-0.136576 0.720952 -0.259338
-0.241745 0.701357 -0.255698
0.189476 0.701357 -0.249062
-0.4025 0.753339 -0.259338
0.090454 0.703887 -0.259338
0.301967 0.748824 -0.259338
0.224643 0.734254 -0.243064
-0.261206 0.79359 -0.259338
-0.20504 0.729183 -0.259338
0.122888 0.809848 -0.244489
0.457555 0.751919 -0.243064
0.044462 0.751373 -0.259338
0.156456 0.73594 -0.259338
0.001025 0.782999 -0.259338
-0.003866 0.737958 -0.243064
-0.298707 0.788171 -0.259338
-0.127691 0.775821 -0.259338
-0.477928 0.72609 -0.243064
-0.515323 0.765863 -0.243064
0.136684 0.708921 -0.259338
-0.12995 0.747177 -0.259338
0.145808 0.776526 -0.243064
-0.400373 0.795414 -0.259338
0.211769 0.758672 -0.243064
0.088077 0.809848 -0.256931
0.416241 0.764027 -0.259338
0.347148 0.809848 -0.257719
-0.507699 0.737257 -0.243064
0.080063 0.746046 -0.259338
-0.112981 0.809848 -0.256061
0.136788 0.795214 -0.259338
-0.043398 0.776597 -0.259338
0.256242 0.777409 -0.259338
-0.175319 0.703585 -0.259338
-0.487063 0.708493 -0.259338
-0.332392 0.710394 -0.259338
-0.329333 0.781792 -0.259338
-0.441139 0.757475 -0.259338
0.365943 0.742646 -0.259338
0.478273 0.708151 -0.259154
0.33714 0.758899 -0.259338
0.429607 0.706422 -0.243064
0.343623 0.78243 -0.259338
0.093914 0.772036 -0.259338
0.037452 0.708969 -0.259338
-0.429417 0.78016 -0.259338
0.100343 0.725645 -0.259338
-0.020222 0.716525 -0.259338
-0.458398 0.740669 -0.259338
0.060464 0.768448 -0.243064
-0.480575 0.76513 -0.243064
-0.240187 0.747373 -0.259338
-0.20253 0.78898 -0.259338
0.024896 0.779971 -0.259338
-0.404895 0.701357 -0.2455
-0.497539 0.763636 -0.259338
0.122271 0.731323 -0.259338
-0.067332 0.792304 -0.259338
0.443291 0.745799 -0.259338
-0.164136 0.805735 -0.259338
0.268663 0.809848 -0.255792
0.174509 0.719703 -0.259338
0.145823 0.759724 -0.259338
-0.372175 0.809848 -0.248248
-0.501473 0.802057 -0.259338
-0.239991 0.787635 -0.259338
-0.190405 0.75755 -0.259338
-0.000303 0.766247 -0.243064
0.102962 0.747385 -0.259338
-0.5490093546778958 0.011997 0.23875430298981382
-0.3306366373629427 -0.599169 0.5686991181051352
-0.5300780893468567 -0.805923 0.2831578088983094
-0.4182084810526263 -0.271798 0.44727935357814547
-0.3833267006843226 0.015599 0.46782463409064823
-0.48034848561701227 -0.566245 0.361121241518177
-0.27976242978342436 -0.774505 0.6392370221224511
-0.4327015173523865 -0.738362 0.42718452651211103
-0.5390559289525076 -0.408363 0.27972243060542723
-0.4768059513971484 -0.10438 0.3660330219795874
-0.336223616282018 -0.378636 0.5609526823080858
-0.5498869217946801 -0.656139 0.23938723265062833
-0.469409229294123 0.079026 0.348469828786702
-0.45691780394979825 -0.414093 0.3936082571030176
-0.31162944376881496 -0.247488 0.5950528965946678
-0.4009013205822075 0.154813 0.44345714198651764
-0.3207408230634979 0.089785 0.5824198232018459
-0.49837762154673904 -0.294207 0.3361235556527326
-0.38327333761162374 -0.11273 0.495717489759842
-0.3956530350768213 -0.615404 0.45073397393826375
-0.333691444141408 -0.723132 0.5366447126427616
-0.3316328288715999 -0.031064 0.5673178826154089
-0.30881122485913076 -0.489877 0.5711415353582785
-0.5020435829000889 -0.697709 0.33104064149294743
-0.2630383456774289 -0.627808 0.6624252327221414
-0.416121919037723 -0.514224 0.4501724052468792
-0.3936915236181918 -0.414919 0.4812725079207205
-0.4527756829440426 -0.011686 0.39935137425084577
-0.35753146824581616 0.173898 0.5314090041232548
-0.4542294467634974 -0.211315 0.36951684050625305
-0.3516655935756481 -0.212893 0.5117232664344131
-0.5595354737076984 0.116226 0.2513272136381254
-0.513027427854908 -0.018226 0.3158113644579567
-0.45635565477785484 -0.648685 0.3943876859377956
-0.3646627487402615 -0.304672 0.5215213694460661
-0.2857677885111951 -0.691382 0.6030916291027206
-0.4252830201634311 -0.166213 0.43747039173859825
-0.3531993658220951 -0.531173 0.5095966666375475
-0.5278767064498956 -0.596049 0.29522260174116277
-0.27762920221645165 -0.412898 0.6143759094130911
-0.5236573703653714 -0.192178 0.3010727788329979
-0.26615164872768854 -0.551068 0.6302897212415808
-0.3592133675252689 0.087892 0.5012581569077323
-0.5500280746529679 -0.312036 0.2645093747740739
-0.45462065535643537 -0.332427 0.39679329043722483
-0.4364172005367616 0.081815 0.42203267223686675
-0.42524207277317505 -0.075957 0.43752716595132923
-0.2605582352187159 -0.178862 0.6380450787006308
-0.39579095481288984 -0.688783 0.4783616129279856
-0.2545062109388757 -0.259694 0.6464363073422676
-0.2736912331992582 -0.336079 0.6198359665574462
-0.5448113771343506 -0.726768 0.271742409475999
-0.4784748500314403 0.160921 0.3637190672807096
-0.45562328145499 -0.488381 0.39540313328549803
-0.49398045679596014 -0.380309 0.3422202950398565
-0.292193603967801 0.02386 0.5941821330048682
-0.3894302016833418 -0.347676 0.45936203215300686
-0.5290050995328079 0.051956 0.2936580666503338
-0.2785171756222894 0.141425 0.6131447200570109
-0.34633645174981964 0.035243 0.5469310738839009
-0.2614444537363998 -0.067548 0.6368163225250962
-0.5017190600569965 -0.086681 0.3036717307012423
-0.5079243445689378 0.120268 0.29506800429195534
-0.3671564448068533 -0.464093 0.5180638198907502
-0.36597306522845424 -0.627078 0.5197045946386751
-0.34412704756414825 -0.097472 0.5499944481908274
-0.38542658537637264 -0.045646 0.4927319772303751
-0.30938390335999716 -0.310729 0.5703475074402268
-0.4934691993804778 -0.631623 0.3429291616388117
-0.5266085072773947 -0.473582 0.296980980215459
-0.27911370612922537 0.08277 0.640136487864146
-0.3188882461357718 -0.763166 0.5849884507978312
-0.42709595109170306 -0.560541 0.4071378670423368
-0.4925959815079547 -0.524734 0.31632102529770156
-0.4391542410940177 -0.799652 0.41823772164589257
-0.2844212043344899 -0.616472 0.6049586896413874
-0.26477743983787394 -0.694295 0.6600139508014391
-0.4409700968358794 -0.266941 0.3879011416487217
-0.2462002513721273 0.000137 0.659084349430889
-0.5133721023611426 -0.35325 0.28751460081819125
-0.46183513202219467 -0.731309 0.358971436021567
-0.3783147401169855 -0.75145 0.4747737977289185
-0.34720817766492107 -0.154722 0.5179035450202697
-0.4734220735392132 -0.163138 0.34290595593906736
-0.29737227890975193 -0.07364 0.5870018172147647
-0.3241295120885428 0.161565 0.5777213515682675
-0.3155212007312909 -0.543382 0.5896569132046804
-0.41831741558352975 -0.683897 0.41930944719167407
-0.3920583077096944 -0.169054 0.4835369879485042
-0.3284547264250146 -0.4366 0.5717243725835137
-0.49416836129378594 -0.242126 0.3141408955288325
-0.4323945433908324 0.137096 0.3997912839149498
-0.474205923581257 -0.049434 0.3418191352953603
-0.40221735523221364 -0.223114 0.4694513057699515
-0.4822642385182762 0.010374 0.35846501942254966
-0.31793488837089057 -0.675648 0.5584914297016373
-0.4207537853037632 -0.380146 0.4159313815341815
-0.37173215465197085 -0.575345 0.4839006579555123
-0.3675214615428498 -0.35868 0.5175577183372628
-0.31982314802441114 -0.211633 0.555873327434558
-0.4331759221166384 -0.218233 0.42652675670461365
-0.5304990943144349 -0.677721 0.2915866189458354
-0.37211823004581335 0.135466 0.48336535823547744
-0.4304384280620304 -0.114529 0.4025034691631262
-0.44659275848074925 0.044339 0.3801052311805782
-0.4957799335817194 -0.423436 0.311906424727778
-0.4409841359411101 -0.0609 0.38788167620435676
-0.48584421035208847 -0.48676 0.35350133110949944
-0.42334211386529563 -0.425445 0.4401614894220461
-0.34507761198080594 0.125441 0.5486764753952872
-0.4142630389854656 -0.320121 0.42493090531222155
-0.3004139535776904 -0.193457 0.6106033534616794
-0.5055961929515239 -0.747695 0.2982960238158017
-0.34477531772099534 -0.049078 0.5212767443166709
-0.3365223842945062 -0.805923 0.5352650301250872
-0.4375959004134171 -0.611076 0.4203983859703968
-0.41247363803127746 -0.007056 0.42741193840856473
-0.35864231244719036 -0.674651 0.5298688008378818
-0.363680142839483 -0.26342 0.49506490135896575
-0.4138768321262571 -0.56851 0.45328525422489985
-0.29540446432659107 -0.805758 0.5897302236665786
-0.3999150734397553 -0.126125 0.44482458945315206
-0.3605949179996847 -0.404963 0.5271614819507966
-0.2589863089302365 -0.301846 0.6680434466019615
-0.41323922276369895 0.055687 0.4541693098231392
-0.4687985282165903 -0.434161 0.34931657561657525
-0.29990633740388173 -0.3587 0.5834883045068998
-0.3047912295960592 -0.020312 0.6045341901207391
-0.45020665815220223 -0.606348 0.37509450137697953
-0.38631820002388406 0.094861 0.4636768723205603
-0.5476086688515549 -0.541097 0.26786391968629214
-0.33715500839434953 -0.571204 0.5318424253059038
-0.4787298937764635 -0.250559 0.3633654450414139
-0.3980266823208687 -0.302556 0.47526174091287493
-0.28989879522530987 -0.457015 0.597363922098348
-0.2817315457573872 -0.74018 0.6086879443576301
-0.35826982266122653 0.03044 0.5025663969810902
-0.4659234364578996 -0.33787 0.35330293641047095
-0.29781730407274054 -0.498353 0.6142036496090045
-0.30535747350702813 -0.122251 0.6037490838646881
-0.25831373326996787 -0.374875 0.6411571166184696
-0.49606481042535777 0.023141 0.31151143841920687
-0.3177475688357827 -0.641018 0.5865700181524796
-0.3460188169939765 -0.246647 0.5473714795626567
-0.5597168121502607 -0.184673 0.25107578498174543
-0.47816832956723804 -0.68045 0.36414406281601
-0.45808025633571736 -0.519526 0.3641776313289966
-0.5224910861711588 -0.004646 0.2748709836430051
-0.3885106402907351 -0.084081 0.46063701875890795
-0.3707346617525117 -0.730998 0.5131025647582457
-0.30526108612393366 -0.722983 0.5760638596020532
-0.39849582242065906 -0.458501 0.47461127064701447
-0.41932400495574396 0.115355 0.4457326618113176
-0.46088105782922933 -0.292516 0.36029427517819856
-0.487589285605079 -0.584054 0.323262889394335
-0.4316773790986341 -0.447163 0.4007856436979236
-0.4839057753701908 -0.203736 0.3283701353595763
-0.33222013144041485 -0.169387 0.5665035781928105
-0.450403659122783 -0.704644 0.4026402232883325
-0.5505235380750658 -0.614427 0.26382240680002916
-0.34452248236147787 -0.523577 0.5494461715078828
-0.2496744188886651 -0.5137 0.6531356644445215
-0.4991288451419441 0.076856 0.30726310518656685
-0.5309793487058662 -0.05632 0.2909207385365193
-0.5602742816204606 -0.495519 0.25030284462842245
-0.3298119713960088 -0.630212 0.5420236637689297
-0.5199020411815423 -0.257214 0.2784607360079659
-0.4453385984134791 -0.760861 0.3818441442105095
-0.4998483492850142 -0.648396 0.3062655011628656
-0.4576444591108497 0.114537 0.36478187116449046
-0.4594348985251077 -0.140327 0.390118265140427
-0.2762867127787721 -0.225694 0.6162372925304849
-0.3152586839363005 0.014108 0.562202030033697
-0.29846251795063194 0.106272 0.6133090502284009
-0.2896063138663383 0.069187 0.5977694521892835
-0.36870497258661494 -0.651815 0.4880978943966944
-0.41010265267008766 -0.657545 0.4585182145183312
-0.2845831075419941 0.011964 0.6325530751636527
-0.37741623738222474 0.058481 0.4760195861682723
-0.2771815742718591 -0.661235 0.6428154196448658
-0.5594834120258014 -0.756761 0.2513993979943119
-0.35901155538757856 -0.082695 0.5015379726704778
-0.44319529501493526 -0.373022 0.38481586871688467
-0.2977763566824846 -0.567858 0.6142604238217354
-0.3902870405997625 -0.54145 0.4859928781792094
-0.310372358887955 -0.40212 0.5967958649255084
-0.5184278036669594 -0.312158 0.30832365685892416
-0.5318176002806788 -0.106346 0.2897584892958982
-0.5268584178233225 -0.500556 0.26881560832515666
-0.4069251351862203 -0.728682 0.4629238934262541
-0.4401685664469312 0.035027 0.4168313432905284
-0.41371772226697656 -0.034966 0.4535058625943687
-0.33121763680722627 -0.318944 0.5400746861518938
-0.40960484939711805 -0.766635 0.45920842673310336
-0.5618857461252789 -0.702334 0.24804117109987972
-0.4948625805746184 -0.126401 0.34099721628559515
-0.5274036030764456 -0.646128 0.2680597002356529
-0.2757273569550523 0.12127 0.6448317152569969
-0.2796302282091692 -0.602528 0.639420321723554
-0.25070804801127067 -0.334477 0.6517025211031556
-0.3737654850595413 -0.373812 0.4810814127633289
-0.49798277171212735 -0.734435 0.33667102127549553
-0.32355696505304243 -0.063531 0.5506963302936757
-0.42278477586046187 -0.489578 0.4131153805827256
-0.4584422167927582 0.088645 0.39149463426906195
-0.3697274874175796 -0.32383 0.486680161198784
-0.2638890129346843 -0.441718 0.6334269020250576
-0.4528881272512537 -0.460492 0.3713766015032831
-0.3371596880960931 -0.759423 0.5318359368244487
-0.35317759073616517 0.070099 0.5374457250569202
-0.32528890819550615 -0.275839 0.5761138302877993
-0.5107970964767568 -0.563927 0.2910848877387871
-0.2868510079994598 0.04826 0.6294085948385391
-0.31228999814273883 -0.104069 0.566318160456692
-0.2757555666308797 -0.041068 0.6169737351756236
-0.3127731773477599 0.120501 0.5656482247464666
-0.3680953099691521 -0.791516 0.5167620682988474
-0.25807214366745734 -0.740973 0.6414920844735823
-0.5002237638845677 -0.329845 0.3335638497187479
-0.5389980176434312 0.12858 0.2798027255634324
-0.43718291673454923 -0.529442 0.4209709944587977
-0.43543329324518115 -0.291601 0.4233968754627737
-0.34193941846440684 -0.013974 0.5252087640783814
-0.3807422039310836 -0.000569 0.4992269471667976
-0.3966163372079077 -0.502428 0.4772172070113658
-0.4477463049605332 -0.561501 0.3785058205019287
-0.44497169532396263 0.168336 0.41017172813718605
-0.46855680714871367 -0.041609 0.3774705926643315
-0.4342136459782696 -0.038274 0.4250879359419746
-0.5230409511260254 -0.439027 0.2741085870720464
-0.28959623803476714 -0.085614 0.6256022894050187
-0.39599114352779247 -0.399123 0.4502651811531424
-0.2561353321083475 0.153677 0.644177504735757
-0.5203150248604101 -0.222372 0.277888127519565
-0.3638549152267819 -0.592541 0.5226414435572299
-0.3297733638566246 -0.137095 0.5420771937409332
-0.5557063077560424 0.040752 0.25663641358865263
-0.4823638136456926 0.152544 0.3305080899989881
-0.36878205620001736 0.124329 0.5158098836453309
-0.5396093036836819 0.081211 0.2789551676733773
-0.3793219144519176 -0.230343 0.5011962012883803
-0.5587358296722701 -0.400415 0.252435932906743
-0.3075880678159116 0.045668 0.5728374621985707
-0.5151661830170743 -0.530687 0.28502707924039306
-0.5607837841477892 0.074273 0.2495964112100128
-0.4588803538684976 -0.803242 0.3908871501928406
-0.34836276260477483 -0.280246 0.5441215614138999
-0.39618112494575797 -0.269064 0.47782063578667777
-0.32782062683876423 -0.338775 0.5726035618206619
-0.4874025510326891 -0.53485 0.35134066678499526
-0.27191047522047307 -0.021285 0.6501238829437048
-0.515322953025483 -0.717926 0.28480971511165165
-0.480218170396277 0.042733 0.33348305874609074
-0.5087005900956484 0.156833 0.29399172743061264
-0.4304694310860814 -0.195299 0.402460482973487
-0.3787989577820764 -0.196255 0.5019212890909729
-0.3375545379307048 -0.436728 0.5312884712016859
-0.2970837608244399 -0.64536 0.6152207190770707
-0.24571422128818976 -0.593224 0.6586265418757878
-0.3405429809913104 -0.484505 0.5549638139251507
-0.29020473072679415 -0.306896 0.5969397376232295
-0.42203179737710295 0.023706 0.441978264229437
-0.5026111282018598 -0.496593 0.30243486392388913
-0.47870532534230986 -0.400141 0.3633995095690525
-0.3794326038709749 -0.02014 0.47322386172136316
-0.48852860426472966 -0.078802 0.3497793759348937
-0.3585886273425056 -0.69133 0.5021243691819706
-0.5146202813358672 -0.397194 0.3136028475827221
-0.4558263949834823 -0.009118 0.3673026462097454
-0.3054259141450275 0.157386 0.6036541898234091
-0.4603123426020225 -0.088744 0.3889016748676206
-0.2606260908939973 -0.107035 0.6379509957195337
-0.4771569290279143 0.05292 0.36554638587046484
-0.5026671531574163 -0.160345 0.330176051339073
-0.40960322597433024 -0.35104 0.4313918107210055
-0.276111677460741 -0.401168 0.6442988487175078
-0.4106098153465444 -0.194652 0.45781502534064905
-0.5059476240796417 0.129098 0.32562762583914073
-0.3996259703917253 -0.793531 0.47304430237563977
-0.39764294677789797 0.152937 0.4757937963921822
-0.5434489989642609 -0.081509 0.2736313686395764
-0.4220452515196156 -0.633158 0.44195960984525395
-0.5429950678951371 -0.577522 0.27426075134070826
-0.5149092529185312 -0.279637 0.3132021838528779
-0.4553612181573514 -0.520423 0.39576648824697624
-0.30531899743301 -0.570109 0.575983564644048
-0.522057043834445 -0.762228 0.27547279029795335
-0.49397766344773647 -0.617973 0.3144053011481224
-0.3365068697028685 0.099506 0.5327410799874167
-0.4360463341735856 -0.138209 0.4225468843921729
-0.5022418852614716 -0.553364 0.33076569209129314
-0.5188091993590583 -0.774273 0.3077948456203443
-0.5414320475127928 -0.19881 0.2764279041466674
-0.4545377221158535 -0.699874 0.36908941179040705
-0.5129279841928576 -0.059035 0.31594924468887475
-0.5022355821369403 -0.214429 0.3029555645606503
-0.4842911343359493 -0.769664 0.3556546958923668
-0.39308621867048665 -0.249341 0.45429290601631345
-0.3710645807254317 -0.026606 0.5126451268156705
-0.4836559962896291 -0.268144 0.32871645805723515
-0.5544215592715206 -0.558893 0.24265775920664864
-0.35580361984237807 -0.122085 0.5059858267078581
-0.2871196373523618 -0.54078 0.6012172690224168
-0.5461035597782871 -0.343141 0.269950777534246
-0.4211953006904442 -0.598499 0.4431380802895124
-0.3122518441007065 -0.679041 0.594189928561157
-0.4983975102791491 0.086786 0.336095979606549
-0.5462252320236193 0.013583 0.2697820770164169
-0.5219679980359515 -0.159993 0.30341512063824116
-0.4336199088195573 -0.65861 0.42591116202657364
-0.5351442832576216 -0.374132 0.2851459900415982
-0.4956791885288671 -0.024165 0.3398649762717033
-0.3728475470897225 -0.761012 0.5101730153813279
-0.5540865459900577 -0.429524 0.2588822392322533
-0.2963285739555752 -0.791449 0.616267797771866
-0.3501697124405013 -0.216225 0.5416161965121006
-0.40053805873436477 -0.539138 0.4439608103594595
-0.43860684745538897 -0.237183 0.3911778247834803
-0.24993823707445745 0.087139 0.6527698763024977
-0.42365272906852347 -0.243327 0.43973081646547263
-0.44001472125211216 -0.406448 0.41704465211836045
-0.24902803508533788 -0.545312 0.654031885945489
-0.2588687314239299 0.063149 0.6682064696985175
-0.370763456391057 -0.460037 0.4852437736166906
-0.4680725894836228 -0.618033 0.3503231013022772
-0.36073004438752954 -0.179479 0.5269741270487844
-0.29514928911620175 -0.256609 0.6179028950985178
-0.4912650598592679 -0.661133 0.34598523640410145
-0.37477850902165294 -0.554286 0.5074957057209718
-0.5498742294581488 -0.468134 0.264722683601906
-0.26739235465244604 -0.308716 0.6285694625958325
-0.4779758768330347 -0.369666 0.36441090161584555
-0.5010481078195157 -0.461593 0.3046020167298483
-0.2669992597059882 -0.716096 0.6291144950380498
-0.5520421012908462 -0.020005 0.26171689456789227
-0.2593514571315991 -0.228706 0.6397182958558305
-0.2836922093225666 -0.12428 0.6337883198206422
-0.5005484181930261 0.004234 0.33311371131780954
-0.5308747718447204 0.106174 0.2632468691164307
-0.3794974032673005 -0.430823 0.5009528832338189
-0.36246283542344326 -0.506875 0.4967527175974392
-0.4485218340591598 0.061506 0.4052494038934113
-0.4836735451711674 -0.356911 0.32869212625177907
-0.3629008410338167 -0.263406 0.5239642827138613
-0.4146519077275318 -0.329588 0.45221059948392084
-0.46831300916069746 -0.133245 0.3499897555675282
-0.4172152143575588 0.086728 0.44865653376696235
-0.48437550043269917 -0.473269 0.32771885403353396
-0.47542966558719413 -0.714394 0.3401223973948863
-0.45132439044082556 -0.165485 0.4013636145620676
-0.42911290254317114 -0.081163 0.40434133153524576
-0.4190427693537793 0.154382 0.41830373256615405
-0.2945561369202073 -0.713678 0.618725310122935
-0.3243003212021821 -0.701705 0.5774845219951612
-0.43415469620912345 -0.727558 0.39735080382770005
-0.33666597956214905 -0.692677 0.5325204716179479
-0.3132505069256016 -0.413488 0.5649863996380599
-0.35979410403882045 0.007987 0.528271823339778
-0.5102214931623006 -0.624196 0.2918829709577482
-0.3162262122717785 -0.253622 0.5608605364928824
-0.45309169427709794 -0.66901 0.371094352559992
-0.274196509522195 -0.349714 0.6469542597529532
-0.41327193932076556 -0.805923 0.4423676430075197
-0.49126226651104427 -0.672693 0.3181702425123673
-0.4888732787709643 -0.756577 0.32148261229512826
-0.3176716551478161 0.068156 0.5588564067834794
-0.4196860968781507 -0.710716 0.4452306155587395
-0.247328133426995 -0.082483 0.6563888268340059
-0.24577850007755442 -0.19102 0.6587801688175585
-0.37111618890997666 -0.295746 0.4847547043270224
-0.5066489943784556 0.056022 0.32465516468107747
-0.3405115244699075 -0.081368 0.5271885619823283
-0.46760916754564574 -0.437694 0.3787845101589624
-0.436948346684654 -0.336335 0.4212962295917279
-0.5617232342728059 -0.526719 0.24829384855792808
-0.30969380213514097 -0.478966 0.5977366947364787
-0.3970603239108266 -0.142375 0.4766016123333257
-0.5121934024844871 0.017047 0.2891488870846612
-0.32946801331785824 -0.546003 0.5425005671558698
-0.42038818360504865 -0.762707 0.41643829414785083
-0.4271911685493618 -0.551379 0.43482471342533524
-0.4925929252289989 -0.414593 0.3441441297912544
-0.5084133734011382 -0.040752 0.2943899579799112
-0.29786013781651655 0.137414 0.5863253930230844
-0.43539468570579687 0.109245 0.4234504054347772
-0.3233269432395247 -0.226299 0.5788341261377945
-0.3445173491623824 0.135742 0.521634421856876
-0.47759578253173773 -0.242743 0.3371190415414182
-0.3003392098151597 -0.619612 0.5828881199723154
-0.39467614733785616 -0.681219 0.45208844444198826
-0.42025949180710115 -0.585278 0.4166167273878625
-0.4074119556329151 -0.745782 0.43443004216229403
-0.2538247293724719 -0.135805 0.6473811924541473
-0.3288606905512672 -0.741815 0.5711614968172953
-0.41473510389884577 -0.190605 0.4242763797454516
-0.3836145023415507 -0.203244 0.4674255924811678
-0.2735397278553109 -0.363366 0.6200460311445508
-0.3067602141046559 0.045632 0.6018041615485615
-0.37171739911865626 0.052237 0.5117399836527025
-0.2659884441293824 -0.511013 0.6305160070323228
-0.43388385847071576 -0.036558 0.3977263246919064
-0.514879419819916 0.09819 0.3132435479221533
-0.5278942553314339 -0.506758 0.29519826993570664
-0.2695491121935025 -0.268179 0.6255790837052744
-0.3516322507007253 -0.655829 0.5117694968647798
-0.2646563525552597 -0.44493 0.6601818402590864
-0.5128982825596086 -0.405899 0.2881715595655067
-0.548976311686106 -0.661881 0.2659676609810778
-0.5342207585913554 -0.377159 0.25860760487612894
-0.25295962692783974 -0.362012 0.6639594287222275
-0.41018162263700997 -0.159141 0.4584087213937786
-0.32897358835583024 -0.525579 0.5710049622021942
-0.45349239373888905 -0.39301 0.37053877633541044
-0.5582627402928614 -0.358828 0.24542814263882753
-0.26356143381263614 -0.689673 0.6338810957269053
-0.4366343531704846 -0.581478 0.3939127197167491
-0.4632349478062327 -0.081909 0.3570305690063499
-0.37299040945826667 -0.487436 0.48215606750430784
-0.38469902322061733 -0.657966 0.46592188690397907
-0.4078879838199548 -0.426789 0.4615888883668946
-0.36369229559119376 -0.067129 0.52286691828779
-0.41705668946099617 -0.383631 0.44887633107624936
-0.38329322634403384 -0.074976 0.49568991371365834
-0.44286407465121336 -0.467306 0.41309397797246705
-0.3222511968012272 -0.051656 0.5803256658122552
-0.30636140099638476 -0.464126 0.574538255399954
-0.27805622500055016 -0.004903 0.6137838354803252
-0.3900770389840209 -0.731262 0.48628404878450104
-0.3450378345159858 -0.650196 0.5487316274876544
-0.29404546446744295 -0.294436 0.6194333656617083
-0.34026102896126176 -0.452942 0.5553547449328126
-0.2554836836405588 -0.645595 0.6450810257783612
-0.3123999711337122 -0.186079 0.5661656811425002
-0.5181452666741928 -0.435995 0.3087153989267678
-0.46098914446668277 0.024368 0.3879632782371959
-0.5289109205352192 -0.644583 0.29378864733961496
-0.2770418996476367 -0.176813 0.6151902138356895
-0.27505230997854585 -0.047622 0.645767678706876
-0.4840319958519005 -0.302898 0.35601399555293567
-0.5351461696111416 -0.214851 0.2573245076684091
-0.33006571375023014 -0.085777 0.5694907128426412
-0.4301904038696225 -0.319793 0.40284735868023946
-0.5526253091206356 -0.150515 0.26090826756656693
-0.27150685094509225 -0.278427 0.6506835144691958
-0.46711662893713757 -0.578245 0.3794674228320977
-0.35270494086006704 -0.362428 0.538101061683872
-0.2943976120236448 -0.058488 0.618945107432222
-0.5175129219760962 -0.537352 0.30959215498337034
-0.47701595301289 -0.653392 0.3657418513742957
-0.44702504592930925 -0.315201 0.3795058577061756
-0.5604708290936895 -0.797577 0.2500303284073138
-0.32783759075758456 -0.145 0.5725800410753876
-0.3144033369773015 -0.202316 0.5912068492122358
-0.39798456500517676 0.114322 0.47532013724596966
-0.3567686768616183 -0.136337 0.5324666266004144
-0.2603002666601029 0.008199 0.6384027562408359
-0.3131199287741342 -0.788069 0.5929863152512606
-0.2583558505856598 -0.580184 0.6410987202853748
-0.4870107574770332 -0.088379 0.32406502791420533
-0.5022256377707353 -0.121284 0.3029693525837421
-0.5330237934050777 0.154339 0.28808608320088036
-0.3611278190357309 -0.711986 0.5264226061251122
-0.5190895279663192 -0.131348 0.2795872986005846
-0.336594482645194 0.148259 0.5604384701527796
-0.5489160605261579 -0.690664 0.2660512001798105
-0.3324829111661374 0.054281 0.538320362978507
-0.5392859507660255 -0.516055 0.2515846347613084
-0.4257287617545038 -0.780382 0.43685236388001264
-0.4825510017154344 0.068104 0.3302485507407894
-0.4348373477009631 0.021719 0.39640429659545673
-0.39247727248110775 -0.288988 0.45513721966564114
-0.3564785353535185 -0.555547 0.5328689124506225
-0.44199319662956205 -0.291868 0.3864825973906294
-0.37299495769464414 -0.331744 0.5099686282154964
-0.29950563794209073 -0.421267 0.5840438807314814
-0.3063624394564546 0.005304 0.6023556824722337
-0.3102325527983666 -0.735162 0.5969897083089756
-0.35877802379775314 -0.327309 0.5296806348756878
-0.4230098550415039 0.144187 0.4406221716053488
-0.5336491185505589 -0.330698 0.2872190598664603
-0.4082395464134386 0.131661 0.4611014411975901
-0.4688972554505566 -0.780503 0.3769985556384826
-0.38515340778709317 -0.672192 0.4931107423353087
-0.2651917249075438 -0.620841 0.631620671000031
-0.5049391483539076 -0.218249 0.32702589359268625
-0.4548838885795098 0.150692 0.39642831335538287
-0.43925777949509365 0.010617 0.4180941639937015
-0.4005443618588961 -0.559791 0.4717709378901024
-0.3557251033728077 -0.508468 0.5339135579648723
-0.4827838168771758 -0.507042 0.32992574878840475
-0.32768387702813156 -0.013383 0.5449743007105762
-0.5617355184898827 -0.726702 0.24827681629410883
-0.4495830878948748 -0.165087 0.37595909153085394
-0.3297366331042315 0.175474 0.5526245169488296
-0.4432227882626786 -0.538439 0.3847777488883367
-0.5294603319927338 0.063916 0.2652080126361947
-0.5060511624807176 0.154649 0.3254840681869496
-0.3277065591087653 -0.622936 0.5727617185561267
-0.41333470315208976 -0.51708 0.4262180578208507
-0.40718134885667945 0.033736 0.4625686490665947
-0.47633622633464 -0.710149 0.36668430330562984
-0.4144582850678926 -0.091651 0.4524790604041201
-0.31288828353782866 -0.299347 0.5933074950832815
-0.4725357235561632 0.090626 0.37195376130724533
-0.34261374901282926 -0.583174 0.5520926608813276
-0.3957254389884802 -0.391032 0.4784524516683552
-0.33225639912892735 0.033567 0.5664532924615345
-0.5161563934331861 -0.353418 0.31147300354512897
-0.41761487535928 -0.104591 0.42028353047010103
-0.43363453288750586 -0.449133 0.4258908855220268
-0.4387558814830984 -0.360191 0.41879005362974675
-0.4795325940908476 -0.604088 0.3344336212792435
-0.40944164479881184 -0.47358 0.4594347125238454
-0.4683228220615364 -0.266651 0.3777950167370798
-0.47843682745477395 -0.016264 0.36377178619253125
-0.5501754852578896 -0.265815 0.2643049876082424
-0.4735209322385456 -0.69017 0.34276888676833117
-0.5407442628218577 -0.170177 0.24956266172790414
-0.374593207305431 0.107721 0.4799337626059814
-0.47510487981336963 -0.468531 0.36839158498846813
-0.5225915682932789 -0.226761 0.30255053048436675
-0.38810526112720045 -0.52851 0.46119908346494454
-0.37598236229518 0.15783 0.5058265438666815
-0.3820946377349682 0.036509 0.497351776026312
-0.4533021493901914 -0.200373 0.39862142008716195
-0.3134141650212596 0.1099 0.5925783519797795
-0.39460829166257483 -0.45152 0.4521825274230853
-0.3494643788680279 0.059695 0.5147752858987935
-0.320431509251072 -0.285337 0.5550298248454122
-0.49113812294947423 -0.460154 0.3461612364635674
-0.5229906443322823 -0.184233 0.2741783382476873
-0.35534968877325424 -0.235651 0.50661520940899
-0.2698905989554153 -0.088397 0.6529244737517053
-0.4686954433128662 -0.744388 0.37727837140122805
-0.45659782934308335 -0.672674 0.39405190702250104
-0.37207890607834515 -0.280902 0.5112387484603063
-0.2511157670256771 -0.67739 0.6511372121563915
-0.2962121663747045 0.081722 0.6164291987480583
-0.2639467927783946 -0.176436 0.6611656562596959
-0.4287841534956871 -0.256379 0.40479714735745725
-0.35758002015140555 -0.101449 0.5313416861281595
-0.4763994023081779 -0.505331 0.3665967088059877
-0.500303318814208 -0.050277 0.3334535455340135
-0.3008614500569169 -0.524194 0.6099828924225481
-0.5170287043110053 0.103033 0.282444663621316
-0.5487944237297 -0.632985 0.2385992878695589
-0.3501394258445343 -0.752776 0.5138393224489144
-0.4913504644160876 -0.581035 0.3458668216175482
-0.3966315462385742 -0.360426 0.47719611944663715
-0.3819852497067129 -0.387775 0.4975034442803218
-0.2630968419492232 0.103484 0.6623441267039544
-0.4517193717408033 -0.102962 0.3729970997466613
-0.539897821768994 -0.774691 0.2507362658110714
-0.47637834365033194 -0.322354 0.36662590697253505
-0.4525745872344362 -0.339352 0.3718113297607659
-0.3466489533065674 -0.372737 0.5186789185541383
-0.48204617888984946 -0.110452 0.33094849567774404
-0.322170471946151 0.002321 0.5804375921173534
-0.3662340900660229 -0.540581 0.4915238126049173
-0.4629114634232101 -0.581983 0.3574790852869245
-0.3591297178566031 -0.615578 0.5013741385137398
-0.38539265753873186 -0.768421 0.49277901872092356
-0.4688669688545896 0.026171 0.3492216815752964
-0.2788166765338763 -0.777479 0.6127294572438929
-0.32026888961548383 -0.69988 0.5552552995759723
-0.33983751595347095 0.014988 0.5559419525044871
-0.31852030458618563 -0.124723 0.585498607652228
-0.4257464421014082 -0.422044 0.409008982881913
-0.250962506793576 -0.157876 0.6513497099240417
-0.5337065763622834 -0.742031 0.2593205267759935
-0.46004618456535834 -0.720096 0.38927070725037183
-0.5040091890977441 -0.337369 0.30049643008921756
-0.3761514165206656 -0.522396 0.5055921474741207
-0.39931782650473535 -0.179511 0.4456526818988422
-0.3113896090544582 -0.088944 0.5953854312692348
-0.2783942019861553 -0.165705 0.6411340918878473
-0.5616243755734734 -0.672895 0.24843091772866424
-0.3740759687974032 -0.578615 0.5084697889993989
-0.4907042120781264 -0.133535 0.3189439939258722
-0.32602479129467865 -0.364692 0.5750935165790056
-0.4407220726434715 -0.505342 0.388245031165835
-0.4032370767149547 -0.645046 0.44021857868030695
-0.43706182945193495 -0.0938 0.42113888391644494
-0.3710875257367975 -0.176373 0.48479444627593404
-0.3528203099808679 -0.449087 0.5101222336353999
-0.34120295040251636 -0.642626 0.5262298888473569
-0.40679927558114426 0.175474 0.4559680308370557
-0.37256618002239184 -0.100228 0.5105631353288078
-0.25392768281082995 -0.487375 0.6472384458621379
-0.5393074629212232 -0.453122 0.2793736747272227
-0.3301108873448778 -0.387542 0.5416092120159937
-0.537662547758367 -0.628244 0.2816543759586438
-0.34515950676131796 -0.708436 0.5485629269698252
-0.3647463984089274 0.146876 0.5214053878400585
-0.5108854258471661 -0.374933 0.29096241765132463
-0.26049083304078635 -0.802741 0.6659573998141893
-0.5522749164525876 0.157053 0.2613940926155076
-0.427929391499406 0.065181 0.43380115547581416
-0.31456140837651225 -0.382229 0.5631688137704871
-0.3143724654186166 -0.540293 0.5634307862092314
-0.5208758726415516 0.074159 0.30492936999779424
-0.5428833400160099 -0.755301 0.2744156638354456
-0.31393081856656946 -0.125812 0.5640431366465439
-0.309535034195764 -0.117999 0.6483668792684496
-0.30484377838038823 -0.015151 0.6528114202880266
-0.30165101153006746 -0.29159 0.6465213203810702
-0.30763263744265845 -0.238578 0.6442810774384811
-0.30156103011306024 -0.059497 0.6455588322800563
-0.30337558446412 -0.173383 0.6430429235958927
-0.30847904270273496 0.023036 0.6487950649368815
-0.3088196701907463 -0.085655 0.6515041787983519
-0.30366300585590766 -0.2655 0.6531989280239905
-0.46547154324517215 0.181144 0.27022165008083754
-0.5009979131675141 0.194824 0.26456429061365516
-0.546968 -0.586478 0.234515
-0.546968 -0.376843 0.233388
-0.546968 -0.792138 0.232712
-0.530694 0.026528 0.215038
-0.546968 0.101339 0.235998
-0.546968 0.041404 0.22882
-0.546968 -0.673057 0.224586
-0.530694 -0.712265 0.227376
-0.07439014483029716 0.751543 0.3324989966433384
-0.2683147072617878 0.447691 0.3016176833656473
-0.5469084433092763 0.811221 0.25725331645815847
-0.41134355260071886 0.240305 0.27884120510380583
-0.3243516452865682 0.667922 0.29269414002194555
-0.23556102485268504 0.828431 0.29035547032186093
-0.11447272992695989 0.574615 0.3096380486759248
-0.24286437982339687 0.282827 0.3056704940297035
-0.4195201511668033 0.44999 0.26106109245261305
-0.389505335993352 0.830848 0.26584077017224594
-0.47794636130429885 0.676714 0.26823511078052487
-0.1441458504322306 0.386887 0.3049127837648661
-0.19311780679179624 0.68609 0.2971142960065377
-0.3517658511825915 0.345506 0.27185055479553977
-0.38608382363330734 0.563578 0.2828636641145244
-0.23425485925345813 0.576102 0.30704150809082803
-0.05107158051309568 0.330141 0.31973429812811544
-0.5261657993483915 0.22615 0.2605564570110216
-0.17522858666051938 0.495973 0.316441084878327
-0.4506838670563372 0.352471 0.27257649804496686
-0.1534545612480419 0.252706 0.30343042788735286
-0.06247391183914669 0.651674 0.31791854585124635
-0.38508836633409904 0.740178 0.28302218466667095
-0.08368107962290833 0.491536 0.33101947148997063
-0.26332161985623487 0.741651 0.30241280232562046
-0.15537869408701982 0.780816 0.3196020601741063
-0.34196138683086497 0.485603 0.2734118564242212
-0.4660542017833993 0.533968 0.270128865233847
-0.23334038161549492 0.368292 0.3071871331218674
-0.3221796356796326 0.26666 0.2765619806107762
-0.4756588075465623 0.774459 0.25212135107630107
-0.3126155197470921 0.590653 0.2945630470077685
-0.4461229574426705 0.606548 0.2568247565064587
-0.399666308365926 0.669341 0.2642226967982025
-0.2513125565217058 0.646979 0.28784713420406594
-0.3396232243291849 0.411948 0.2902622334560783
-0.4951476264209762 0.299016 0.2654959133824212
-0.16752959350116603 0.322313 0.3176671029582223
-0.16530820605200786 0.624356 0.30154280666967925
-0.19356319492864443 0.430501 0.29704337064044833
-0.27273402414071374 0.213233 0.30091393389059196
-0.49153218081343486 0.403781 0.2660716512211201
-0.11723295130720524 0.687235 0.3091985001211137
-0.2786761536737857 0.522502 0.299967685713741
-0.5352444094194453 0.743075 0.259110743284947
-0.3253803074125039 0.750142 0.27605229300213835
-0.052339603501372955 0.591419 0.3195323731390716
-0.12166708153879796 0.451349 0.30849239170927045
-0.16980652747848995 0.552786 0.3008264761984218
-0.3996159429668589 0.394381 0.26423071718328134
-0.44252170973693555 0.723469 0.27387627221509697
-0.2970216250671997 0.335681 0.28056824158888455
-0.40304412487993824 0.323459 0.28016283875483716
-0.18567990074536245 0.829558 0.3147767763432408
-0.39352506445625857 0.509152 0.2816786915347385
-0.0397031982257402 0.816115 0.33802268302587335
-0.47252171155772005 0.23554 0.26909895343225204
-0.10360170418322445 0.343466 0.3113691937533347
-0.510855333482857 0.602203 0.24651651726826257
-0.5206730081795455 0.518016 0.26143115077197304
-0.3625361461281928 0.610678 0.2701354504882876
-0.4434346963929606 0.831546 0.2682527189463958
-0.09873996183798373 0.266394 0.31214339680712183
-0.05351578370311616 0.446063 0.31934507355811276
-0.21175732677998088 0.78334 0.31062410402183044
-0.43992739790655827 0.284869 0.27428940067788365
-0.2803220388275043 0.385832 0.28322754966110486
-0.16904154303002317 0.729786 0.3174263341434045
-0.27939768562109657 0.695441 0.2833747473166695
-0.327592806850062 0.538395 0.2921780046527541
-0.07764809486014673 0.542223 0.33198018781245403
-0.11012587680366315 0.6224 0.3268082975362205
-0.37592482637442226 0.281028 0.2844814229636628
-0.05653511708259212 0.699406 0.3353423017850145
-0.06278400468830486 0.379363 0.3178691654411531
-0.21788869512120368 0.48814 0.2931696819098197
-0.4847867954598387 0.7257 0.2506677742276002
-0.12637217445175475 0.204626 0.32422117292970976
-0.4343190625869113 0.781209 0.2751824941457807
-0.46655847122493055 0.453739 0.2535705245763313
-0.2153303074432108 0.62697 0.3100551284685902
-0.09955013055641898 0.797059 0.328492421140325
-0.5485147791148781 0.394884 0.25494092672464863
-0.18983714295452442 0.279543 0.29763672187383017
-0.27815237644024166 0.259674 0.2835730552693052
-0.36212273191635114 0.701546 0.28667932300017085
-0.2284914775092321 0.21695 0.3079592917637717
-0.35958335116327916 0.778761 0.27060566522134133
-0.3677178568910362 0.239714 0.2693102943998819
-0.26435818243692616 0.601122 0.28576969720619305
-0.12432496911320429 0.749784 0.32454717799379684
-0.5116072363474696 0.360115 0.2628748200861648
-0.08450371447433747 0.184068 0.3308884718670162
-0.20646364998773026 0.319761 0.2949890512230968
-0.21035462395487392 0.531003 0.2943694371601431
-0.38237456012554294 0.451874 0.2834543418862133
-0.2468311240711758 0.178186 0.3041213984636672
-0.4475256602677774 0.495808 0.27307942336814606
-0.2508424794637464 0.320225 0.28792199113146844
-0.5389161457671204 0.266774 0.2585260414864541
-0.24468247197403437 0.703342 0.30538097385460244
-0.06796275278061492 0.225865 0.31704448114010503
-0.30939707199102073 0.44979 0.2950755653405518
-0.18583395961309712 0.359529 0.31475224340064667
-0.2761031959880023 0.776576 0.28389937485829736
-0.43519959118617907 0.206922 0.25856423649385246
-0.15822088268535478 0.687242 0.31914945883573553
-0.34875417491299476 0.821969 0.28880818482001985
-0.10015254023153514 0.422908 0.3283964910442839
-0.4061209799012689 0.60164 0.26319482940849037
-0.4455979493074057 0.421249 0.27338639967547745
-0.5009787774814854 0.650199 0.24808929905597843
-0.3205047392714408 0.379157 0.27682869773026086
-0.2018399088420027 0.738026 0.2957253540258251
-0.19720666423381455 0.58968 0.31294120899735345
-0.48299376433629665 0.827014 0.2674313423856628
-0.5132544811640167 0.565947 0.2626125063153508
