0.791248 0.592488 -0.156245
0.185154 0.37044 0.228428
0.74806 0.236411 0.228428
-0.456192 0.317976 0.198916
-0.118069 0.316827 0.228428
0.501695 0.346045 0.228428
-0.653848 0.364888 0.198916
-0.290009 0.245952 0.228428
-0.589203 0.195314 0.198916
0.342065 0.246671 0.228428
-0.117806 0.144721 0.198916
0.054815 0.25256 0.198916
0.64693 0.385904 0.212382
0.20068 0.206977 0.198916
0.601054 0.220983 0.198916
-0.696693 0.099381 0.228428
-0.275834 0.385905 0.215688
0.471191 0.209628 0.198916
0.305386 0.375613 0.198916
0.65221 0.107371 0.198916
0.002309 0.349793 0.228428
-0.68111 0.257928 0.228428
-0.396069 0.218656 0.198916
-0.538157 0.385905 0.22757
-0.238864 0.155184 0.198916
-0.521475 0.100951 0.198916
-0.384065 0.385905 0.215156
0.401762 0.353895 0.228428
-0.052455 0.245994 0.198916
-0.541681 0.276334 0.228428
-0.189651 0.250931 0.228428
0.090211 0.385904 0.20784
0.25675 0.285701 0.198916
0.011522 0.174793 0.228428
-0.49925 0.193832 0.228428
0.135823 0.286688 0.228428
-0.18338 0.385905 0.216725
0.652677 0.290488 0.228428
0.303133 0.143504 0.198916
0.731637 0.339532 0.198916
-0.755609 0.312733 0.228428
-0.35795 0.303719 0.228428
0.458345 0.113315 0.198916
-0.718339 0.176179 0.198916
0.685442 0.185664 0.198916
-0.065168 0.384806 0.198916
0.439252 0.28781 0.198916
0.546299 0.278518 0.228428
0.534986 0.155288 0.198916
0.10307 0.157393 0.198916
-0.61661 0.292143 0.198916
-0.627525 0.07111 0.203722
0.571187 0.370833 0.198916
0.216945 0.098952 0.198916
-0.219663 0.320035 0.198916
-0.290302 0.074541 0.198916
-0.117185 0.227726 0.228428
-0.653155 0.161823 0.228428
-0.472634 0.385905 0.202161
0.59806 0.153408 0.228428
-0.374988 0.110527 0.198916
0.591216 0.07111 0.20677
0.261952 0.193922 0.228428
0.071372 0.322831 0.228428
0.405574 0.221431 0.228428
-0.43229 0.072062 0.198916
0.25137 0.348331 0.228428
-0.323402 0.160631 0.198916
-0.768895 0.143632 0.228428
0.101895 0.215572 0.228428
-0.215306 0.07111 0.216458
-0.708618 0.385905 0.226768
0.459612 0.385171 0.198916
0.327168 0.322517 0.228428
-0.588707 0.345932 0.228428
-0.169595 0.169017 0.228428
-0.302305 0.315497 0.198916
-0.472089 0.243769 0.198916
0.601105 0.313864 0.198916
-0.688662 0.320362 0.228428
0.703391 0.07111 0.201909
-0.081538 0.081605 0.198916
0.134515 0.102365 0.198916
0.698508 0.261297 0.198916
0.205076 0.299982 0.228428
-0.12341 0.384732 0.228428
0.35879 0.118509 0.198916
0.537311 0.225968 0.198916
-0.748637 0.245188 0.198916
-0.433197 0.182318 0.228428
-0.172246 0.117422 0.198916
0.499433 0.07111 0.220055
-0.517123 0.330825 0.228428
-0.594138 0.136612 0.198916
-0.749511 0.096618 0.198916
0.703755 0.385904 0.227236
-0.373764 0.165701 0.228428
-0.047741 0.188201 0.198916
0.482663 0.161409 0.228428
0.762619 0.385904 0.212118
-0.348038 0.22829 0.228428
-0.063506 0.299694 0.228428
-0.612467 0.238328 0.228428
0.500587 0.295687 0.198916
-0.485344 0.14486 0.198916
0.009589 0.235216 0.228428
0.159092 0.170721 0.228428
-0.243452 0.213824 0.228428
0.651918 0.219642 0.228428
0.422028 0.07111 0.203629
0.265373 0.07111 0.199456
-0.328962 0.376367 0.228428
-0.147249 0.280514 0.198916
0.133011 0.35336 0.228428
0.282135 0.244643 0.228428
-0.407014 0.326897 0.228428
-0.551729 0.220523 0.228428
-0.251936 0.277227 0.198916
0.257514 0.140736 0.228428
0.356419 0.183594 0.228428
0.202034 0.153831 0.198916
0.062046 0.130413 0.228428
0.355478 0.378841 0.228428
0.48099 0.25196 0.228428
0.450084 0.333771 0.228428
-0.560002 0.163772 0.228428
-0.55964 0.3151 0.198916
0.692481 0.323193 0.228428
0.172066 0.07111 0.218309
-0.260716 0.32617 0.228428
0.037817 0.385904 0.200119
0.59941 0.261767 0.228428
0.062137 0.202784 0.198916
-0.676264 0.203693 0.198916
0.399118 0.281219 0.228428
0.086277 0.07111 0.199499
0.437293 0.172739 0.198916
0.700137 0.12185 0.198916
-0.27928 0.154013 0.228428
0.723167 0.171639 0.228428
0.189872 0.245714 0.228428
-0.225949 0.363216 0.228428
-0.169229 0.313718 0.228428
0.649329 0.169166 0.228428
-0.352291 0.342996 0.198916
-0.743945 0.365413 0.198916
0.554229 0.327017 0.228428
0.151799 0.210205 0.198916
-0.332032 0.274573 0.198916
0.555455 0.188411 0.228428
-0.084226 0.165116 0.228428
-0.607498 0.385905 0.208435
0.541462 0.082302 0.198916
0.508957 0.383582 0.198916
-0.100352 0.269064 0.198916
-0.650464 0.123753 0.198916
0.576406 0.116341 0.198916
-0.274448 0.191595 0.198916
0.641607 0.337085 0.228428
-0.439948 0.361616 0.228428
0.299131 0.105228 0.228428
0.245853 0.385904 0.200073
-0.328064 0.110591 0.198916
0.341792 0.289159 0.198916
-0.093383 0.343513 0.198916
-0.573511 0.25895 0.198916
-0.053743 0.136837 0.198916
0.096419 0.296803 0.198916
0.401447 0.169384 0.228428
-0.112677 0.190773 0.198916
0.1071 0.250885 0.198916
-0.719746 0.28131 0.198916
0.031281 0.112625 0.198916
-0.647405 0.243812 0.198916
-0.468751 0.099879 0.198916
-0.393299 0.258905 0.228428
-0.517669 0.224471 0.198916
0.157711 0.260321 0.198916
-0.022553 0.266748 0.228428
0.198268 0.339158 0.198916
0.736826 0.202278 0.198916
0.501971 0.114852 0.228428
-0.713378 0.143132 0.228428
0.6677 0.072837 0.228428
-0.16442 0.346173 0.198916
0.283895 0.314295 0.228428
0.432011 0.137745 0.228428
0.502742 0.200425 0.228428
-0.321074 0.211153 0.198916
-0.516021 0.136016 0.228428
-0.642113 0.206864 0.228428
-0.438533 0.151231 0.198916
-0.163787 0.216339 0.228428
-0.761507 0.177438 0.198916
-0.503517 0.256186 0.228428
-0.022227 0.380933 0.198916
-0.166849 0.074746 0.198916
0.604144 0.358075 0.228428
0.630237 0.259724 0.198916
0.368466 0.231075 0.198916
-0.646475 0.325811 0.228428
0.708355 0.221198 0.228428
-0.431421 0.29239 0.228428
-0.71621 0.07111 0.202488
0.471141 0.294094 0.228428
-0.495692 0.351428 0.198916
-0.123787 0.103603 0.198916
0.053484 0.158191 0.198916
-0.285581 0.115601 0.198916
0.086176 0.112304 0.198916
0.333075 0.131091 0.228428
0.185047 0.130995 0.228428
-0.192221 0.186094 0.198916
0.236563 0.22599 0.228428
-0.017698 0.224436 0.198916
0.346183 0.07111 0.198995
0.081949 0.176086 0.228428
-0.470412 0.182853 0.198916
0.556508 0.136174 0.228428
0.721351 0.277521 0.228428
-0.039431 0.07111 0.205645
-0.226329 0.235773 0.198916
-0.631932 0.181034 0.198916
-0.215769 0.107617 0.198916
-0.360639 0.199478 0.198916
-0.515017 0.282635 0.198916
0.536423 0.350613 0.198916
0.711855 0.303949 0.198916
0.058277 0.284969 0.228428
-0.640087 0.278752 0.228428
0.435023 0.24851 0.228428
-0.147961 0.128747 0.228428
0.572765 0.281866 0.198916
0.273056 0.11079 0.198916
0.085928 0.344988 0.198916
-0.198529 0.28655 0.198916
0.292148 0.181522 0.198916
0.018902 0.305565 0.228428
-0.569409 0.363667 0.198916
0.674004 0.122745 0.228428
0.124946 0.323861 0.198916
0.175854 0.326541 0.228428
0.659337 0.315317 0.198916
-0.059823 0.359822 0.228428
-0.292143 0.292156 0.228428
-0.697434 0.344235 0.198916
-0.551638 0.125411 0.198916
-0.700838 0.209292 0.228428
-0.594482 0.272723 0.228428
0.563117 0.094667 0.228428
-0.337801 0.085536 0.228428
-0.766592 0.355467 0.228428
0.438474 0.372345 0.228428
0.2416 0.089815 0.228428
-0.276301 0.34502 0.198916
0.474063 0.338177 0.198916
-0.724588 0.248294 0.228428
0.314222 0.22055 0.228428
-0.68435 0.295486 0.198916
-0.608315 0.181742 0.228428
0.48294 0.383471 0.228428
0.065788 0.231909 0.228428
-0.555143 0.07111 0.209257
-0.15021 0.192813 0.198916
-0.030513 0.13829 0.228428
-0.026127 0.196616 0.228428
0.449743 0.191999 0.228428
-0.475039 0.341676 0.228428
0.626903 0.35676 0.198916
0.15523 0.345563 0.198916
0.367023 0.340475 0.228428
-0.22138 0.385905 0.199272
-0.520186 0.185177 0.198916
-0.132223 0.244623 0.198916
0.559781 0.227985 0.228428
-0.474295 0.078123 0.228428
0.295225 0.262879 0.198916
0.137057 0.142602 0.198916
0.730227 0.316803 0.228428
-0.349223 0.120765 0.228428
0.304373 0.07111 0.215026
0.412281 0.101666 0.228428
0.265685 0.215929 0.198916
-0.206243 0.203461 0.228428
-0.600874 0.097126 0.198916
0.243155 0.327684 0.198916
-0.251506 0.07111 0.20925
0.015913 0.209291 0.198916
0.204327 0.278036 0.198916
-0.69173 0.139459 0.198916
-0.268542 0.242376 0.198916
0.673954 0.23415 0.198916
-0.69793 0.244495 0.198916
0.499481 0.146837 0.198916
0.576476 0.185065 0.198916
-0.09638 0.2322 0.198916
-0.552796 0.340525 0.228428
-0.607057 0.310927 0.228428
-0.190839 0.149973 0.198916
-0.732303 0.344216 0.228428
0.270096 0.359335 0.198916
0.037699 0.343274 0.228428
0.625292 0.131242 0.198916
0.6203 0.19042 0.228428
-0.458977 0.152595 0.228428
-0.720814 0.213161 0.198916
-0.304633 0.35008 0.228428
-0.372438 0.341013 0.228428
-0.477515 0.289322 0.198916
0.133838 0.19962 0.228428
-0.072436 0.248056 0.228428
-0.571957 0.130174 0.228428
-0.129114 0.351096 0.198916
0.763415 0.263786 0.198916
0.246886 0.302913 0.228428
0.318494 0.109324 0.198916
0.527506 0.376808 0.228428
-0.660721 0.385905 0.226629
0.602972 0.096583 0.228428
0.300399 0.163728 0.228428
0.616011 0.30115 0.228428
0.109621 0.311786 0.228428
0.130114 0.372623 0.198916
-0.248901 0.13603 0.228428
0.322602 0.286521 0.228428
0.360789 0.292502 0.228428
0.221141 0.15545 0.228428
-0.321315 0.179678 0.228428
0.682263 0.356845 0.228428
0.421589 0.122023 0.198916
0.425078 0.304731 0.228428
0.365183 0.145054 0.228428
0.225637 0.383551 0.228428
-0.199954 0.34005 0.228428
0.290284 0.365002 0.228428
-0.183491 0.133207 0.228428
-0.573339 0.381533 0.228428
-0.202922 0.305385 0.228428
0.512795 0.313208 0.228428
0.119002 0.083842 0.228428
-0.469943 0.225758 0.228428
-0.628763 0.329287 0.198916
-0.615041 0.128175 0.228428
-0.397846 0.200837 0.228428
0.12412 0.245348 0.228428
0.16767 0.111811 0.198916
0.34078 0.368791 0.198916
0.621297 0.092212 0.198916
0.492869 0.238862 0.198916
0.309618 0.320699 0.198916
0.533046 0.115607 0.198916
-0.138946 0.094737 0.228428
0.167181 0.218533 0.228428
0.688033 0.284563 0.228428
-0.358351 0.269674 0.228428
-0.133839 0.192657 0.228428
0.24195 0.145559 0.198916
0.43234 0.221718 0.198916
0.372667 0.323878 0.198916
0.656042 0.204145 0.198916
-0.438983 0.086524 0.228428
-0.624348 0.213673 0.198916
-0.081943 0.38495 0.228428
-0.250483 0.170987 0.228428
0.73767 0.083881 0.228428
-0.403893 0.303617 0.198916
0.762979 0.180625 0.198916
-0.113829 0.350813 0.228428
-0.203097 0.160017 0.228428
-0.232443 0.249644 0.228428
-0.154053 0.357221 0.228428
-0.325151 0.288859 0.228428
0.370323 0.216334 0.228428
0.611967 0.385904 0.21252
0.440847 0.354166 0.198916
0.180064 0.277211 0.228428
-0.52977 0.088834 0.228428
-0.327354 0.146586 0.228428
0.097995 0.353112 0.228428
-0.070317 0.320073 0.198916
0.345679 0.19306 0.198916
0.449938 0.256814 0.198916
-0.758558 0.128104 0.198916
-0.596292 0.332796 0.198916
0.589879 0.212589 0.228428
-0.134315 0.07111 0.206381
-0.513438 0.315204 0.198916
-0.102409 0.118681 0.228428
-0.357279 0.377119 0.198916
-0.598985 0.238459 0.198916
-0.303067 0.24918 0.198916
-0.287451 0.194945 0.228428
0.096912 0.203399 0.198916
-0.619901 0.354095 0.228428
-0.665967 0.160396 0.198916
0.733122 0.163469 0.198916
0.675906 0.382266 0.198916
0.053115 0.371478 0.228428
0.057904 0.086167 0.198916
0.634999 0.099064 0.228428
-0.057499 0.102902 0.198916
-0.126621 0.307537 0.198916
0.56927 0.216542 0.198916
-0.451207 0.270985 0.198916
0.738895 0.125309 0.198916
0.467837 0.15096 0.198916
-0.752938 0.385905 0.221639
0.377623 0.257679 0.228428
-0.100363 0.07111 0.227557
0.243876 0.256979 0.228428
0.181067 0.181966 0.198916
0.511886 0.259337 0.228428
-0.553211 0.208909 0.198916
0.132098 0.153199 0.228428
-0.16303 0.252028 0.198916
-0.767908 0.07111 0.202137
0.678305 0.156527 0.228428
-0.345878 0.07764 0.198916
0.736096 0.380929 0.228428
-0.750929 0.302686 0.198916
-0.570887 0.165573 0.198916
0.015704 0.085185 0.198916
0.667893 0.246739 0.228428
-0.314899 0.346634 0.198916
-0.52869 0.377225 0.198916
-0.542141 0.258581 0.198916
-0.236272 0.205999 0.198916
0.578017 0.290995 0.228428
0.388031 0.129737 0.198916
-0.647717 0.288613 0.198916
0.207525 0.334373 0.228428
-0.493738 0.204353 0.198916
0.347517 0.255268 0.198916
-0.547605 0.306943 0.228428
0.484198 0.088167 0.198916
0.51372 0.161986 0.228428
0.481932 0.180501 0.198916
-0.418488 0.241741 0.198916
-0.463484 0.189117 0.228428
-0.661951 0.082546 0.198916
-0.058621 0.350708 0.198916
-0.659611 0.328308 0.198916
0.202109 0.198142 0.228428
0.218894 0.113287 0.228428
0.129579 0.383969 0.228428
0.460706 0.12534 0.228428
-0.510454 0.360778 0.228428
0.332232 0.1532 0.198916
-0.25943 0.356802 0.228428
0.565744 0.364619 0.228428
-0.761206 0.185628 0.228428
-0.733735 0.29137 0.228428
-0.191108 0.331258 0.198916
0.146269 0.171708 0.198916
-0.080265 0.158474 0.198916
-0.400273 0.296995 0.228428
-0.361181 0.262773 0.198916
0.154504 0.247106 0.228428
-0.430848 0.211409 0.198916
0.36722 0.152171 0.198916
-0.153747 0.278127 0.228428
-0.680909 0.289702 0.228428
0.136267 0.10883 0.228428
0.391726 0.382431 0.228428
0.710184 0.136857 0.228428
-0.320049 0.324065 0.228428
0.462197 0.228291 0.228428
0.051774 0.284789 0.198916
-0.436916 0.322553 0.228428
-0.653297 0.241186 0.228428
0.72571 0.248202 0.198916
0.198878 0.080512 0.228428
0.124022 0.275809 0.198916
0.455328 0.07534 0.198916
-0.387182 0.185287 0.198916
-0.425765 0.148133 0.228428
-0.017798 0.104746 0.228428
0.703688 0.222057 0.198916
0.014368 0.13989 0.228428
-0.521976 0.22397 0.228428
0.611448 0.12513 0.228428
0.033664 0.323384 0.198916
0.22884 0.197312 0.198916
-0.298996 0.377701 0.198916
0.174138 0.14082 0.198916
0.033619 0.11517 0.228428
-0.443476 0.352305 0.198916
0.6204 0.287684 0.198916
-0.005903 0.385905 0.223038
0.323835 0.385904 0.219546
-0.035346 0.30846 0.228428
-0.415861 0.170051 0.198916
-0.461675 0.07111 0.199302
-0.094744 0.385905 0.201992
0.533926 0.208394 0.228428
-0.01796 0.164807 0.228428
-0.475425 0.371003 0.228428
-0.266217 0.278457 0.228428
-0.702487 0.379275 0.198916
0.329484 0.194891 0.228428
0.636573 0.142944 0.228428
-0.579906 0.213166 0.228428
-0.074413 0.199868 0.198916
0.528101 0.130013 0.228428
0.375383 0.295094 0.198916
-0.260035 0.304966 0.198916
0.647283 0.079005 0.198916
-0.383437 0.083075 0.198916
-0.261376 0.248087 0.228428
0.034973 0.22184 0.228428
0.514634 0.208458 0.198916
0.127912 0.074509 0.198916
0.500062 0.326237 0.198916
0.540759 0.07111 0.227099
-0.090113 0.218681 0.228428
-0.225321 0.267082 0.198916
0.611175 0.231493 0.228428
0.429137 0.325299 0.198916
-0.023376 0.238353 0.228428
-0.356799 0.201273 0.228428
0.631838 0.364126 0.228428
0.24366 0.26056 0.198916
-0.369781 0.312099 0.198916
-0.461686 0.217427 0.198916
0.723705 0.090554 0.198916
0.005958 0.263257 0.228428
0.067141 0.372332 0.198916
0.222978 0.308091 0.198916
-0.452051 0.122482 0.198916
-0.205615 0.274031 0.228428
0.056825 0.188541 0.228428
0.583239 0.116417 0.228428
0.167942 0.234285 0.198916
-0.444851 0.385905 0.205416
0.500733 0.265663 0.198916
0.108848 0.169015 0.228428
0.008773 0.370512 0.198916
0.073089 0.261517 0.228428
0.581045 0.341519 0.228428
-0.326402 0.371639 0.198916
0.705308 0.347484 0.198916
0.541146 0.162598 0.228428
0.252739 0.379484 0.228428
-0.485859 0.157846 0.228428
-0.364275 0.07855 0.228428
-0.492275 0.319324 0.228428
-0.104477 0.146843 0.228428
0.433245 0.072728 0.228428
0.085679 0.149191 0.228428
-0.502902 0.09213 0.228428
-0.047485 0.272534 0.198916
-0.032835 0.385905 0.223307
-0.550098 0.340274 0.198916
-0.269201 0.087962 0.228428
0.706519 0.166509 0.198916
0.748527 0.163149 0.228428
-0.278341 0.281276 0.198916
-0.056333 0.27397 0.228428
-0.74 0.14135 0.228428
-0.059404 0.15548 0.228428
0.246508 0.108847 0.198916
-0.555123 0.385905 0.200463
-0.559942 0.100309 0.198916
0.230505 0.180093 0.228428
-0.502378 0.377009 0.198916
-0.626936 0.13545 0.198916
0.7241 0.280763 0.198916
-0.539646 0.197271 0.228428
0.6461 0.282754 0.198916
-0.085063 0.270962 0.228428
-0.706294 0.346019 0.228428
-0.080098 0.343481 0.228428
0.578371 0.176094 0.228428
0.426981 0.347541 0.228428
-0.49769 0.12202 0.198916
0.44863 0.196817 0.198916
0.59225 0.164558 0.198916
0.128157 0.235858 0.198916
-0.101517 0.248203 0.228428
0.551387 0.197973 0.198916
0.694164 0.074124 0.228428
0.26658 0.179311 0.198916
0.49294 0.355559 0.198916
0.325085 0.156858 0.228428
0.67209 0.307975 0.228428
-0.691248 0.07442 0.198916
0.401074 0.247868 0.228428
0.669247 0.335018 0.228428
0.654731 0.365871 0.198916
0.104232 0.381149 0.228428
0.680629 0.08182 0.198916
0.735894 0.214195 0.228428
-0.366455 0.245671 0.228428
-0.075339 0.123638 0.198916
0.595901 0.245751 0.198916
-0.161522 0.385905 0.20412
-0.304286 0.290345 0.198916
0.39982 0.306362 0.228428
0.223374 0.167011 0.198916
-0.262389 0.194422 0.228428
0.155897 0.285299 0.198916
0.574391 0.262522 0.228428
-0.292715 0.219397 0.228428
-0.673369 0.108368 0.228428
0.099423 0.240419 0.228428
0.141084 0.223495 0.228428
0.259673 0.324842 0.228428
-0.270098 0.217522 0.198916
0.740777 0.228404 0.198916
0.072277 0.132867 0.198916
0.329102 0.336055 0.198916
-0.685058 0.265664 0.198916
0.195346 0.385904 0.21216
-0.698167 0.192417 0.198916
-0.635033 0.106422 0.228428
-0.545328 0.252086 0.228428
-0.309182 0.261159 0.228428
-0.412843 0.332221 0.198916
-0.179406 0.365452 0.198916
-0.16725 0.082192 0.228428
0.548827 0.277186 0.198916
0.59257 0.336668 0.198916
-0.300938 0.170003 0.198916
-0.397007 0.1729 0.228428
0.183006 0.358094 0.198916
0.304289 0.254574 0.228428
-0.178189 0.354945 0.228428
-0.381251 0.218504 0.228428
0.391058 0.156488 0.198916
-0.63122 0.307087 0.228428
0.471218 0.322111 0.228428
-0.021437 0.248809 0.198916
0.123465 0.349572 0.198916
0.176283 0.302577 0.228428
-0.206385 0.249064 0.198916
-0.341677 0.321549 0.198916
-0.658028 0.296704 0.228428
0.522912 0.29153 0.228428
-0.372578 0.364838 0.228428
0.065588 0.178659 0.198916
-0.259838 0.301321 0.228428
0.492809 0.136716 0.228428
-0.106367 0.363173 0.198916
0.069626 0.234261 0.198916
-0.076824 0.268651 0.198916
-0.545943 0.295969 0.198916
0.216041 0.354573 0.198916
0.148561 0.136409 0.228428
-0.014842 0.07111 0.207328
-0.302714 0.155202 0.228428
-0.719352 0.194995 0.228428
0.374195 0.166637 0.228428
0.030769 0.07111 0.20993
-0.382401 0.139804 0.228428
0.542575 0.359019 0.228428
-0.677649 0.120877 0.198916
-0.690329 0.371589 0.228428
0.178124 0.212721 0.198916
0.079339 0.199213 0.228428
-0.600455 0.308861 0.198916
0.091696 0.268291 0.198916
0.697417 0.097881 0.198916
0.035566 0.385904 0.223576
-0.438087 0.176807 0.198916
-0.498143 0.121272 0.228428
0.387935 0.34128 0.198916
-0.604449 0.07111 0.205313
-0.657523 0.189635 0.228428
0.645133 0.314265 0.228428
0.715823 0.138772 0.198916
-0.550206 0.155423 0.198916
-0.112952 0.331359 0.198916
-0.23771 0.18307 0.198916
0.616761 0.07111 0.206756
0.601328 0.318753 0.228428
0.345669 0.229374 0.198916
-0.476274 0.266542 0.198916
0.221076 0.07111 0.21546
-0.293382 0.330288 0.228428
-0.66254 0.385905 0.199521
-0.491231 0.329152 0.198916
-0.624737 0.37467 0.198916
0.442582 0.093381 0.228428
0.823869 -0.439404 0.209864
0.823869 0.313935 0.207084
0.764845 0.449833 0.22831
0.823869 0.1851 0.22245
0.784446 -0.371691 0.198916
0.823869 0.403712 0.227914
0.764845 0.055517 0.205324
0.823869 -0.514955 0.202881
0.823712 0.010958 0.198916
0.764845 0.144 0.200961
0.774371 -0.311131 0.198916
0.764845 -0.429605 0.221145
0.807394 0.243769 0.228428
0.823869 0.096849 0.200189
0.764845 0.297023 0.211702
0.79862 0.494278 0.228428
0.764845 0.001368 0.20358
0.823869 -0.342189 0.201864
0.771134 0.193669 0.228428
0.819002 -0.29379 0.198916
0.771974 0.532158 0.198916
0.822982 -0.172349 0.228428
0.800643 0.4447 0.198916
0.772706 -0.489928 0.198916
0.764845 -0.15146 0.206109
0.823869 0.361121 0.215088
0.771534 0.337147 0.228428
0.764845 -0.192663 0.217168
0.823869 -0.023265 0.22198
0.768349 -0.045107 0.198916
0.786933 -0.344021 0.228428
0.818782 0.12425 0.228428
0.820179 -0.476241 0.198916
0.823869 -0.129191 0.225131
0.791577 0.089687 0.228428
0.798443 0.038039 0.198916
0.776764 0.029288 0.228428
0.78173 -0.019626 0.228428
0.818857 0.261917 0.198916
0.786548 0.153773 0.228428
0.779827 0.478971 0.198916
0.820516 0.439865 0.228428
0.764845 -0.278091 0.20598
0.804604 0.406974 0.198916
0.801323 -0.312293 0.228428
0.823869 -0.387715 0.221038
0.823869 0.468585 0.211283
0.823869 0.059861 0.201356
0.771118 0.415131 0.198916
0.764845 0.491353 0.225592
0.823869 -0.23808 0.212051
0.823869 0.509656 0.214768
0.813919 -0.08501 0.198916
0.79146 -0.206574 0.228428
0.820745 -0.074935 0.228428
0.767263 0.357347 0.198916
0.779984 0.258568 0.228428
0.820708 0.150251 0.198916
0.785916 -0.480747 0.228428
0.80225 0.314164 0.228428
0.797313 -0.094596 0.228428
0.764845 -0.238811 0.200319
0.787233 0.380589 0.228428
0.823869 -0.262473 0.228393
0.817097 0.271196 0.228428
0.764845 -0.404281 0.206959
0.810341 0.3416 0.198916
0.764845 -0.350799 0.198958
0.82071 -0.118226 0.198916
0.790026 -0.254011 0.198916
0.823869 0.38598 0.202458
0.782995 -0.068752 0.198916
0.790366 0.053286 0.228428
0.823869 -0.179807 0.20212
0.791354 0.467931 0.228428
0.764845 0.127484 0.222702
0.823869 -0.31698 0.214127
0.764845 0.082262 0.20971
0.816072 0.337194 0.228428
0.783056 -0.249667 0.228428
0.800372 -0.417708 0.198916
0.821155 -0.048622 0.228428
0.79884 -0.349612 0.198916
0.823869 -0.413728 0.223274
0.815601 0.287592 0.198916
0.78874 0.38664 0.198916
0.764845 -0.295174 0.226163
0.772181 0.403172 0.228428
0.800178 -0.311036 0.198916
0.821625 -0.013994 0.198916
0.823631 -0.15291 0.198916
0.764845 0.207667 0.209506
0.765558 0.233917 0.198916
0.823869 0.120708 0.202164
0.819216 -0.457537 0.228428
0.823869 0.208799 0.223307
0.823869 0.240116 0.205881
0.764845 0.324546 0.20998
0.800193 0.365084 0.198916
0.796053 0.258814 0.198916
0.806046 0.418183 0.228428
0.768214 0.437897 0.198916
0.805596 -0.24189 0.228428
0.774178 0.280562 0.228428
0.802388 0.107835 0.198916
-0.793833 0.219229 0.228428
-0.828802 0.477088 0.224268
-0.819272 0.111085 0.198916
-0.777938 0.404514 0.228428
-0.769778 -0.169292 0.200232
-0.828802 0.298659 0.217888
-0.769778 0.493749 0.209955
-0.828802 0.174819 0.202366
-0.828802 0.391576 0.207379
-0.778351 -0.429077 0.198916
-0.828802 0.526007 0.201027
-0.828802 -0.28918 0.201385
-0.828802 0.040164 0.213153
-0.818823 0.350685 0.228428
-0.823256 0.254456 0.228428
-0.828802 -0.496864 0.203551
-0.788733 0.530894 0.228428
-0.828802 0.432321 0.222195
-0.775548 0.447172 0.228428
-0.792623 0.32801 0.198916
-0.779865 0.276256 0.228428
-0.777613 0.378623 0.198916
-0.773448 -0.499864 0.198916
-0.775088 0.210373 0.198916
-0.828802 0.231854 0.202713
-0.797518 -0.337879 0.198916
-0.828802 0.335424 0.199336
-0.789256 -0.267945 0.198916
-0.81415 0.192366 0.228428
-0.820551 0.456789 0.198916
-0.774945 -0.392432 0.198916
-0.813149 0.510091 0.228428
-0.808473 -0.176321 0.198916
-0.828802 0.085382 0.214074
-0.785725 0.521305 0.198916
-0.794688 0.473747 0.198916
-0.797017 0.156278 0.228428
-0.789387 0.337391 0.228428
-0.778794 0.243836 0.228428
-0.792948 0.186336 0.198916
-0.816849 -0.261936 0.198916
-0.769778 0.42447 0.206364
-0.815087 0.149497 0.198916
-0.828802 0.204054 0.207959
-0.814001 -0.452523 0.198916
-0.817956 0.377965 0.228428
-0.80015 0.419531 0.228428
-0.785322 0.30246 0.228428
-0.769778 -0.205571 0.203019
-0.804158 0.38626 0.198916
-0.783351 0.110175 0.198916
-0.781684 0.04559 0.198916
-0.828728 0.281147 0.198916
-0.786667 -0.477943 0.198916
-0.769778 0.466948 0.213357
-0.813802 -0.201266 0.198916
-0.810815 -0.316316 0.198916
-0.790042 -0.241512 0.198916
-0.777083 -0.321022 0.198916
-0.819148 0.431916 0.198916
-0.823887 0.133148 0.228428
-0.770095 0.336657 0.198916
-0.769778 0.240119 0.205879
-0.792096 -0.135254 -0.243763
-0.828802 0.355281 -0.243733
-0.828802 -0.325165 -0.242202
-0.802233 0.174268 -0.243763
-0.828802 0.526634 -0.240685
-0.71591 -0.290729 -0.243763
-0.73985 0.087431 -0.243763
-0.827781 -0.464121 -0.224089
-0.745774 0.509177 -0.224089
-0.814312 -0.054735 -0.243763
-0.800637 -0.537418 -0.243763
-0.828352 0.107504 -0.224089
-0.828802 -0.232793 -0.240132
-0.79256 -0.395492 -0.243763
-0.759484 0.231575 -0.243763
-0.741685 0.295687 -0.243763
-0.772736 -0.262781 -0.224089
-0.828802 0.230336 -0.2314
-0.826049 0.469144 -0.224089
-0.746129 -0.519237 -0.224089
-0.772103 0.460936 -0.243763
-0.755717 0.39981 -0.243763
-0.828802 0.29713 -0.235057
-0.817405 0.408437 -0.243763
-0.714963 -0.055909 -0.243763
-0.750577 0.141875 -0.243763
-0.750909 0.036335 -0.243763
-0.82849 -0.170002 -0.243763
-0.711421 0.378185 -0.243763
-0.784451 -0.443623 -0.243763
-0.77881 -0.306406 -0.243763
-0.784979 -0.214974 -0.243763
-0.724393 -0.482495 -0.243763
-0.816849 -0.27788 -0.243763
-0.725538 0.472342 -0.243763
-0.715161 0.203515 -0.243763
-0.766787 -0.170993 -0.224089
-0.828802 -0.421055 -0.233658
-0.81628 -0.364075 -0.224089
-0.827904 0.048339 -0.243763
-0.746813 -0.344908 -0.243763
-0.800692 -0.500874 -0.224089
-0.819519 0.566575 -0.243763
-0.770788 -0.092644 -0.243763
-0.794263 0.096148 -0.243763
-0.724342 -0.095508 -0.243763
-0.828802 -0.008142 -0.230345
-0.717992 0.338334 -0.243763
-0.80255 0.268747 -0.243763
-0.82781 -0.119838 -0.243763
-0.760469 -0.041492 -0.243763
-0.743209 -0.401787 -0.243763
-0.786491 -0.345449 -0.243763
-0.712529 -0.328395 -0.243763
-0.730939 0.571161 -0.243763
-0.7473 -0.244464 -0.243763
-0.747491 -0.142019 -0.243763
-0.727092 0.262027 -0.243763
-0.715368 0.057766 -0.243763
-0.764685 0.532715 -0.243763
-0.71221 0.233212 -0.224089
-0.7962 0.1415 -0.224089
-0.754157 0.176985 -0.243763
-0.722064 -0.168264 -0.243763
-0.826585 -0.512648 -0.243763
-0.719591 0.005249 -0.243763
-0.795986 0.485748 -0.243763
-0.743916 -0.310888 -0.243763
-0.710754 -0.395394 -0.226528
-0.777959 -0.371352 -0.224089
-0.790531 -0.067815 -0.224089
-0.802656 -0.474001 -0.243763
-0.767594 0.290325 -0.224089
-0.819499 0.443608 -0.243763
-0.710754 -0.248508 -0.242095
-0.782254 0.429991 -0.243763
-0.821963 0.073231 -0.224089
-0.715007 0.097572 -0.224089
-0.76073 -0.464721 -0.243763
-0.710754 0.173514 -0.23541
-0.710754 -0.433445 -0.23681
-0.823022 -0.389315 -0.243763
-0.793433 0.0028 -0.243763
-0.803112 -0.184774 -0.224089
-0.816773 0.333285 -0.224089
-0.820616 0.50246 -0.224089
-0.72371 -0.373948 -0.243763
-0.807288 -0.442563 -0.224089
-0.826099 0.377408 -0.224089
-0.77009 0.366585 -0.243763
-0.744283 0.436013 -0.224089
-0.828802 -0.090657 -0.242993
-0.727334 0.406168 -0.243763
-0.724294 -0.125099 -0.243763
-0.768912 -0.491512 -0.224089
-0.745328 -0.186827 -0.243763
-0.784407 0.512126 -0.243763
-0.763478 -0.541694 -0.224089
-0.7227 -0.229469 -0.224089
-0.712609 -0.509954 -0.224089
-0.780191 -0.242617 -0.243763
-0.797703 -0.099849 -0.243763
-0.759265 0.31711 -0.243763
-0.741953 0.115689 -0.243763
-0.806158 -0.021633 -0.243763
-0.785069 0.218021 -0.243763
-0.770251 0.084984 -0.224089
-0.790854 -0.326908 -0.224089
-0.827048 0.273295 -0.224089
-0.715055 0.445776 -0.243763
-0.76473 -0.422984 -0.243763
-0.778457 -0.280233 -0.243763
-0.726911 -0.30812 -0.224089
-0.732554 -0.077418 -0.224089
-0.73956 0.526628 -0.243763
-0.766009 -0.000152 -0.224089
-0.753591 0.25665 -0.243763
-0.81646 0.427292 -0.224089
-0.814601 -0.148338 -0.243763
-0.73416 0.237432 -0.243763
-0.730391 -0.269648 -0.243763
-0.80769 -0.310891 -0.243763
-0.744828 0.062623 -0.243763
-0.751619 -0.111671 -0.224089
-0.726686 -0.334611 -0.224089
-0.77991 0.256922 -0.243763
-0.819669 0.249868 -0.243763
-0.785984 0.192965 -0.243763
-0.731099 -0.410341 -0.224089
-0.735923 0.128993 -0.224089
-0.710754 -0.189724 -0.241564
-0.811823 0.378215 -0.243763
-0.737073 -0.053049 -0.224089
-0.780606 -0.045808 -0.224089
-0.726349 0.145678 -0.243763
-0.741504 0.309617 -0.224089
-0.801106 -0.145628 -0.224089
-0.743452 -0.464101 -0.224089
-0.785147 0.538508 -0.224089
-0.796847 0.450819 -0.243763
-0.828802 -0.529099 -0.226786
-0.749716 0.556659 -0.243763
-0.762954 0.502086 -0.243763
-0.761311 -0.215457 -0.243763
-0.75818 -0.228811 -0.224089
-0.828802 -0.193143 -0.240199
-0.745096 0.103509 -0.224089
-0.745929 0.229132 -0.224089
-0.770157 0.473991 -0.224089
-0.779101 -0.064029 -0.243763
-0.767996 0.126779 -0.243763
-0.736596 -0.447652 -0.243763
-0.812931 -0.073101 -0.224089
-0.720268 0.385953 -0.224089
-0.7982 -0.425318 -0.243763
-0.786105 0.11896 -0.224089
-0.813487 -0.396066 -0.224089
-0.787614 -0.518636 -0.243763
-0.828802 0.013456 -0.237745
-0.828802 -0.261297 -0.233686
-0.750905 -0.380415 -0.243763
0.309703 0.098899 -0.243763
0.292031 -0.116915 -0.243763
0.306554 -0.257033 -0.224089
0.296923 -0.438704 -0.243763
0.220213 0.374907 -0.224089
0.224379 0.169074 -0.243763
0.296659 -0.012922 -0.224089
0.228175 -0.201407 -0.243763
0.208837 -0.084986 -0.243763
0.239086 -0.502379 -0.243763
0.203987 0.299708 -0.243763
0.274991 0.548552 -0.224089
0.290782 0.389147 -0.243763
0.238711 0.045097 -0.243763
0.235359 0.429016 -0.243763
0.296965 -0.310321 -0.243763
0.234517 0.506737 -0.224089
0.241572 -0.027077 -0.224089
0.198731 -0.155605 -0.243763
0.293801 0.047801 -0.243763
0.240977 0.099276 -0.243763
0.207171 -0.330397 -0.243763
0.306217 0.238862 -0.243763
0.287092 -0.518245 -0.243763
0.309707 -0.068252 -0.243763
0.249266 0.214948 -0.243763
0.226984 0.257071 -0.243763
0.278873 0.158001 -0.243763
0.198374 -0.468694 -0.243763
0.312328 -0.156808 -0.242381
0.263616 -0.220308 -0.224089
0.21639 0.542578 -0.243763
0.264665 -0.149956 -0.243763
0.198018 0.07444 -0.243763
0.20293 -0.013939 -0.243763
0.310646 0.544616 -0.243763
0.293779 0.497485 -0.243763
0.210686 -0.522203 -0.224089
0.196421 0.197331 -0.243763
0.274992 0.428394 -0.243763
0.312328 0.297399 -0.242675
0.19428 0.237339 -0.238572
0.253945 -0.090737 -0.243763
0.30655 0.138142 -0.224089
0.306946 0.460295 -0.243763
0.312328 -0.489582 -0.239963
0.258161 -0.540938 -0.243763
0.276995 0.355093 -0.243763
0.312328 -0.208359 -0.239479
0.273463 -0.249907 -0.243763
0.194976 0.338721 -0.224089
0.19428 0.399159 -0.227721
0.265537 -0.419875 -0.243763
0.266315 0.02171 -0.243763
0.214895 -0.243652 -0.243763
0.278133 -0.36649 -0.243763
0.279851 -0.049808 -0.243763
0.271491 0.248877 -0.243763
0.302649 -0.338859 -0.224089
0.289749 0.206886 -0.243763
0.19428 -0.283331 -0.235559
0.280864 -0.196043 -0.243763
0.208129 0.499302 -0.243763
0.200848 0.040988 -0.243763
0.303345 0.015626 -0.243763
0.213572 -0.044903 -0.243763
0.280755 0.114818 -0.224089
0.260982 0.185012 -0.243763
0.250142 0.552171 -0.243763
0.258467 0.319784 -0.243763
0.236015 -0.471035 -0.243763
0.247528 -0.176269 -0.243763
0.267614 0.377178 -0.224089
0.218737 -0.448621 -0.224089
0.266541 -0.110926 -0.224089
0.259986 -0.513617 -0.224089
0.206781 -0.364768 -0.243763
0.209549 0.142615 -0.243763
0.250352 -0.320018 -0.243763
0.25189 -0.273005 -0.243763
0.222524 -0.111754 -0.243763
0.198358 -0.203964 -0.243763
0.242129 0.235353 -0.224089
0.215221 0.354312 -0.243763
0.274495 0.527589 -0.243763
0.229419 0.401144 -0.243763
0.267363 0.057884 -0.243763
0.256069 0.272555 -0.243763
0.277638 -0.005971 -0.243763
0.200645 0.480843 -0.224089
0.282587 0.179771 -0.224089
0.312328 0.358592 -0.231772
0.283241 -0.278717 -0.224089
0.299968 0.414484 -0.243763
0.246018 -0.155463 -0.224089
0.25254 -0.373724 -0.243763
0.256372 0.143939 -0.243763
0.247186 -0.227085 -0.243763
0.244243 0.190724 -0.224089
0.2162 -0.489393 -0.243763
0.26497 0.394208 -0.243763
0.312328 -0.121477 -0.228054
0.238956 0.490608 -0.243763
0.288891 0.441185 -0.224089
0.276036 -0.537053 -0.224089
0.312328 0.162128 -0.229783
0.23224 -0.012124 -0.243763
0.238612 -0.042612 -0.243763
0.280446 0.130347 -0.243763
0.312328 0.321909 -0.237567
0.19428 -0.035481 -0.231004
0.231669 0.155807 -0.224089
0.261423 0.465051 -0.243763
0.249751 0.537381 -0.224089
0.233653 -0.404656 -0.243763
0.206681 -0.430833 -0.243763
0.196981 -0.34975 -0.224089
0.227319 -0.283409 -0.243763
0.19428 -0.179977 -0.242191
0.25637 -0.204633 -0.243763
0.19479 0.325019 -0.243763
0.26711 0.035379 -0.224089
0.281118 -0.349365 -0.224089
0.211688 0.244948 -0.224089
0.262297 0.206214 -0.224089
0.199181 -0.528237 -0.243763
0.268447 0.567016 -0.243763
0.280621 -0.227585 -0.243763
0.278497 -0.09078 -0.224089
0.300449 0.481217 -0.224089
0.236211 0.34403 -0.243763
0.232857 -0.080692 -0.243763
0.253428 0.099555 -0.224089
0.27018 -0.298036 -0.243763
0.277886 -0.174353 -0.224089
0.312328 -0.231375 -0.241721
0.312328 -0.403687 -0.242686
0.205285 0.153786 -0.224089
0.237265 0.014953 -0.243763
0.309572 -0.191662 -0.224089
0.241369 -0.429484 -0.243763
0.289226 -0.455791 -0.224089
0.222094 0.060656 -0.243763
-0.251967 0.186888 -0.224089
-0.275715 0.502039 -0.243763
-0.202242 -0.50908 -0.243763
-0.316743 0.405717 -0.224089
-0.26188 -0.043775 -0.243763
-0.266358 0.287847 -0.243763
-0.308415 -0.480714 -0.243763
-0.234553 -0.18995 -0.243763
-0.230229 0.436084 -0.243763
-0.250598 -0.366429 -0.243763
-0.199213 0.52077 -0.236739
-0.291526 0.139849 -0.243763
-0.201374 0.299467 -0.243763
-0.286734 -0.264967 -0.243763
-0.208705 0.152147 -0.243763
-0.314112 -0.081046 -0.224089
-0.317261 0.463896 -0.230032
-0.199213 -0.348982 -0.227847
-0.310023 -0.537859 -0.224089
-0.20485 -0.451303 -0.243763
-0.257224 -0.421563 -0.243763
-0.255206 0.339058 -0.243763
-0.293126 -0.006771 -0.224089
-0.223657 -0.140722 -0.243763
-0.225464 -0.007993 -0.224089
-0.289428 0.234613 -0.243763
-0.317261 0.288586 -0.234988
-0.225591 -0.079374 -0.243763
-0.225039 0.479868 -0.224089
-0.202005 0.105337 -0.243763
-0.228487 -0.257303 -0.243763
-0.281019 -0.209017 -0.243763
-0.314048 0.36661 -0.243763
-0.317261 0.53852 -0.238967
-0.280723 -0.100653 -0.243763
-0.28405 0.426442 -0.243763
-0.216587 0.053513 -0.243763
-0.201884 0.206308 -0.243763
-0.229313 0.379731 -0.243763
-0.317261 0.210561 -0.22584
-0.317261 -0.233986 -0.243454
-0.301533 -0.04002 -0.243763
-0.210338 -0.221353 -0.243763
-0.312447 0.097181 -0.243763
-0.253652 0.081293 -0.243763
-0.255737 -0.29369 -0.243763
-0.254521 0.549255 -0.243763
-0.295109 -0.341692 -0.243763
-0.288027 0.187066 -0.243763
-0.280699 0.049518 -0.243763
-0.216919 -0.38264 -0.243763
-0.293855 -0.18054 -0.224089
-0.316944 -0.380068 -0.243763
-0.262634 0.118678 -0.243763
-0.199213 0.456001 -0.230847
-0.317261 -0.433712 -0.238585
-0.236102 -0.531256 -0.243763
-0.258358 -0.146539 -0.243763
-0.208797 -0.17653 -0.224089
-0.199213 -0.030109 -0.237332
-0.199213 -0.103687 -0.242395
-0.222846 0.328571 -0.243763
-0.309308 0.332926 -0.243763
-0.266245 0.161603 -0.243763
-0.235005 0.504817 -0.243763
-0.205599 -0.287761 -0.243763
-0.264764 0.45345 -0.243763
-0.262199 0.382141 -0.243763
-0.208673 -0.41872 -0.243763
-0.279227 0.52785 -0.224089
-0.259143 -0.248964 -0.243763
-0.200132 0.257446 -0.224089
-0.221093 0.274089 -0.243763
-0.225747 -0.045368 -0.243763
-0.259725 0.416694 -0.224089
-0.244624 0.250616 -0.243763
-0.285677 0.313138 -0.243763
-0.290204 -0.295542 -0.243763
-0.270729 -0.495403 -0.243763
-0.199213 -0.060397 -0.239921
-0.207005 0.184104 -0.224089
-0.199213 -0.250638 -0.243212
-0.259735 -0.338126 -0.243763
-0.291416 0.030187 -0.224089
-0.304488 0.0121 -0.243763
-0.272481 -0.016313 -0.243763
-0.243716 -0.065389 -0.224089
-0.199213 -0.315054 -0.233729
-0.317261 0.492598 -0.234033
-0.199213 -0.481244 -0.236298
-0.270503 0.139254 -0.224089
-0.317261 -0.013136 -0.239061
-0.273162 -0.384102 -0.243763
-0.299771 0.440036 -0.224089
-0.22889 -0.49865 -0.243763
-0.238356 0.133501 -0.243763
-0.267372 -0.447502 -0.243763
-0.265032 -0.128029 -0.224089
-0.203473 0.234061 -0.243763
-0.251402 0.515604 -0.224089
-0.237294 -0.224382 -0.224089
-0.24444 -0.099006 -0.243763
-0.283585 0.341407 -0.243763
-0.317261 0.071161 -0.237995
-0.247979 0.15923 -0.224089
-0.199213 0.567623 -0.241514
-0.270261 0.018889 -0.243763
-0.199213 -0.161574 -0.243275
-0.219993 0.534842 -0.243763
-0.199213 0.480912 -0.237667
-0.207301 -0.138184 -0.224089
-0.231382 0.461683 -0.243763
-0.212042 0.092376 -0.224089
-0.242437 0.312127 -0.243763
-0.299937 -0.274208 -0.224089
-0.215707 0.35427 -0.243763
-0.240328 0.209283 -0.224089
-0.316365 0.349975 -0.224089
-0.309118 0.133523 -0.224089
-0.204355 0.393516 -0.243763
-0.254634 -0.437676 -0.224089
-0.243073 -0.144991 -0.224089
-0.283593 0.54257 -0.243763
-0.311825 -0.056214 -0.224089
-0.288475 0.386602 -0.243763
-0.297898 -0.503242 -0.243763
-0.240764 -0.166409 -0.243763
-0.256905 -0.07074 -0.243763
-0.199213 0.069299 -0.237638
-0.249051 0.11517 -0.224089
-0.282396 -0.14891 -0.243763
-0.268741 0.249442 -0.243763
-0.217935 0.429709 -0.224089
-0.255077 0.477044 -0.224089
-0.25019 -0.124215 -0.243763
-0.271262 -0.243856 -0.224089
-0.201752 -0.438764 -0.224089
-0.236626 0.413454 -0.243763
-0.257531 -0.084303 -0.224089
-0.25337 -0.383347 -0.224089
-0.216256 -0.348172 -0.243763
-0.260605 -0.225683 -0.243763
-0.288591 -0.441642 -0.224089
-0.280108 -0.221442 -0.224089
-0.243687 0.104212 -0.243763
-0.294201 -0.233159 -0.243763
-0.309934 -0.132129 -0.243763
-0.275801 -0.535054 -0.243763
-0.317261 0.427409 -0.231263
-0.379495 -0.577144 0.228428
0.662329 -0.543319 0.198916
0.064047 -0.578154 0.222586
0.204079 -0.578154 0.203249
-0.824176 -0.578154 0.218783
0.756821 -0.532713 0.198916
-0.153699 -0.51913 0.205706
-0.676847 -0.528105 0.198916
0.122633 -0.51913 0.201237
0.546696 -0.51913 0.212912
-0.221103 -0.528691 0.198916
0.292497 -0.52147 0.228428
-0.742478 -0.527437 0.198916
0.061397 -0.521115 0.198916
-0.332887 -0.52251 0.198916
0.797337 -0.576285 0.198916
0.352198 -0.539216 0.228428
0.521228 -0.578154 0.199376
-0.153567 -0.578154 0.205278
-0.541439 -0.576878 0.228428
-0.689522 -0.578154 0.214034
0.749852 -0.578154 0.222486
-0.210508 -0.578154 0.208723
-0.088095 -0.51913 0.202225
0.628365 -0.578154 0.214592
-0.26371 -0.539386 0.228428
0.184782 -0.51913 0.218572
0.373445 -0.578154 0.206542
-0.737398 -0.578154 0.204496
0.593942 -0.51913 0.20308
-0.106677 -0.57025 0.198916
-0.060647 -0.578154 0.202459
0.446684 -0.51913 0.211445
-0.011113 -0.524363 0.198916
0.689525 -0.578154 0.214165
-0.271733 -0.578154 0.211156
-0.417994 -0.578154 0.209334
0.6269 -0.526227 0.228428
-0.708931 -0.537819 0.228428
0.256651 -0.51913 0.208922
-0.530035 -0.51913 0.208106
0.240426 -0.552913 0.228428
0.583247 -0.578154 0.209717
0.027222 -0.544949 0.228428
-0.652851 -0.557269 0.228428
0.114129 -0.578154 0.200146
-0.454995 -0.578154 0.216381
-0.119594 -0.538499 0.228428
0.823869 -0.552409 0.210739
-0.470094 -0.525547 0.198916
0.024605 -0.578154 0.212846
0.485399 -0.578154 0.220736
-0.825585 -0.535534 0.198916
0.291641 -0.578154 0.225935
-0.360329 -0.558488 0.198916
-0.296337 -0.540062 0.198916
0.626226 -0.546184 0.198916
0.395126 -0.520816 0.228428
-0.038751 -0.547684 0.198916
0.371417 -0.537632 0.198916
0.332335 -0.51913 0.209202
-0.3677 -0.543522 0.228428
0.596157 -0.548442 0.228428
-0.30484 -0.578154 0.216558
0.300882 -0.534935 0.198916
0.382239 -0.553385 0.228428
0.737065 -0.51913 0.221662
-0.516996 -0.578154 0.200261
-0.658963 -0.578154 0.202163
-0.411979 -0.53956 0.198916
-0.794743 -0.578154 0.204623
0.51661 -0.564863 0.228428
0.13751 -0.547414 0.198916
0.754025 -0.547476 0.228428
-0.226819 -0.544822 0.228428
0.522034 -0.531697 0.228428
0.430153 -0.544631 0.198916
-0.249461 -0.51913 0.206206
0.582582 -0.549527 0.198916
-0.33969 -0.531241 0.228428
-0.360964 -0.51913 0.210234
-0.422087 -0.554783 0.228428
-0.173747 -0.556009 0.198916
0.155157 -0.578154 0.21844
-0.006472 -0.528896 0.228428
-0.113241 -0.539779 0.198916
-0.624267 -0.526856 0.198916
0.457118 -0.578154 0.210321
-0.088086 -0.537214 0.228428
0.710891 -0.547549 0.198916
0.030063 -0.525413 0.198916
0.276214 -0.553011 0.228428
0.049676 -0.565054 0.198916
-0.338475 -0.578154 0.200383
0.22681 -0.578154 0.224101
-0.561959 -0.523282 0.198916
-0.563747 -0.554208 0.228428
-0.181037 -0.578154 0.216003
-0.279729 -0.51913 0.216537
0.336379 -0.578154 0.207349
-0.499216 -0.545251 0.198916
-0.763861 -0.575037 0.228428
-0.686001 -0.554465 0.228428
0.159154 -0.51913 0.207514
-0.715922 -0.51913 0.200077
0.110654 -0.558869 0.228428
0.422731 -0.521668 0.228428
-0.427372 -0.51913 0.219236
0.065364 -0.51913 0.226019
-0.483111 -0.578154 0.210807
-0.467691 -0.557035 0.228428
-0.496436 -0.51913 0.203385
0.442599 -0.558918 0.228428
0.17002 -0.568943 0.198916
-0.798415 -0.51913 0.201962
-0.788721 -0.567602 0.228428
0.31743 -0.527723 0.228428
-0.196084 -0.542307 0.198916
-0.201081 -0.537939 0.228428
-0.661062 -0.553104 0.198916
-0.649276 -0.529238 0.198916
0.567096 -0.519359 0.198916
0.732452 -0.529291 0.198916
0.496968 -0.574356 0.198916
-0.39589 -0.557909 0.198916
0.323591 -0.547094 0.198916
-0.355902 -0.578154 0.21731
0.077305 -0.539462 0.198916
0.295791 -0.562849 0.198916
-0.307907 -0.562046 0.198916
-0.287187 -0.544464 0.228428
0.236324 -0.569673 0.198916
0.549539 -0.578154 0.22183
0.604277 -0.51913 0.224514
-0.490804 -0.564597 0.228428
0.39681 -0.533446 0.198916
-0.162446 -0.51913 0.227388
0.720746 -0.569448 0.198916
-0.047329 -0.526093 0.198916
-0.175402 -0.523488 0.198916
0.694183 -0.530665 0.228428
-0.214265 -0.566796 0.228428
-0.771913 -0.578154 0.206239
-0.707951 -0.577905 0.228428
-0.024299 -0.578154 0.225706
-0.261357 0.597443 0.228428
0.823147 0.543302 0.222817
0.28625 0.602326 0.215438
-0.513696 0.567803 0.228428
0.115602 0.547469 0.228428
-0.088109 0.58267 0.228428
-0.732756 0.590807 0.228428
0.432403 0.593454 0.228428
0.619723 0.552365 0.228428
-0.386875 0.602326 0.201274
-0.630685 0.543302 0.214444
0.025446 0.602326 0.207655
0.728657 0.602326 0.221682
0.517615 0.543302 0.219364
-0.180953 0.543302 0.210211
-0.822159 0.567054 0.228428
0.185993 0.602326 0.216176
-0.332827 0.543302 0.225952
0.688273 0.543302 0.199042
0.556036 0.602326 0.206909
0.220386 0.543901 0.198916
0.313573 0.543302 0.205419
-0.029257 0.557722 0.198916
-0.321462 0.602326 0.199111
0.664403 0.602326 0.221438
0.049879 0.543302 0.21266
-0.447283 0.602326 0.218839
0.492911 0.602326 0.223249
-0.262211 0.543302 0.200115
-0.657376 0.596058 0.228428
0.806254 0.602326 0.206667
0.366763 0.585122 0.228428
-0.180108 0.602326 0.21837
-0.70183 0.543302 0.222231
0.461558 0.544982 0.228428
-0.576973 0.550976 0.228428
-0.765182 0.55266 0.198916
-0.462377 0.543302 0.217136
-0.133222 0.552879 0.228428
0.610232 0.602326 0.219449
0.569142 0.543509 0.228428
0.159637 0.543302 0.205419
-0.387583 0.544446 0.228428
-0.133988 0.601716 0.198916
0.137676 0.602326 0.212953
0.262496 0.543302 0.221362
0.229543 0.588997 0.228428
0.724661 0.544676 0.228428
-0.015188 0.591122 0.228428
0.004042 0.543586 0.228428
-0.053641 0.602326 0.20427
0.08204 0.591127 0.228428
-0.590578 0.602326 0.225597
0.407828 0.555987 0.228428
0.764822 0.580862 0.228428
-0.351165 0.600193 0.228428
0.463436 0.58559 0.198916
0.335635 0.602326 0.207658
-0.696861 0.602326 0.212571
-0.100938 0.543302 0.20524
-0.823741 0.602326 0.202549
-0.224093 0.555968 0.198916
-0.218369 0.59936 0.228428
0.648818 0.543302 0.203204
-0.525683 0.602326 0.213496
0.086835 0.543302 0.203121
-0.739042 0.548082 0.228428
-0.766856 0.602326 0.217784
-0.484212 0.602326 0.224166
0.358341 0.550619 0.198916
-0.319549 0.579517 0.228428
0.434297 0.564015 0.198916
-0.060013 0.543302 0.211412
-0.250268 0.563231 0.228428
-0.353359 0.555102 0.198916
0.600011 0.546712 0.198916
0.658276 0.566622 0.228428
0.185552 0.551367 0.228428
0.336534 0.566783 0.228428
0.486464 0.557126 0.198916
-0.560038 0.543302 0.199184
-0.63103 0.602326 0.201799
0.292868 0.558028 0.228428
0.302963 0.577875 0.198916
-0.42135 0.543302 0.226287
0.215582 0.601337 0.198916
0.373715 0.602326 0.200478
-0.656819 0.562633 0.228428
-0.494676 0.543302 0.208684
0.123275 0.561063 0.198916
-0.13196 0.586555 0.228428
0.581537 0.574742 0.198916
-0.232778 0.596321 0.198916
-0.790452 0.575217 0.228428
-0.300624 0.543302 0.220141
0.373541 0.553193 0.228428
-0.372128 0.573087 0.228428
0.784627 0.543302 0.226516
-0.197647 0.583734 0.198916
0.175202 0.570979 0.198916
-0.447795 0.569424 0.228428
-0.007757 0.600934 0.198916
0.69453 0.555293 0.228428
-0.416268 0.602326 0.223522
-0.033097 0.543302 0.227512
0.76646 0.59449 0.198916
0.457912 0.575795 0.228428
-0.46909 0.593185 0.198916
-0.322379 0.552778 0.198916
0.388242 0.555231 0.198916
-0.446906 0.561682 0.198916
-0.828802 0.559367 0.200057
0.560511 0.543302 0.19982
-0.529559 0.576585 0.198916
0.668049 0.565412 0.198916
0.584551 0.568682 0.228428
-0.181121 0.566349 0.228428
-0.524044 0.543302 0.209117
-0.767869 0.556985 0.228428
0.065214 0.562068 0.228428
-0.554245 0.602326 0.216182
-0.805144 0.543302 0.2007
-0.659377 0.600169 0.198916
0.036148 0.586136 0.228428
0.700423 0.602326 0.219522
-0.286028 0.59551 0.198916
0.713651 0.554961 0.198916
-0.203914 0.543302 0.225996
-0.499862 0.602326 0.201275
-0.600501 0.595082 0.198916
-0.104818 0.596956 0.198916
0.715523 0.573266 0.228428
-0.345026 0.581339 0.198916
0.018696 0.543547 0.198916
0.465437 0.602326 0.222956
0.823869 0.60023 0.227585
-0.692055 0.553867 0.198916
0.490624 0.543302 0.222397
0.262915 0.597826 0.228428
-0.483089 0.575607 0.228428
-0.275409 0.574382 0.228428
0.634422 0.57895 0.228428
-0.796997 0.602326 0.204739
0.116108 0.598816 0.228428
0.583608 0.602326 0.22123
0.050204 0.582364 0.198916
0.101541 0.569761 0.228428
0.07024 0.602326 0.207862
0.783734 0.602326 0.220012
0.558315 0.567038 0.228428
-0.757761 0.584968 0.198916
-0.720005 0.592227 0.198916
0.431961 0.547041 0.228428
0.157793 0.554434 0.228428
0.530823 0.602326 0.209733
-0.632947 0.57111 0.228428
-0.157007 0.584356 0.228428
0.391267 0.579739 0.228428
0.422046 0.600999 0.198916
0.551055 0.590817 0.228428
0.639072 0.602326 0.221438
-0.57585 0.572437 0.198916
0.823869 0.570453 0.204193
-0.383554 0.595042 0.228428
-0.19675 0.558542 0.198916
-0.038474 0.583107 0.228428
0.683282 0.58718 0.228428
-0.732658 0.562665 0.198916
0.803375 0.58781 0.228428
-0.657582 0.543302 0.214347
0.81923 0.566041 0.228428
-0.128504 0.552648 0.198916
-0.572865 0.573963 0.228428
-0.158695 0.543302 0.216883
-0.506452 0.597322 0.228428
0.444198 0.602326 0.210689
-0.082274 0.592348 0.198916
-0.255776 0.565312 0.198916
-0.596255 0.580326 0.228428
-0.70018 0.56525 0.228428
0.642388 0.549351 0.228428
0.523587 0.563211 0.228428
-0.5827 0.543302 0.199724
-0.08442 -0.411493 -0.224089
-0.129687 -0.489408 -0.224089
-0.054389 -0.281161 -0.224089
-0.056861 -0.470939 -0.224089
-0.034458 -0.420137 -0.224089
-0.098351 -0.267156 -0.224089
-0.056671 -0.529995 -0.224089
-0.092577 -0.226137 -0.224089
-0.077593 -0.378491 -0.224089
-0.050065 -0.496669 -0.224089
-0.108618 -0.47375 -0.224089
-0.112886 -0.244068 -0.224089
-0.08083 -0.482295 -0.224089
-0.076916 -0.28722 -0.224089
-0.789452 -0.03016 0.176759
-0.809127 -0.069236 0.19723
-0.809127 -0.042113 0.197454
-0.765465 0.085889 0.228428
-0.785273 -0.38116 0.228428
-0.828802 -0.045162 0.218572
-0.828802 -0.432448 0.216108
-0.769778 -0.243864 0.213598
-0.828802 -0.235675 0.208701
-0.828802 -0.15633 0.212837
-0.769778 -0.110025 0.207396
-0.828277 -0.374747 0.198916
-0.769778 -0.292634 0.217766
-0.769778 -0.012962 0.200767
-0.769778 -0.335881 0.219444
-0.828592 -0.091983 0.198916
-0.797897 -0.003723 0.228428
-0.779512 -0.452715 0.228428
-0.826557 -0.469401 0.228428
-0.81857 0.006109 0.198916
-0.778055 -0.029612 0.228428
-0.798204 -0.279943 0.228428
-0.828802 -0.007673 0.225879
-0.769778 -0.063221 0.201442
-0.816258 -0.511261 0.228428
-0.777805 -0.409306 0.228428
-0.793949 0.0712 0.228428
-0.824633 0.018982 0.228428
-0.810066 -0.173765 0.228428
-0.804188 -0.100909 0.198916
-0.828802 -0.024779 0.205117
-0.828802 -0.352508 0.207822
-0.828802 -0.133754 0.216111
-0.7894996404674579 -0.49127199999999993 0.26695829387231335
-0.2937831897826738 -0.570776 1.458980782295447
-0.5826575777897701 -0.564117 0.8109267513909819
-0.6008519615302688 0.040873999999999994 0.7695296215230372
-0.3943202857027328 -0.13462600000000002 1.2149967183302757
-0.15852908407402322 -0.23262899999999997 1.7470763219935708
-0.5065815803416438 -0.254485 0.9106731810627886
-0.17064626294983487 -0.569875 1.7483636083220861
-0.7236148630877686 0.026239 0.49021091245186954
-0.2556134358552299 -0.11208000000000001 1.481693393574611
-0.4520008432890248 0.080193 1.0348590777813487
-0.7391690200267836 -0.295092 0.43037284520436814
-0.37363005370503444 -0.3864000000000001 1.2620725760907183
-0.24419237756448042 -0.353187 1.5565781974637798
-0.6451282903203146 -0.414774 0.6443408672082995
-0.6113242929834816 -0.194073 0.7212540777774299
-0.21081722833792182 0.019530999999999993 1.6569638283235046
-0.39074161347741015 0.085972 1.2475873281758079
-0.49824455356424163 -0.4637279999999999 1.0029891469219663
-0.8280276670122119 0.011443999999999996 0.25264362434882326
-0.42827318448274987 -0.29859 1.0888459006974363
-0.28290632280853023 0.101282 1.4929416966357116
