0.2927602845326105 -0.233475 0.5813168684544505
0.13999717356141322 -0.148013 0.8855777041438333
0.05012984657077174 -0.04031300000000004 0.9656968774019064
0.11255399498248464 0.387134 0.877880901269585
0.3034243748294225 0.27074200000000004 0.6266730522240473
0.3846218109024768 -0.444117 0.4980384445200463
0.10197981210891482 0.30905000000000005 0.9458055710925315
0.079788758323248 -0.340552 0.9187106342060642
0.2497080310582991 -0.244438 0.7117715620104266
0.11266980969128548 -0.47534 0.9288702623947571
0.2604930413519926 0.24092400000000003 0.6946857322686515
0.14599019938561075 0.18359000000000003 0.813832982738907
0.0026918146568333245 0.016112000000000015 1.0408491595504357
0.22845749635887275 -0.13934199999999997 0.68318663591312
0.1954146718886366 -0.10663 0.7977841911707658
0.42134984750177307 -0.249023 0.3776027022523924
0.3504319327470038 -0.275329 0.48995228599365626
0.17417854922969178 -0.21178399999999997 0.7691764332297063
0.16068460910474397 -0.49697 0.7905538039731893
0.14535471616561024 -0.07175699999999996 0.8770901776346427
0.380734830206675 -0.20491700000000002 0.5041962773425954
0.38362819976878504 -0.145092 0.43736209359223416
0.14302476962109295 -0.532031 0.880781325708033
0.18880516898063404 0.248992 0.7460046486920116
0.31528683758455067 0.26755400000000007 0.54562985104478
0.24165543688405217 -0.09606899999999996 0.724528643301415
0.0024620036874246076 -0.268393 1.1034636803257187
0.3901840768500591 0.23682999999999998 0.4269761415561796
0.08169595168030652 -0.138098 0.9156892202160933
0.14197457788402917 0.10016500000000006 0.8201946109075471
0.17813623668908912 -0.294932 0.8251570349589994
0.28291337232779096 0.170798 0.6591669940036786
0.25862855033710164 -0.601573 0.6976394963512065
0.061624249523723695 0.21874099999999996 0.9474872135731816
0.28819992228813446 -0.320987 0.6507919354655672
0.008740315544609634 0.010862000000000038 1.0935174526878686
0.08765613108834325 0.2628980000000001 0.9062469843884933
0.3296649640913859 -0.553066 0.5851021841168629
0.024366170102272655 -0.387887 1.0687626603166378
0.3666873609713802 0.04263399999999995 0.5264505600109595
0.14964285097876812 -0.134897 0.8080463787833035
0.37733999400435425 -0.556846 0.5095744449821742
0.21841949117285342 -0.410786 0.7613394947980352
0.3763837474200591 -0.409111 0.448838900385373
0.003982740847866706 -0.14036499999999996 1.1010544979978634
0.42197597059380487 -0.19023599999999996 0.376610785484904
0.035993236196202205 0.17747999999999997 0.9880923792520013
-0.021181463511216136 -0.296232 1.078669685915241
-0.02042698549366273 -0.189106 1.1397248763245833
0.44490882030240486 -0.480622 0.3601815892403287
0.24787478512173775 0.21320800000000006 0.6524253773871833
0.27160340910569464 0.08798499999999998 0.61483401508375
0.06454882618292423 -0.41574 0.9428540405390224
0.1856996411464985 0.33945899999999996 0.7509244882088464
0.07276126826004142 -0.186734 0.9920941746181453
0.2977129365645118 -0.439884 0.6357212273409488
0.3764670169872858 0.17739499999999997 0.44870698306591167
0.1708664488153207 -0.457711 0.7744235291736664
0.02163137096669876 -0.332522 1.0108447343637164
-0.008684623075880749 0.06870600000000004 1.0588719405099236
0.380039601688879 0.008955999999999964 0.4430472226867134
0.3061866825883863 -0.349052 0.6222969488380694
0.08698381709822317 -0.527951 0.9695625273293753
0.36693663589378334 -0.16103100000000004 0.526055653676418
0.42824705744012953 -0.33161 0.4289264534799307
0.41177918506346944 0.023554999999999993 0.39276473775202253
0.2598252834763474 -0.172421 0.6957436076958705
-0.014632277661525306 0.07881499999999997 1.1305447838882203
0.13492893932540134 -0.381474 0.89360690253028
0.3277740699928984 -0.485458 0.5258473268686312
0.18630412718718847 0.289863 0.8122172989179877
-0.024939745419659598 -0.56155 1.144185704033688
0.3900076438083599 0.09347099999999997 0.48950609994719246
0.01452943768495707 -0.256232 1.022095759590854
0.3114196067220013 -0.582404 0.5517563957851492
0.17298953689934432 0.152632 0.8333105400503231
0.3468654675164776 -0.371053 0.5578528014096636
0.318905575202993 -0.04186699999999999 0.6021474239141882
0.3444578750777626 -0.429954 0.4994165080411666
0.10727945865216665 0.13968500000000006 0.8751593150592738
0.3956104769810014 -0.463021 0.41837952957128055
0.41462554406795615 -0.509945 0.4505059283218192
0.28628312090408825 0.027803000000000022 0.6538285706847068
0.3106923134663406 0.07135999999999998 0.6151590379818296
0.26005883090069576 -0.11421500000000001 0.6331231675536888
0.005443446830255216 -0.368006 1.0364899686413118
0.28810384201825745 -0.553227 0.6509441477572534
0.1421146759536469 -0.312453 0.8822231143598382
0.21881128516224077 0.19521500000000003 0.7607188068974926
0.3752150187022412 -0.10460900000000001 0.5129408734999672
0.4407081346638996 -0.20916 0.40918536487207424
0.08941464792611137 -0.22742399999999996 0.9657115563497147
0.42197621849282385 -0.170466 0.4388608423839828
0.1564034134221884 0.006727999999999956 0.8595866097145733
0.013541660142074252 0.344704 1.0859110662227727
0.18658998498069207 -0.017627999999999977 0.7495139876392211
0.435534212131023 0.286547 0.4173819967793757
0.26840713879445305 -0.507275 0.6198976106538441
0.03617390149087912 0.314148 1.0500566152922473
0.16746598893997094 -0.154053 0.8420610555745938
0.3797815004177843 -0.352232 0.5057065615256595
0.2682496739077102 -0.004429000000000016 0.6201470696874408
0.3033336323523165 -0.158692 0.6268168082773065
0.12661721430274459 0.22811500000000007 0.8445240544858995
0.1328352091016179 -0.470933 0.8346733823422748
0.3662245743381393 -0.058633999999999964 0.5271837158825813
0.19791571368208222 0.023270000000000013 0.7315715409447898
0.3347940491649865 0.12689700000000004 0.5769765846123482
0.017701687928729393 -0.05541099999999999 1.0170702170936816
0.1889733094529188 -0.577824 0.7457382771815608
0.08819951839242535 0.03837299999999999 0.9053861393166236
0.27316549516949207 -0.274489 0.6746097766190855
0.3660903478405696 -0.09886099999999998 0.46514591056802046
0.056279231741918845 -0.526615 1.0182053476330688
0.35668942721238206 -0.505561 0.4800390376856717
0.32961881117453673 0.025031000000000025 0.5229248508682564
-0.05013849030830869 0.18386499999999995 1.1282796153555503
0.1692306632300452 -0.531283 0.839265423150624
0.25200328194980526 0.154713 0.7081353794868122
0.1258838015760168 0.07201499999999994 0.8456859416457707
0.10593006463967192 -0.08319100000000001 0.8772970521336221
0.03251964855989048 -0.457063 1.0558457561193788
0.03951457808719433 0.31225400000000003 0.9825137987617025
0.3320194644826496 -0.245104 0.5813721373467085
0.20397944626987524 0.09659600000000002 0.7219652540917056
0.25253627954860364 -0.05831900000000001 0.6450405443688749
0.26135484698548106 -0.21035199999999998 0.6310699928636105
0.059111998365459106 -0.13130600000000003 1.0137176218998545
0.14864386407106628 0.13332699999999997 0.8718794435159187
0.03764261416242404 -0.286974 0.9854794015780552
0.41409123101158457 0.14915 0.451352397788363
0.07480272609590877 -0.08954899999999999 0.926609606520735
0.2705951000512632 0.242054 0.6164313985226123
0.08077596410561466 0.12043199999999998 0.9793971326199888
0.1570193947079554 -0.445813 0.8586107598000963
0.2884195914512784 0.325662 0.5881934815432955
0.25632184218175746 -0.36181 0.6390433800764389
0.2817668144405921 0.352356 0.6609833940178005
0.3577753821610112 -0.453616 0.5405690956886965
0.2227065584274571 -0.41862 0.6922973871943814
-0.02049370790329952 -0.385262 1.1398305793049208
0.13937798959998365 0.23709800000000003 0.8865586278013666
0.293220936048743 -0.283366 0.5805870950781994
0.014488870459897885 0.12438300000000002 1.0221600270028994
0.11451750564956747 -0.399008 0.8636926557522473
-0.0022325850546210946 -0.023723999999999967 1.1109009420222746
0.02647299690896454 0.044645999999999963 1.0654249830094964
0.4166507026452525 -0.21186 0.44729763146261137
0.17592400746579068 -0.342577 0.7664112432640738
0.253996699650734 -0.574553 0.6427269175352448
0.0975040728704778 -0.184919 0.9528961270135801
0.29548416018362345 -0.08903700000000003 0.5770016499851469
0.15491843947331158 -0.271856 0.8619391352449677
0.032781734184943845 -0.11835099999999998 1.0554305548126126
0.29795235556090827 0.15116399999999997 0.5730914853364972
0.4185613845582316 0.137146 0.3820202412066628
0.24638660849719843 -0.411737 0.6547829766606339
0.11619570769675241 -0.215684 0.8610340143907953
0.22552971702400967 -0.577758 0.6878248826903355
0.41673052163779767 0.067828 0.3849207309871274
0.2259788732950651 -0.256498 0.7493637699377027
0.10153279095496781 -0.004507000000000039 0.8842633013497934
0.12454639860663713 0.058015999999999956 0.9100551318946584
0.12006347233857889 0.185666 0.8549066240265832
0.14199326015872749 0.26933699999999994 0.8201650140730525
0.005477322823731201 -0.331581 1.0986867512383003
0.4008059985839807 -0.256612 0.4723991296093499
0.3879440531231127 0.21018800000000004 0.49277528172307483
0.4154651788708257 -0.0067549999999999555 0.4491757620172504
0.03089617787922727 -0.02484200000000003 0.9961672413259539
0.06546824199709989 0.20282699999999998 1.00364793318097
0.07696531384643734 -0.278364 0.9854340412330318
0.08235890554245784 0.20719900000000002 0.9146389554034586
0.46228722949899714 -0.448535 0.3749993297831981
0.04693115526216374 -0.424867 1.0330147579902926
0.15655155616220162 0.13809300000000002 0.7971014693872237
0.21172750037592025 -0.373792 0.7719410809139784
0.08501417156574465 -0.448737 0.9726828793089424
0.1941106491146949 0.18213800000000002 0.7998500502184844
0.18474976193228942 -0.219134 0.8146797555479331
0.010719321205056809 0.08271600000000001 1.0281318225800544
0.3889659925397296 0.331782 0.42890585516522345
0.07443220637266051 -0.604165 0.9784780875582078
0.25155946347152075 0.11754600000000004 0.6465880360010179
0.24490188244734062 0.299851 0.719385559090107
0.14504610056960532 0.387134 0.8564430154709481
0.4156111864937306 -0.433422 0.3866940041852715
0.1575924257525358 -0.411982 0.7954525028939566
-0.0006040244802059114 -0.552257 1.1083209436781936
-0.020293788573408078 -0.2071 1.0772634134648291
0.38406429743817116 -0.329633 0.43667121891274735
0.25210018187921746 -0.304368 0.6457314190483616
0.25352775556518703 0.37041999999999997 0.7057202777920578
0.08244324266823877 -0.283306 0.9145053468363118
-0.04509477512504778 -0.04528399999999999 1.116553634068249
0.12184921191947878 0.09802599999999995 0.914328069171827
-0.0028877801266349867 0.22386700000000004 1.04968846557819
0.1513842868796692 0.045930999999999944 0.8675380107074915
0.2469841554072861 -0.439068 0.7160867804797302
0.05428609992124822 0.33194499999999993 1.0213629070617145
0.3892526320115293 0.12675800000000004 0.428451755161693
0.13964327790069958 -0.014894999999999992 0.8861383527515441
-0.04350626251000422 0.10360900000000006 1.1324660462258023
0.20792674402398872 -0.05213500000000004 0.7157118657749313
0.017113711064390302 0.08682000000000001 1.080252151467417
0.21643650115844754 -0.10835099999999998 0.7644809873736697
0.3285680476769568 0.289975 0.5868399411136135
0.23937940204652142 -0.17899699999999996 0.7281343833666922
0.1837451893327976 -0.373729 0.8162712196198966
0.13723966981594327 -0.185537 0.8899461969152269
0.06036559798833502 0.32501800000000003 0.9494811945942707
0.26141220926714925 0.12123499999999998 0.6932295680115204
0.11204422037853079 -0.560017 0.929861333538403
0.11494050673604528 0.178612 0.9252729785679068
0.4289596527750506 0.08661799999999997 0.4277975456499247
0.4405218456961936 -0.521855 0.4094804875931769
0.09631534642038847 -0.02885099999999996 0.9547793313112753
0.10046683373861015 -0.151976 0.8859520121636675
0.09822442699553635 -0.198571 0.8895044779268546
0.2260848474721879 0.17969100000000005 0.6869454338939263
0.05414091195787851 -0.20193099999999997 1.0215929167469293
0.07379761971713988 -0.24337200000000003 0.9282019162165409
0.32964201158247086 -0.15235100000000001 0.585138545942099
0.18501878668794497 0.09505200000000003 0.8142535611312118
0.33989121320882565 -0.604165 0.5406220757763016
0.3134356910515871 -0.22836 0.5485624745312673
0.15660678332676137 -0.390757 0.8592644270305043
0.3345250244093309 0.20256799999999997 0.5774027790290697
-0.0069450364118299746 -0.521251 1.056116052406561
0.03834720280818871 -0.454794 0.9843631781056899
0.2662973572111177 -0.08860000000000001 0.6854904186031202
0.19991578463335513 0.21790599999999993 0.7284029884061889
-0.029546318562563345 0.07090600000000002 1.0919214571542093
0.29565148099637306 0.13920599999999994 0.6389870266214603
0.3316413008554477 -0.392764 0.5197207821282619
-0.01918701623297231 0.022950000000000026 1.1377604921379887
0.306783733700436 0.10059799999999997 0.5591006388590081
0.26135804966114373 0.3083659999999999 0.6310649191205543
0.20684530720859537 -0.560153 0.7174250996802436
0.34911267827304526 -0.277738 0.5542927250318921
0.02959856045661058 -0.22177800000000003 0.9982229528875604
0.09333792561275561 -0.483999 0.9594962211058617
0.23720560493117376 -0.226491 0.6693277067550922
0.37044918941732297 0.23270199999999996 0.4582405462685235
0.3310148918831578 -0.506088 0.5829636014186719
0.056526657427471705 -0.005186000000000024 0.9555629212709769
0.33621016558711814 0.05964899999999995 0.5747331445576623
0.3929591953116732 0.07959899999999998 0.42257974319797675
0.30741252568885324 -0.18546200000000002 0.5581044939723061
0.07751539238210275 -0.513352 0.9223121461521282
-0.03192377146274211 0.13637100000000002 1.0956878657496
0.019933666985280374 0.2853319999999999 1.0757847207064273
0.027415936992571388 -0.184647 1.001680708780365
-0.0016998733360808482 0.36946 1.1100570094272588
0.41377605333907985 -0.024025999999999992 0.38960125895647785
0.07838224992810416 -0.444419 0.9209388530315816
0.403865087621009 0.299021 0.46755285936683005
0.27060524185752804 -0.595161 0.6164153316696009
0.32782050879000557 -0.017213000000000034 0.5257737575943162
0.259082796501909 -0.487978 0.6969198704610677
0.22235291066576246 0.15907899999999997 0.7551080927011711
0.16162833086664696 -0.09519199999999994 0.7890587410192937
0.0938479707026389 0.16641799999999995 0.8964377478131609
0.18786198099800816 -0.427008 0.7474988660220644
0.21642155533868887 -0.03465099999999999 0.7645046648412652
0.3713659363351131 0.14102499999999996 0.5190386670296846
0.3766180765227035 -0.04196599999999995 0.44846767151842726
0.20637504766547515 -0.506372 0.7181700942856633
0.17809061755151706 0.29808999999999997 0.7629788560865501
0.300844619583225 0.185172 0.6307599522558216
0.06578505898867498 0.12990499999999994 0.9408955757193267
0.3465243825584143 0.16941000000000006 0.5583931550451496
0.08042662455937594 0.36274399999999996 0.9177001137140364
0.15543382235596587 -0.185351 0.7988722057138397
0.20566191855127697 -0.401222 0.7192998477395118
0.24511432659962423 -0.529165 0.719049000800712
0.06649096309201286 -0.366972 1.0020277178983548
0.2177015580451614 -0.522008 0.7624768588664681
0.27069142822015924 -0.382001 0.678529243130005
0.29953098878229556 -0.027617000000000003 0.632841032532709
0.34058423886388817 -0.045184 0.5055532002676483
-0.012343965900621368 -0.517592 1.126919594474561
0.40337401068608214 -0.379115 0.468330833302115
0.12294185809969116 0.37589399999999995 0.9125970771658178
0.18685605495970414 -0.03914300000000004 0.8113429238646348
0.034321153620084255 -0.202025 1.0529917756502627
0.38628054899666736 0.282257 0.43316018871785256
0.18399208123907335 -0.490162 0.7536296388816471
0.27465182255718107 -0.13828799999999997 0.6100046573180842
0.3326485423513249 -0.309058 0.5181250899370851
0.20786909586206254 -0.317267 0.7158031931499429
0.3564393326304438 0.30235999999999996 0.5426856921669773
0.3492218551258306 0.270763 0.4918693152450596
0.14632167631668636 -0.306777 0.8133078503325897
0.15039601353874837 0.057965000000000044 0.8068532035412523
0.03892421820672781 -0.573793 0.9834490587317299
0.04322327650444657 0.2768280000000001 0.9766384043026155
0.3552324576849332 0.24677700000000002 0.5445976476753244
0.17047839128087305 -0.532484 0.77503829770731
0.06259519402875852 -0.139509 0.9459490238033084
0.4492144412236768 -0.12238700000000002 0.39570950331479
0.3850811469610361 -0.10570999999999997 0.4350603054924018
0.005645463296015951 -0.41248 1.0984203797278496
0.39224126218398114 -0.384793 0.4237171072664097
0.2645831440533484 -0.469959 0.6259556598629545
0.3263040418637802 0.08045499999999994 0.52817617493143
0.3809731816445172 -0.212148 0.4415682265858292
0.41808870401774495 -0.06215800000000005 0.44501952083037466
0.06880624969702959 -0.308134 0.9361093447696387
0.17955210521220172 -0.252134 0.7606635380052347
0.40243189026201037 -0.475354 0.46982335938448244
0.24327324184540872 -0.604165 0.665661512641708
0.34798989255429663 0.17426600000000003 0.49382101507401366
0.1292412732289409 -0.341095 0.8403669676751812
0.10933824532392 -0.297724 0.8718977438979758
0.2755960780983612 -0.09395699999999996 0.608508748740346
0.18257703237549594 -0.180006 0.7558713876886477
0.369376007190105 -0.520279 0.5221911527152742
0.16699548149783172 0.00292199999999998 0.7805559932809345
0.22676459639094815 0.08941500000000002 0.7481190116412466
0.31912684570396815 -0.118421 0.5395464331203885
0.30976595852156275 -0.399885 0.5543761384498371
0.29291959865620365 -0.26463 0.6433149294484044
0.12052732653037396 -0.261544 0.8541717769072761
0.22902675296727443 -0.462203 0.7445352577958796
0.35781837038343683 0.3557159999999999 0.47825054325835886
0.03502015657405899 0.07857899999999995 0.9896339515172456
0.3359286160090703 0.37849 0.512928731423687
-0.0455383457043132 -0.19952199999999998 1.1172563474815334
0.2635332002153036 0.19368300000000005 0.6276190019615475
0.04144952796666174 0.017083999999999988 0.9794484123319112
0.23765558086176441 0.302223 0.6686148458556953
0.21221857731084715 -0.14773800000000004 0.7711631069786935
-0.011754139799432017 -0.114792 1.1259851801283762
0.17545986739373753 -0.329707 0.8293969929063025
0.30942700868060774 0.18418 0.5549131095899523
0.040754795246903786 -0.601163 1.0427994714741866
0.21627743493387339 0.329472 0.7647329832787946
0.0001910587436458333 -0.06757999999999997 1.0448109072534901
0.37574132506945634 -0.0060909999999999576 0.5121070883910639
0.4200938648627698 0.23962099999999997 0.379592455154268
0.07412080407880106 -0.08661200000000002 0.9899403706907857
0.3956104769810014 -0.016213000000000033 0.41837952957128055
0.22083352694413264 0.012077000000000004 0.6952646812584194
-0.027491838176931405 0.21416499999999994 1.142574758175417
0.4432510591399776 0.05136600000000002 0.4051568128854463
0.0595977375076151 0.25227299999999997 1.0129481042029964
0.3500502805638812 -0.387793 0.49055690704118754
0.305444729393225 0.347075 0.6234723659794238
0.00710830439551291 -0.01771800000000001 1.033852467875927
0.14401254716397577 -0.08411900000000005 0.8169660190761144
0.0550510056253245 -0.329851 1.020151128095124
0.055534202591247805 0.387134 0.978160732744614
0.28242898662444726 0.12151900000000004 0.5976839179299297
0.2732642443357545 0.26716699999999993 0.6744533362081858
-0.011995122152420601 0.15755799999999998 1.0641164995823555
0.3711171951919871 -0.251434 0.5194327277403833
0.10034110972823485 0.15387499999999998 0.9484016362896237
0.22144121566048516 -0.583684 0.7565524182245045
0.39636281988144645 -0.585363 0.47943810247599356
0.08625709560307865 0.11077800000000004 0.9084633644802127
0.03494863015092836 -0.35659 0.9897472651121675
0.2752349574267873 0.20348199999999994 0.6713312929809334
0.3002556131415708 0.23624299999999998 0.5694426184552421
0.4037513926349879 -0.17612300000000003 0.46773297724532537
0.20458955598359418 -0.18093700000000001 0.7209987060394983
0.28326968898587107 0.379575 0.5963520603776755
-0.033752499266067715 0.17068400000000006 1.098584973034694
0.04172200329699888 -0.492611 1.0412672010712125
0.18534118937131006 0.22477100000000005 0.8137428043302204
0.35869615141399913 0.207905 0.5391103945600372
0.21792870011818463 0.210978 0.6998665662103987
0.3817717154430505 -0.508923 0.4403031733171484
0.32161770770990994 -0.08100399999999996 0.5978508091694241
0.23667983234323575 0.24470199999999998 0.6701606462401528
0.4254423332192563 -0.13940200000000003 0.37111930425040324
0.40737522014718214 -0.545919 0.4619920369772278
-0.04246911486102012 -0.390898 1.1123940103860024
0.4055907960238554 0.04072100000000001 0.4648189574833775
0.08219955343762564 0.36179800000000006 0.9771418538315051
0.017165239755249473 0.29518599999999995 1.0179200690555963
0.04019539456450871 0.17491999999999996 1.0436856852613374
0.31059516563790945 0.217163 0.6153129415212012
-0.02328644108105765 -0.344669 1.1442548832499326
0.1681351002544284 -0.15913500000000003 0.7787505863767679
0.03555820608537025 -0.062243999999999966 0.9887815626838028
0.00015369419424920983 0.360086 1.0448701009224792
0.028739709599765628 -0.12492500000000001 0.9995835616504662
0.2742621636849021 -0.23436599999999996 0.610621962723256
0.3089839718806193 -0.462069 0.5556149773793941
0.43553954992379396 -0.596416 0.41737354054094866
0.4400393092297002 -0.16672699999999996 0.41024493154697866
0.16846896020163143 0.24986600000000003 0.8404721283741584
-0.005124315297660775 -0.402007 1.0532316294791075
0.4227366060636645 -0.344479 0.37540577150905496
0.2845993331651133 -0.523133 0.5942456113855071
0.10085702639016614 -0.587462 0.8853338611346531
0.15244971031674975 0.31228 0.8658501455174602
0.01697574811188096 -0.15312000000000003 1.018220265519755
0.27952789625343893 -0.376201 0.6022798835150099
0.021563047219230747 0.19995399999999997 1.010952974215582
0.03562624395258024 -0.076299 1.0509242253548585
0.00254527325465137 0.27702000000000004 1.1033317630062573
0.262258783200621 -0.546915 0.6918884085969965
0.3111150666537994 -0.560972 0.6144893038984104
0.4221665297957276 -0.28802 0.3763088977730597
0.2604327242936809 -0.016985000000000028 0.6947812877628767
0.06646776268407883 0.254667 0.939814022824512
0.27208992992614667 -0.05695899999999998 0.6763137086621281
0.3141351898035999 -0.410087 0.6097047641964077
0.012167178503556031 -0.524184 1.0880885476177278
0.3365966217837345 -0.05323599999999995 0.5741209128955468
0.25324431876904985 -0.281773 0.7061693040525321
0.07723647371920134 0.087727 0.9850044643209395
0.09799408224685052 0.27652699999999997 0.9521198443259804
-0.04234687940656551 -0.579534 1.1122003625260237
0.3834656449882902 -0.06976899999999997 0.4998700657633368
0.26834842307397266 -0.550824 0.6199906292765411
0.12874617395881627 -0.254837 0.9034017635002864
0.4057359839872251 0.07530300000000001 0.4645889477981628
0.4171981122845324 -0.473202 0.3841799645009213
0.10564289138859506 -0.11651 0.8777519977609953
-0.01678234058966177 -0.04769599999999996 1.1339509567266204
0.43395315791226924 0.213094 0.4198867346014562
0.06260533583502331 -0.593763 0.945932956950297
0.3405780814115821 0.013302000000000036 0.5678134046528395
0.16374316436249525 0.22781600000000002 0.7857083793545121
0.12883478131881398 -0.289467 0.903261389942398
0.1905754289624983 -0.591145 0.8054506169286937
0.17056457764350424 -0.013098999999999972 0.837152209167714
0.39541055765110994 0.180168 0.48094669541137225
0.12813261367041573 -0.02345799999999998 0.8421233283964713
-0.0017486951493154712 -0.11980599999999997 1.0478839042978658
0.2510726567708106 -0.52738 0.6473592449455612
0.42021770165505573 -0.05469400000000002 0.3793962704227613
0.2513534246705623 -0.491678 0.6469144468043004
0.049161818861141404 0.031128999999999962 1.0294808959516448
0.23928147253979412 -0.165184 0.6660390756308279
0.07452861144650119 0.15110599999999996 0.9892943140749622
0.0035479966172928257 -0.55848 1.0394927789067432
0.34980847855135744 -0.170578 0.4909399746419311
0.36050726450118065 -0.191517 0.5362411928617524
0.30733939792789133 -0.302643 0.5582203444387561
0.22746598236105026 -0.351916 0.7470078619119375
0.4453461428025733 -0.24618 0.40183773930284467
0.4233773890951968 0.309978 0.4366410797968925
0.20422018072384485 -0.11656900000000003 0.7215838777386474
0.09679468021121929 0.10758999999999996 0.9540199611005298
0.19223494873498498 0.331846 0.802821572401736
0.13919809323351845 -0.604165 0.8635530974815211
0.06537109416866876 -0.554729 1.0038018367203416
0.42629075638957836 -0.540565 0.4320256648634301
0.43463692916622726 -0.414557 0.41880349045895615
0.2482364015913497 0.26393500000000003 0.7141029469447535
0.34396466302572737 0.098074 0.5001978644718224
0.379542367301646 0.06763799999999998 0.5060854010071896
0.1277319933323368 -0.503534 0.9050084488014185
0.38585619447137726 -0.17719799999999997 0.4338324596727999
0.025809509267536057 -0.355641 1.066476093445974
0.10965235543787055 -0.391363 0.9336505739775462
0.34057516461617754 0.3275239999999999 0.5055675758729742
0.10201557532048017 -0.14768899999999996 0.9457489142950706
0.33670551275626176 -0.434794 0.5739484056316357
0.3533444803818501 -0.03726200000000002 0.547588619206958
0.11363434884499513 -0.07254700000000003 0.9273422201109964
0.23286651318767296 -0.31035 0.6762017829724092
0.07802034757823412 -0.05797399999999997 0.9215121859969329
0.16032669110883263 0.10939600000000005 0.8533712744707205
-0.010273969864049104 -0.15811399999999998 1.123640265212566
0.23626188316927077 -0.438183 0.6708227697089878
0.08205518513379106 0.008504999999999985 0.9151201153699555
0.22058610125857983 0.12725799999999998 0.7579071076205115
0.3767557915761939 -0.24573999999999996 0.4482495005670104
0.15371024907022784 -0.526455 0.8016027251019215
-0.02990928847098756 -0.26874 1.0924964813672462
0.1538132684707071 -0.456342 0.8014395197002802
0.12121056400505487 -0.06589800000000001 0.8530893783886186
0.1502484045780122 -0.039854000000000056 0.8693374982447595
0.13311117298787567 -0.21208700000000003 0.8342361948155984
0.16708914077034226 0.18428900000000004 0.8426580660075407
0.042834151411444754 -0.401121 0.9772548640839445
0.12141631692575527 -0.19712200000000002 0.9150138701082575
0.358756905143071 0.387134 0.4898608715269721
0.21958234831862325 -0.531603 0.6972468235457108
0.2862631231718168 -0.487543 0.5916098018678079
0.22014068144246407 -0.488082 0.6963623010062454
-0.03881699704713987 -0.015946000000000016 1.1066082520542415
0.12076617376625415 -0.34947 0.9160438399486674
0.3807724806363297 -0.579069 0.4418861811506849
0.2879111476992263 0.059190999999999994 0.6512494179644686
0.02684319182824907 -0.517573 1.002588063163583
0.012388163124273044 -0.06732199999999999 1.0877384593468498
0.16714066946120143 0.36253599999999997 0.7803259835957199
0.016666689910443233 0.24118700000000004 1.0187098817246791
0.20187048434607505 0.3476250000000001 0.7253063138942175
0.10216265050193923 0.27855399999999997 0.8832654652154062
0.2772803996166132 -0.18695499999999998 0.6680908624157029
0.3582026914629448 0.014067000000000052 0.4776416940916141
0.4011038474205994 0.231989 0.4719272715051227
0.20176290883112097 -0.565947 0.787727186809522
0.14397397924527822 0.387134 0.8249405024145915
-0.0004398683618798138 0.10593200000000003 1.0458104346355628
0.36084995079707527 -0.354072 0.5356983023547384
-0.041462407144419955 -0.548388 1.110799163818668
0.14393059305432226 -0.563166 0.8793463020469692
0.058374601284772676 0.07011800000000001 0.9526353715275457
0.17136844923480848 0.30732399999999993 0.8358786996606062
0.038707217939969396 0.06562699999999999 1.046043284534788
0.40332490299258944 -0.423894 0.46840863069564354
0.08779918393460451 -0.174444 0.9060203571986494
0.0550342105687156 0.102051 0.957927285535169
0.3326133129190366 0.19030900000000006 0.5181809011107034
0.19576618453322284 -0.264853 0.7349768681593469
0.06438146738893563 0.11707100000000004 1.0053696233247094
0.20604008217847886 -0.276204 0.7809512029579584
0.3599209269559119 -0.44057 0.4749196309419594
0.2874006068113051 -0.344816 0.5898077774590119
0.08357403507614386 -0.352279 0.9749643724365498
0.21225754319807505 -0.439363 0.7711013764381763
0.06808215911703147 -0.499487 0.9995069132232628
0.15503426957644112 -0.10048199999999996 0.8617556348711016
0.21817875671888384 0.36005599999999993 0.7617208711510934
0.2683657519098587 0.15207799999999994 0.6822136262126535
0.09746617454180412 -0.09128000000000003 0.9529561663064117
0.029009801913975453 0.13868000000000003 0.9991556759860596
0.2815100666083097 -0.348989 0.6613901390861396
0.3380116706473119 0.09350899999999995 0.5718791640885462
0.13311836001749694 -0.09210300000000005 0.896475258604722
0.31668398585172586 0.143768 0.6056669103475101
-0.009783426708399268 -0.485757 1.122863136901124
-0.012428303026402299 0.337546 1.1270532030417078
0.32431731539443465 -0.07211100000000004 0.5313235868739633
0.252075094253194 -0.02792300000000003 0.6457711633689687
0.03577481697670426 0.387134 1.038206165319755
0.10022503172608632 0.19545 0.8863350797644112
0.2896277818543621 -0.22455400000000003 0.6485298916863419
0.17571501388818866 -0.449044 0.8289927847094914
0.04423343479572828 -0.563961 1.037288540891304
0.08393486986745968 -0.383733 0.9743927307188838
0.06401344556799854 -0.347009 0.9437022012532517
0.44464102037753156 -0.366135 0.40295480839905273
0.4201875241352804 0.23580899999999994 0.4416945278808741
0.1280880241101588 -0.556776 0.9044444176983368
0.34625108756854195 -0.540029 0.5588261144526125
-0.030996949004927332 0.27042199999999994 1.1403622430718605
0.10515633258690399 -0.23394000000000004 0.9407732636046173
0.3030280627067994 -0.11715700000000001 0.5650504482162527
0.11389405145392112 0.09217600000000004 0.8646803444005222
-0.02052520088064813 -0.280532 1.1398804711116401
0.18226501939741474 -0.407197 0.8186161345357066
0.17033106820039495 0.324484 0.7752716898878955
0.24539965061385074 -0.10186600000000001 0.6563465351457882
0.1276079086410319 0.11366299999999996 0.8429545766338464
0.1538434080092434 -0.503126 0.8636422216641677
0.07868956568234026 0.387134 0.958450849713006
0.22842785261837448 0.275505 0.7454840477473901
0.3789034335069639 -0.04025400000000001 0.5070976127469028
0.0067904198453835884 0.10978399999999999 1.0966065165852557
0.2026185570123034 0.11655700000000002 0.7863716517896722
0.4610707465264988 -0.556522 0.37692650652071386
0.2874099289580347 -0.15701200000000004 0.6520434587527648
0.2091629768297395 0.24967300000000003 0.7137534009552355
0.10693890747338042 -0.425274 0.8756988230709171
0.11730116457961504 -0.477547 0.8592827274125613
0.23698462031045667 -0.05204600000000004 0.6696777950259705
0.03423788405285749 -0.319018 1.053123692969724
0.32842741582806195 -0.21854 0.524812283285165
0.22083833095762648 0.146111 0.6952570706438351
0.08117362966705005 -0.55754 0.9787671428571765
0.25669121744150686 0.07785900000000001 0.6384582083772898
0.3678843799908841 -0.14167799999999997 0.46230376883270213
0.28937505635727745 -0.009989000000000026 0.5866798148648606
0.17634380587660592 -0.24416700000000002 0.8279966398227896
0.4544999236254661 -0.487343 0.387336136024364
0.14047437223513565 -0.341813 0.8848217164284586
0.29783812679561006 -0.380625 0.5732724488388352
0.3536346084095705 -0.353861 0.48487854293744986
0.45121718107133524 -0.598804 0.3925367226569756
0.2308800346173464 0.377416 0.7415992518140214
0.06272301517500317 -0.401948 1.0079969766039816
0.20436348146912514 0.03171199999999996 0.7836073074478824
0.411710936714293 -0.604165 0.4350738220503483
0.13289577405894853 0.13071 0.8968278837471284
0.3089625154902945 -0.604165 0.6161496317240199
0.19947673218732542 -0.459255 0.7913489937278106
0.22334709355997046 -0.458235 0.6912826385831401
0.33789637432345954 -0.337313 0.5720618188385697
0.291079661488059 -0.0030090000000000394 0.646229794834195
0.3600487481021565 -0.11587199999999998 0.5369675837426326
0.3902913664847551 0.19094100000000003 0.4268061711637967
0.16977654133082548 -0.604165 0.780123735018655
0.22399695083921342 0.028752 0.7525035712656517
0.40643363350238754 -0.143206 0.4634837174357525
0.017191928719104244 -0.457974 1.017877787863461
0.16091840442811134 -0.383503 0.7901834207300863
0.2832144238400722 0.304731 0.6586900621563951
0.003970463924493628 0.24608200000000002 1.1010739473462454
0.1745201679670323 -0.567087 0.7686352339703776
0.2848323088289455 -0.507143 0.6561269762891683
-0.00516256611057242 0.387134 1.085876856724071
0.34365958917824835 0.2662 0.5629316182089262
-0.02567588502435153 -0.037165000000000004 1.085789838670784
0.3770237487732953 -0.070986 0.4478249973979745
0.38165986969387966 0.03525800000000001 0.5027308112231945
0.12736261807258742 0.3195239999999999 0.9055936205005677
0.21560462514571538 0.11572000000000005 0.703548412421519
0.14875891249589968 -0.270336 0.8094467318668166
0.3809494094760669 -0.301804 0.5038563365578297
0.4149587825496178 0.387134 0.43863998545518024
0.03000743538286499 0.256324 0.9975752050240512
0.3539924884242428 -0.481593 0.546562031861919
0.24146142710744786 0.18132899999999996 0.6625855478572367
-0.011129865944250472 0.04023699999999997 1.0627457433333372
0.09756170302109934 0.387134 0.9048449295803658
0.19382002528893646 0.290361 0.7380600126898351
0.29941622623772024 -0.06390099999999999 0.6330228416588897
0.4121536122357317 0.355754 0.45442201233736784
0.3107326327923808 0.12837699999999996 0.5528447136707055
0.28780759451947 -0.12831599999999999 0.6514134689899524
0.26681594276943443 0.26986599999999994 0.6224184153289359
-0.04351471874843127 -0.449634 1.1324607084330314
0.42017791610829264 0.2697419999999999 0.4417097491100427
0.27082622647824517 -0.347409 0.6160652433987227
0.12724013471911377 0.019496999999999987 0.8435372114614674
0.1549502183309182 0.34306799999999993 0.7996383409153269
0.3768259645605123 0.10787999999999998 0.5103887807426953
0.16312131150468012 -0.062886 0.786693531131259
0.045190501039558684 -0.029325999999999963 1.0357723373413408
0.04979327974594411 0.126633 1.0284805229457297
0.18701031717078442 0.05701900000000004 0.8110985385740941
0.01161631828959453 0.17397299999999993 1.0889612314233954
0.12606660198780212 -0.13657399999999997 0.9076467951906457
0.3894453263305604 -0.270436 0.4281464849544779
0.3733718788584341 -0.13523200000000002 0.515860812628814
0.3648477096834937 0.20626900000000004 0.46711452287382854
0.21525072948500173 -0.02724099999999996 0.70410906102923
0.19561750801393252 -0.393702 0.7974628541105394
0.32301567563662026 -0.005763999999999991 0.59563612032539
0.241535870325983 0.048395999999999995 0.72471806304218
0.32494877627923735 -0.367332 0.5303232138680479
-0.01128733083099337 -0.581495 1.062995202366934
0.32076739732149845 -0.19609500000000002 0.5991978879508469
0.08981046425069639 -0.423274 0.9028340465593516
0.11119551132795058 0.07130100000000006 0.9312058754482977
0.07113406112443854 0.04068399999999994 0.9324215791916193
0.20875114712684156 -0.317933 0.7766562794608796
-0.0005402188659735518 -0.299334 1.0459694119179908
0.2847984328354696 0.06548900000000002 0.5939301936921796
0.40125330561818584 -0.024097999999999953 0.47169049682916636
-0.021475327993876192 0.053637999999999963 1.141385681551648
0.00220714307323161 -0.18642800000000004 1.0416169859996083
0.2659984408159448 0.18122099999999997 0.6859639679550327
0.22833283990705167 -0.082959 0.745634568791391
0.3419194687349204 -0.591454 0.5656883519361318
0.42495470685901093 0.16863000000000006 0.4341422613417108
0.07478696061661488 0.034528 0.9888850321350948
0.026379337636454003 -0.379729 1.0033229102828904
0.2974879675898361 -0.20659300000000003 0.5738271780796471
0.047925586055390657 -0.464337 1.0314393607713406
0.23400744740184282 -0.205258 0.7366447417196359
0.05590718758578406 -0.174016 1.0187947474514314
0.033908008459613115 0.018399999999999972 1.0536462885045135
0.03315619933844516 -0.481147 0.9925868699759577
0.3750871975559966 -0.305562 0.45089292069929393
0.2920919928776882 0.18735999999999997 0.5823755895055123
-0.03196754136346386 -0.513402 1.0957572069047015
0.06546105496747873 -0.494319 0.9414088693918463
-0.03911264201794107 -0.604165 1.1251308977629746
0.2975640121462025 -0.291224 0.6359571563930624
0.17443447740243906 -0.557507 0.8310214363081313
0.09915665351236225 -0.511775 0.9502780755965774
0.27909944702620887 0.387134 0.649957468565636
0.07385313276195765 0.33693799999999996 0.9281139713369002
0.28547900141376503 -0.593525 0.5928520232927357
0.25786417841230236 -0.21712399999999998 0.6988504296939544
0.11184914304337223 -0.530518 0.8679199293419101
0.024570893445657938 -0.300324 1.0061878838619616
0.42882834307288537 -0.5016 0.4280055691152292
0.21104508256077453 -0.364634 0.7107717312858717
0.1009733902725728 0.024174999999999947 0.8851495151369442
0.18979824633504877 -0.480357 0.8066818452436665
0.21272114949085114 -0.262857 0.7081164724197903
0.3955093068173724 -0.20697100000000002 0.48079025500047257
0.4210538479020046 -0.35777 0.44032208038417026
0.014499260165181715 -0.18874400000000002 1.0843940170489668
0.30965411277239185 0.031796000000000046 0.6168037763558831
0.07777214021438522 0.283477 0.9219054010837888
0.12895783643280379 -0.23881799999999997 0.8408159939356554
0.06265522520681216 -0.442795 1.0081043708320045
0.0017918627956520772 0.19717099999999999 1.0422748813492297
-0.027670264807741374 -0.49659 1.14246213074795
0.4261960295585136 -0.22291300000000003 0.36992528338450936
0.15393948827912035 0.24522599999999994 0.8634900093724815
0.16219360312109005 -0.352613 0.7881632253698734
0.017330711331148774 0.019194999999999962 1.017657925664359
0.3705180469440681 -0.539442 0.4581314607928151
0.4374995874292848 -0.310169 0.41426840979055035
0.24788464104774446 0.33101800000000003 0.7146602130570935
0.4384822750784157 0.3287 0.4127116162961377
0.324036795393702 0.08496400000000004 0.5940184419143029
0.3812840890828052 -0.16700199999999998 0.503326130408456
0.25278288557462125 0.04882399999999998 0.644649866153547
0.26071882998620355 -0.452993 0.694328033383189
-0.010502961173922576 -0.420138 1.1240030378410848
0.10688606332494804 0.06806900000000005 0.8757825398313446
-0.002353752950521537 0.028737000000000013 1.1110928986345676
0.11653063520250967 -0.448905 0.9227538651405005
0.06266216433741434 0.05803400000000003 1.0080933777220495
0.33269284603132376 -0.10828300000000002 0.5180549031581408
0.1904369322307118 0.08636699999999997 0.7434195766048745
0.4625813418806762 -0.24006 0.37453339104586986
0.334174865203557 0.154154 0.5779575082698816
0.14201219033244478 0.2719210000000001 0.8823854741376367
0.017343769932818054 -0.12415900000000002 1.079887687591213
0.2321984694317697 -0.377702 0.7395105609225499
0.35309040144595316 0.34714500000000004 0.5479911361560837
0.06940860062061116 0.176659 0.9974055379741507
0.32306905356432974 -0.22293600000000002 0.5955515579411199
0.3705519229375441 0.24258400000000002 0.5203282433898037
-0.02172058058108156 0.332198 1.079523765996369
0.1277437364764329 0.16602099999999997 0.9049898450768792
0.16246020687937918 -0.420733 0.8499913159714443
0.39595661385157754 -0.355885 0.48008162222028905
0.19923012616130775 -0.360234 0.7917396719431387
0.24914678113905384 0.15818699999999997 0.6504102557700266
0.2831405144008142 0.15625699999999998 0.5965567013476092
0.2360211487153012 -0.502379 0.6712041460620459
0.022936709198213723 -0.549615 1.071027240967391
0.4360471740163108 0.028051999999999966 0.4165693522665399
0.06378552181667918 -0.209441 0.9440632826340849
0.45092146735182487 -0.02324599999999999 0.39300519826583197
0.07383445048725934 -0.366643 0.9281435681713948
0.279935169841862 0.3514900000000001 0.601634672523029
0.28410505355452387 -0.07235900000000006 0.5950286590638483
0.38635926244941926 -0.474868 0.4952859389120543
0.10090293140799628 -0.05807499999999999 0.8852611374841808
0.10873158618488254 -0.300817 0.9351092751062058
0.20012822878563874 -0.21398 0.7280664301167938
0.18572526255179905 0.05210400000000004 0.7508838982643968
0.22457104944234801 0.05902099999999999 0.6893436231118266
0.42861803403771015 0.003715000000000024 0.42833874490925344
0.3956222201250974 -0.296525 0.41836092584674117
0.030584450781404093 -0.24846199999999996 0.9966610856500915
-0.006975213931605384 -0.318554 1.1184143098646735
0.009440386057138539 -0.415818 1.030157937307166
0.14028249757563976 -0.058381000000000016 0.8228752384889095
0.36319726415871767 -0.05078899999999997 0.46972919179546024
0.3836807580369593 0.16356799999999994 0.49952927935472824
0.22535997521389362 0.346955 0.6880937910723144
0.2986724238057087 0.03834099999999996 0.5719507387726934
0.3417740328725317 -0.254381 0.5036683047222676
0.2937573842222229 -0.309982 0.5797372431162848
0.3646368668690414 0.07051399999999997 0.4674485442916954
0.2512904387158652 -0.2289 0.6470142304177391
-0.04954993611378877 -0.174371 1.1286511257324081
0.26168763937413 0.035429000000000044 0.6927932261086867
0.36330640303026396 0.068276 0.531806741430628
0.08465920834647689 -0.252278 0.9732452191643384
0.4296573022902131 -0.22550599999999998 0.4266923152875144
-0.03657806636675437 -0.10837200000000002 1.136839299843037
0.24304995423608097 -0.385013 0.6600689713013583
0.2360689029699816 0.153459 0.7333789424391244
0.44826751678611126 -0.447791 0.3972096400117417
0.4075743198175384 -0.291305 0.4616766192839003
0.3170645704762942 0.26478500000000005 0.6050639805476643
0.0641202014234174 -0.389514 0.9435330764847114
0.007432842195986278 0.05721299999999996 1.0333383285795648
0.0876876240656918 -0.240274 0.9061970925817737
0.14829744132023198 -0.411814 0.8724282533898318
0.1824283558562056 0.13289099999999998 0.8183573736398402
0.2864523289349272 -0.04497399999999996 0.6535605079265705
0.1895825995071026 -0.06479199999999996 0.8070234772761177
0.3630138919864162 -0.384562 0.5322701432964282
0.216506712124005 -0.07394599999999996 0.7021193081273542
0.22783535762079965 -0.127986 0.7464226902127883
0.3353571863023212 -0.270485 0.5760844514582987
0.18771892815174684 0.3652869999999999 0.7477254932119083
0.30626917047731694 -0.159447 0.5599158202433718
0.31429799248311363 -0.286127 0.6094468489243838
-0.009072146831051342 -0.358595 1.0594858634197246
0.11095797954964354 -0.59332 0.9315821780582996
0.19847322714638788 -0.143774 0.7929387665520886
0.32403868261179136 0.340476 0.5317650025198533
0.25082978719973265 0.347784 0.6477440037939901
0.43019908825646397 -0.279244 0.42583400708717284
0.16028640976403152 -0.211492 0.7911846393598443
0.2976285994387309 -0.09486300000000003 0.6358548359080956
0.4568848494355241 -0.191851 0.38355788869517565
-0.030789771163465596 -0.256691 1.1404930189947486
-0.012859844581313618 -0.08084999999999998 1.0654864102075312
0.001811078849627501 -0.24601799999999996 1.0422444388908925
0.060688782349996195 -0.2632 1.0112196490685152
0.2606238172748807 -0.364259 0.6944785544271899
0.1454171683410303 0.37146 0.8769912396450468
0.19188905976342774 -0.303133 0.8033695366518063
0.2225512286578226 -0.349838 0.6925434637326073
0.08427542104624591 -0.172638 0.9738532227072405
0.3509598404520502 -0.482151 0.4891159640132249
0.31182207629693054 -0.327958 0.5511187954077527
0.25494148897119123 -0.600218 0.6412301633336639
0.11526184186085614 0.24715900000000002 0.9247639130146008
0.023768871091204014 0.36177799999999993 1.06970891339662
0.03906698517273105 0.28359 1.0454733340648075
0.35496638770592115 0.24758100000000005 0.48276871144991074
0.13570345305646542 -0.05369400000000002 0.8923799023345207
0.3198839926179071 -0.324965 0.6005973954105173
0.2988231974608683 -0.585523 0.6339623297481306
-0.025862707771334537 0.04639899999999997 1.0860858070157293
0.36967438980600076 0.37545399999999995 0.5217184489872043
0.12812432110100125 0.21123500000000006 0.9043869152770332
0.1433570662117038 0.13232 0.8180044451549513
0.31220746493499274 -0.09659799999999996 0.5505082549933225
0.1297574377898913 -0.15622800000000003 0.8395492494192891
0.2490538705618875 0.387134 0.6766599960663544
0.26920365061477264 -0.604165 0.6747188670597318
0.2486511480896521 -0.19855299999999998 0.7134458972189748
0.18778404922355235 0.145548 0.7476223271030987
0.3525825294544173 -0.09849600000000003 0.4865452675314137
0.17991987913411978 -0.514292 0.7600809031776136
0.1473267826954553 -0.504152 0.8117155406367835
0.1493343265566075 -0.555053 0.8085351493643848
0.29130491634299294 0.284478 0.645872941572575
0.05086432685605374 -0.445324 0.9645332989943496
0.28643631555661436 -0.425994 0.6535858766418516
-0.011120791696539845 -0.14190800000000003 1.0627313677280112
0.11080104844217781 0.12026400000000004 0.9318307914680537
0.04649345625494622 0.22020400000000007 1.0337081695413075
0.3577831409511486 0.330461 0.47830635443197717
0.20558743735150276 -0.194959 0.7816682919765688
0.3581250075875081 0.15663300000000002 0.5400152120717272
0.026926995174752888 -0.08156699999999995 1.0024553002202792
0.19642137960523676 0.3079160000000001 0.7961893446034316
0.29335277953018535 0.35396399999999995 0.5803782259890522
0.15299363140010896 0.21980200000000005 0.8649884548217478
0.35142714521852686 -0.430066 0.5506261000499403
0.2738498002027271 0.230974 0.6735256868527428
0.08784295383532625 0.232533 0.9059510160435478
0.02725978756340175 0.253513 1.064178533465355
0.4565293831488029 0.011333999999999955 0.3675167840661607
0.28949860726930526 0.19829799999999997 0.6487345326562756
0.14240427020209018 0.298457 0.8195138837141728
0.03268298501868139 -0.17440100000000003 1.0555869952235124
0.33402088887273473 -0.445339 0.5159509910375006
0.2883171058300762 -0.260273 0.5883558413210942
-0.049488312354812214 -0.411972 1.1235139639175213
0.31893866951817285 0.04952000000000001 0.6020949952359408
0.2064115925553366 0.172952 0.7803626487634384
0.13758104065426474 -0.535015 0.8271549407568196
0.027595000949417026 0.167342 1.0636474816921389
0.27767941861686085 0.284019 0.6052082788822837
0.0961045036059362 0.331245 0.9551133527291422
0.1428411495497725 0.06482100000000002 0.8810722203099219
0.19155199714056215 -0.328187 0.7416530683974719
0.4032154782407851 -0.07497799999999999 0.4685819835833972
0.280031250111739 -0.28409 0.6014824602313429
0.22632476226662232 -0.486392 0.7488158056876324
0.2626153477577201 -0.571608 0.6913235318700721
0.09939874140514415 0.11275400000000002 0.8876441054729123
0.011652367381418005 -0.07976899999999998 1.0266536721030128
0.14150164944452348 -0.402176 0.8209438336321804
0.034886959653804395 -0.414931 1.0520954143769996
-0.0449148915086669 0.377548 1.1162686588332587
0.28732160747829505 -0.17591800000000002 0.5899329297877317
0.4263756272946364 -0.193633 0.4318912106724406
0.25820394791279255 0.02646000000000004 0.6360617104070749
0.32205967695134413 -0.574415 0.5971506326276677
0.20859663701674228 -0.292788 0.7146506078523414
0.327591765379151 -0.12816700000000003 0.5883865871219138
0.1168437157391451 0.16193999999999997 0.8600074270457561
0.3829350683868583 0.23478699999999997 0.5007106158629817
0.11944535593570349 -0.507797 0.8558858564364311
0.2484373884797953 -0.342344 0.6515340898569764
0.29666192516791284 -0.534817 0.6373862606872271
0.2366747424494838 -0.06401000000000001 0.7324191593776587
0.06912569760375115 -0.530415 0.9978537186107823
0.023123817825454862 0.090036 1.0084803700995242
0.14437765218950843 -0.01345200000000002 0.816387612367707
0.11656027894300791 -0.012359000000000009 0.8604564533062304
0.39332508201550187 0.068079 0.48425054776480536
0.21211317489424053 0.28109699999999993 0.7090796379766268
0.26192784004882247 -0.14844800000000002 0.6924126953794711
0.32297806318820466 0.379196 0.5334452570953003
0.33215426274073545 0.048831999999999987 0.5189081376154262
-0.011217405745693965 -0.22633000000000003 1.0628844256435401
0.29590769504937836 0.25083 0.6385811271769639
0.11738496792611885 -0.14814899999999998 0.8591499644692573
0.2628665098982126 -0.408438 0.6286751861410811
0.15687662774195216 0.03698599999999996 0.7965864844670187
0.35527224323169626 0.15015599999999996 0.48228416898804294
0.07671390380692589 -0.23186600000000002 0.9858323300629439
0.36707997462030273 -0.20564099999999996 0.4635781239636526
0.30370488225400816 0.387134 0.6068873388786874
0.041031578792696755 0.19976499999999997 0.980110535800746
0.33793776120805386 0.25903300000000007 0.5097458032797602
0.35392658567414115 -0.14766800000000002 0.48441598669549235
0.1070864784528775 -0.20102600000000004 0.9377154877894105
0.01973403353564701 -0.0016650000000000276 1.0761009840235976
