0.59644 -0.533774 0.012293
0.59644 -0.541951 -0.288506
0.59644 -0.298122 -0.114296
0.59644 -0.155711 0.04396
0.59644 0.506704 -0.225807
0.579805 -0.046228 -0.043595
0.579805 0.552882 -0.08391
0.579805 -0.119873 0.129397
0.579805 0.423698 0.036426
0.579805 0.337511 0.011805
0.59644 -0.308106 -0.052908
0.579805 -0.389533 0.006466
0.59644 0.049775 -0.091488
0.59644 -0.471853 -0.006887
0.579805 0.240605 0.038301
0.59644 0.689469 -0.128649
0.59644 -0.302556 -0.283496
0.59644 -0.524168 0.183905
0.579805 -0.272726 -0.017832
0.59644 -0.116316 -0.211313
0.59644 0.579399 0.148569
0.579805 0.475271 0.142461
0.579805 -0.148258 -0.135905
0.59644 0.524014 0.047328
0.579805 0.744571 -0.058829
0.579805 -0.27081 -0.159841
0.59644 0.457768 -0.267662
0.589034 0.763912 0.20803
0.59644 0.461346 -0.00225
0.59644 0.180195 0.034996
0.579805 0.355659 0.063095
0.59644 0.120628 0.117536
0.579805 0.672188 0.152502
0.59644 -0.549927 -0.146362
0.59644 0.248877 -0.116078
0.579805 -0.005395 -0.073745
0.59644 0.20027 0.004299
0.59644 0.422269 -0.183678
0.59644 -0.410185 -0.23407
0.59644 0.24562 0.120733
0.579805 -0.354955 -0.100642
0.59644 0.10343 -0.161903
0.579805 -0.16817 0.10727
0.59644 -0.349242 -0.170749
0.579805 0.746273 -0.159247
0.59644 0.09546 -0.09559
0.579805 -0.282514 0.11349
0.59644 0.364166 -0.106358
0.579805 0.303068 0.024789
0.579805 -0.35587 0.046369
0.579805 0.225958 -0.137878
0.59644 -0.257522 -0.245735
0.59644 0.439455 -0.160842
0.59644 0.253271 -0.164116
0.59644 0.379215 -0.019177
0.59644 0.39887 -0.244097
0.579805 -0.450935 -0.288275
0.579805 0.071902 0.144881
0.59644 -0.035074 -0.140117
0.579805 0.606273 0.059444
0.59644 -0.30202 0.057352
0.59644 0.288665 0.18572
0.59644 -0.039683 -0.215661
0.59644 0.224035 -0.04176
0.59644 0.690277 0.074185
0.579805 0.740448 -0.021854
0.59644 0.575169 -0.08544
0.584807 0.199206 -0.289153
0.579805 0.461399 -0.224803
0.579805 0.305254 0.05925
0.579805 0.053497 0.203549
0.59644 0.683884 -0.010656
0.579805 -0.42588 0.17263
0.59644 -0.162993 -0.23031
0.579805 0.122876 -0.287799
0.59644 -0.20017 0.159029
0.59644 0.634945 0.096209
0.579805 -0.116419 -0.039675
0.59644 -0.375207 0.095662
0.579805 0.635086 -0.144092
0.579805 -0.418576 -0.026813
0.579805 -0.030885 0.143863
0.579805 0.337607 -0.065066
0.579805 0.347058 -0.18079
0.59644 0.683716 0.033143
0.579805 -0.446608 -0.126266
0.59644 -0.055326 0.186568
0.59644 0.149514 -0.083921
0.579805 0.618133 0.174026
0.579805 0.046632 -0.205384
0.59644 0.612903 0.022599
0.59644 -0.068599 0.15559
0.579805 -0.355433 -0.135271
0.59644 -0.449694 0.143811
0.579805 -0.055391 -0.098199
0.579805 -0.166318 -0.180344
0.579805 -0.506037 -0.140176
0.59644 -0.306191 -0.001347
0.579805 0.453691 -0.042883
0.59644 -0.460683 -0.040335
0.59644 -0.490376 -0.201485
0.579805 0.112469 -0.008724
0.579805 -0.303264 0.185766
0.59644 0.621032 0.120536
0.579805 0.02501 0.099998
0.59644 -0.304437 0.141595
0.579805 -0.296462 -0.228091
0.579805 0.20755 -0.060153
0.59644 -0.530064 -0.06252
0.59644 0.039893 -0.167787
0.579805 0.288146 -0.048223
0.59644 0.74026 0.108492
0.579805 -0.25324 0.014548
0.59644 0.575608 -0.030442
0.59644 -0.256087 -0.110299
0.59644 -0.243427 0.142165
0.579805 0.348087 0.106204
0.579805 -0.204324 0.03363
0.59644 0.541607 -0.194826
0.579805 -0.099473 -0.236687
0.59644 -0.551394 -0.034503
0.59644 0.205842 -0.172044
0.59644 0.735842 0.15996
0.59644 0.68903 -0.184697
0.579805 0.479917 -0.121425
0.579805 0.18058 -0.224203
0.59644 0.176502 -0.121496
0.59644 -0.109297 -0.126361
0.59644 0.235169 -0.087159
0.59644 -0.122139 0.068132
0.579805 0.010082 0.153439
0.59644 -0.530504 -0.123139
0.579805 0.637042 -0.104744
0.59644 0.338976 0.153615
0.579805 0.323413 -0.240172
0.59644 -0.513624 -0.170886
0.579805 0.473068 -0.187615
0.59644 -0.452048 0.053585
0.59644 0.228565 0.175016
0.579805 0.22883 -0.242551
0.59644 0.421517 -0.074473
0.59644 0.452604 -0.202506
0.579805 0.543597 0.003601
0.579805 0.528633 -0.131738
0.59644 -0.565158 0.17775
0.59644 0.444951 -0.127921
0.579805 -0.212654 -0.180053
0.579805 0.576765 -0.26735
0.59644 0.580615 0.180454
0.579805 0.763688 -0.286749
0.59644 0.088251 -0.137437
0.59644 0.525861 0.085555
0.579805 -0.125212 0.177805
0.579805 0.300911 -0.118922
0.59644 0.074249 -0.026917
0.579805 0.425002 -0.120312
0.579805 -0.480214 -0.115712
0.59644 0.641399 -0.223693
0.59644 0.536708 -0.047343
0.59644 0.040725 -0.119579
0.579805 0.171002 0.015576
0.579805 0.65692 -0.165859
0.59644 -0.221581 0.083768
0.579805 0.188762 0.088597
0.579805 -0.460784 0.010266
0.59644 -0.321869 -0.082768
0.59644 0.743396 -0.002582
0.579805 0.618399 -0.054022
0.59644 -0.543078 0.072543
0.59644 -0.300486 -0.148164
0.579805 0.431217 0.095842
0.59644 0.207117 -0.02271
0.59644 0.656211 -0.071282
0.579805 0.002944 0.119085
0.59644 0.093107 0.180033
0.59644 0.314725 -0.132306
0.579805 -0.091362 -0.207888
0.586818 -0.566889 0.204481
0.579805 -0.496779 -0.068903
0.579805 -0.257473 0.164359
0.59644 0.2727 1e-06
0.579805 -0.331334 0.029006
0.59644 0.169693 -0.036951
0.59644 0.437393 0.158437
0.59644 -0.109788 0.003045
0.579805 -0.360583 -0.285849
0.579805 -0.428114 -0.09403
0.579805 0.161608 -0.012202
0.59644 0.514856 0.145946
0.579805 0.057095 0.062404
0.579805 -0.198949 -0.062853
0.579805 -0.448764 0.198103
0.59644 -0.034132 -0.24056
0.579805 0.13337 0.030739
0.579805 0.207303 -0.194215
0.579805 -0.403955 -0.271897
0.579805 0.605417 -0.121276
0.58821 0.763912 0.05039
0.59644 0.693868 -0.072042
0.579805 -0.183975 -0.282257
0.579805 -0.455304 -0.083908
0.579805 -0.247876 -0.015973
0.579805 -0.39746 -0.114494
0.59644 0.237472 -0.264054
0.579805 -0.335575 0.189486
0.579805 0.394277 -0.098311
0.59644 0.084564 -0.181768
0.59644 -0.01599 -0.197164
0.579805 -0.544374 -0.185483
0.59644 -0.265237 -0.139769
0.595913 -0.432044 -0.289153
0.579805 -0.47495 0.065977
0.579805 -0.13636 0.037712
0.59644 -0.276498 0.208731
0.59644 0.067767 0.114813
0.579805 0.184055 -0.075269
0.59644 0.211791 0.060765
0.59644 -0.073136 -0.121209
0.579805 -0.071216 -0.03583
0.579805 0.010697 -0.004997
0.59644 0.137964 0.06896
0.59644 -0.330474 -0.249532
0.59644 -0.037183 -0.111991
0.579805 0.309379 0.12638
0.59644 0.270154 0.122843
0.593334 -0.089063 -0.289153
0.59644 -0.256578 -0.183666
0.59644 0.331174 0.186049
0.579805 0.458358 0.180667
0.59644 -0.220914 -0.12066
0.579805 -0.434828 0.048603
0.59644 0.646052 -0.022244
0.59644 -0.283736 -0.181727
0.579805 0.194167 -0.039768
0.59644 -0.37939 -0.156231
0.582729 0.763912 -0.01339
0.59644 0.269515 0.151613
0.59644 -0.227422 -0.235852
0.59644 0.028343 -0.004285
0.579805 0.127191 0.145223
0.579805 -0.061851 -0.005086
0.579805 0.394006 0.020717
0.579805 0.674161 -0.097532
0.579805 -0.334287 -0.021992
0.59644 0.161752 0.081101
0.579805 -0.303235 0.094632
0.59644 0.664178 -0.04502
0.59644 -0.4269 -0.146447
0.579805 0.412511 0.161574
0.59644 0.511063 -0.046305
0.59644 -0.198677 -0.105951
0.579805 0.511622 -0.200655
0.579805 0.160991 -0.208162
0.579805 0.005974 -0.28812
0.579805 0.500917 -0.286868
0.59644 -0.073824 -0.196291
0.59644 0.360784 0.009236
0.59644 0.723909 -0.04208
0.579805 0.199604 -0.263926
0.59644 0.025523 0.191511
0.59644 0.574751 -0.228964
0.579805 -0.214401 -0.038626
0.579805 -0.385917 0.183566
0.59644 0.293688 -0.016287
0.59644 0.194945 -0.106164
0.59644 -0.160524 -0.1484
0.59644 0.654663 0.050105
0.59644 -0.509221 -0.019143
0.59644 0.123093 0.18108
0.59644 -0.145059 0.129221
0.579805 0.33749 -0.03529
0.579805 -0.415298 0.117249
0.59644 0.129657 -0.20455
0.59644 0.266235 -0.21259
0.59644 0.320657 0.051838
0.59644 0.059858 0.183788
0.59644 0.568655 0.204822
0.59644 0.321923 0.104597
0.59644 0.600356 -0.009156
0.579805 0.665673 0.080396
0.59644 0.408209 0.124088
0.59644 0.460406 0.131323
0.59644 -0.300419 -0.211582
0.59644 0.53961 -0.247502
0.59644 0.076627 -0.232554
0.59644 -0.035029 -0.02374
0.59644 -0.171654 -0.033633
0.59644 -0.165887 -0.009309
0.579805 0.285948 0.084544
0.579805 -0.253743 -0.266478
0.579805 0.419171 -0.224479
0.579805 0.514196 -0.096988
0.579805 -0.310789 -0.128235
0.59644 -0.09971 -0.039788
0.579805 -0.010327 0.080026
0.59644 -0.080982 0.080697
0.579805 -0.047754 -0.276909
0.579805 -0.423538 -0.223037
0.59644 -0.105261 0.037795
0.59644 -0.151638 0.183814
0.59644 0.294549 0.162826
0.59644 -0.561393 -0.084666
0.579805 -0.135644 -0.1923
0.579805 -0.119638 -0.01655
0.59644 0.515729 -0.165387
0.59644 -0.194797 0.081098
0.594996 -0.565206 -0.289153
0.59644 -0.075102 0.033018
0.59644 0.510234 -0.263748
0.59644 -0.200235 -0.147894
0.579805 -0.328092 -0.21064
0.59644 0.575864 0.03478
0.579805 -0.566193 0.009812
0.579805 0.119331 -0.106065
0.59644 0.710035 0.166979
0.579805 0.134852 -0.185275
0.59644 0.40455 -0.158985
0.579805 0.045837 0.15899
0.579805 -0.499839 -0.095118
0.579805 0.021513 -0.07736
0.59644 0.658359 -0.113551
0.59644 -0.444068 -0.056339
0.59644 0.569783 -0.122624
0.579805 0.371332 -0.266051
0.59644 0.028882 0.02501
0.579805 -0.558078 0.047142
0.579805 0.723686 -0.163459
0.579805 0.490978 -0.22385
0.579805 0.414228 -0.010296
0.59644 -0.417278 -0.257974
0.59644 -0.436027 0.1847
0.579805 -0.389973 0.101156
0.59644 0.52936 -0.219961
0.579805 0.652136 0.163501
0.579805 -0.558182 -0.273377
0.59644 -0.183888 0.143038
0.59644 0.278357 -0.035963
0.579805 0.001696 -0.229089
0.59644 0.081784 0.068888
0.59644 0.123976 -0.029603
0.579805 -0.228359 -0.156548
0.579805 0.592284 -0.170805
0.59644 0.375667 -0.05718
0.59644 -0.144475 -0.091121
0.579805 0.38413 0.071
0.59644 -0.394768 0.020938
0.59644 -0.2886 0.181272
0.579805 0.286454 -0.272775
0.584532 0.580373 -0.289153
0.590285 0.101177 -0.289153
0.59644 -0.365535 0.070669
0.59644 0.144174 0.117287
0.59644 0.686359 0.166221
0.579805 0.504082 -0.012972
0.579805 -0.108563 0.14889
0.579805 -0.130369 0.098569
0.59644 -0.266762 -0.06351
0.579805 0.430421 0.201336
0.579805 0.372346 0.162318
0.579805 -0.171409 -0.117362
0.579805 -0.337147 0.102453
0.579805 -0.303454 -0.254799
0.59644 -0.029542 0.089842
0.579805 0.654333 -0.006988
0.59644 0.176733 0.001791
0.59644 0.200562 0.165754
0.579805 0.564631 0.135849
0.59644 -0.469972 0.079993
0.59644 0.042748 -0.256768
0.59644 0.35753 0.18338
0.579805 -0.395995 -0.179222
0.579805 0.70128 0.128578
0.59644 -0.184804 -0.225791
0.579805 0.089481 -0.216809
0.579805 0.172941 0.145145
0.579805 -0.138408 0.014269
0.59644 0.160512 -0.170238
0.59644 0.39697 0.06376
0.59644 0.069106 -0.080571
0.579805 0.161043 0.189449
0.579805 0.511233 0.085129
0.59644 0.037497 0.116149
0.59315 0.763912 -0.096629
0.59644 -0.5434 0.130229
0.59644 0.400221 -0.184586
0.59644 0.039509 0.081732
0.59644 -0.27271 -0.270345
0.59644 0.226095 0.002476
0.579805 0.650897 -0.204006
0.579805 -0.393796 -0.155601
0.59644 0.221117 -0.06635
0.579805 0.753641 0.139147
0.579805 0.163542 0.036227
0.59644 -0.355641 -0.272476
0.59644 0.436745 -0.03581
0.59644 0.292828 -0.189296
0.579805 0.143602 -0.143274
0.579805 -0.35609 -0.075629
0.579805 -0.233581 -0.11422
0.59644 0.442813 0.104035
0.579805 -0.102081 -0.275161
0.59644 -0.445213 -0.238192
0.579805 0.278675 -0.129018
0.579805 -0.239096 0.043731
0.579805 0.606865 -0.085051
0.59644 -0.058333 -0.17896
0.579805 -0.026398 -0.211093
0.589573 0.701787 -0.289153
0.579805 -0.415395 0.068957
0.579805 0.331564 -0.196369
0.59644 -0.326148 0.140869
0.579805 -0.076888 -0.134635
0.59644 -0.375067 -0.260956
0.579805 0.222274 0.051647
0.579805 0.37242 0.029737
0.59644 -0.00914 -0.269223
0.59644 -0.180892 0.052815
0.59644 0.322782 -0.266429
0.579805 -0.284529 0.141696
0.579805 0.398195 -0.128889
0.579805 -0.475996 -0.048386
0.59644 0.335174 -0.164517
0.59644 0.364183 -0.136549
0.59644 -0.438604 -0.185249
0.579805 -0.3663 0.165974
0.59644 -0.094986 0.207037
0.579805 0.239731 -0.040562
0.59644 0.246536 0.193702
0.579805 0.751214 0.086213
0.579805 0.425138 0.058591
0.59644 -0.061771 0.069423
0.59644 -0.513262 0.056247
0.579805 -0.00952 0.039075
0.59644 -0.199214 -0.04672
0.579805 0.095984 0.145013
0.579805 0.567921 -0.160305
0.579805 0.050255 -0.150356
0.579805 -0.409549 0.15673
0.59644 -0.412104 0.130363
0.579805 0.24051 0.181289
0.59644 0.476483 0.180721
0.59644 0.24758 0.159241
0.579805 0.644221 -0.060453
0.59644 0.748499 -0.228378
0.579805 0.574022 -0.055776
0.579805 0.083613 -0.073866
0.59644 -0.408925 -0.087003
0.59644 -0.50031 0.093307
0.579805 0.534794 0.158429
0.59644 0.415688 -0.26977
0.59644 0.272753 -0.110866
0.59644 0.211231 -0.233743
0.59644 -0.078885 -0.082137
0.59644 0.190386 -0.152607
0.59644 -0.268624 0.032739
0.579805 -0.11776 -0.258396
0.59644 0.242528 -0.021766
0.579805 -0.442055 0.155631
0.59644 -0.348749 0.140317
0.59644 0.367966 -0.227574
0.579805 -0.049685 -0.207278
0.59644 0.379108 -0.251607
0.59644 -0.515491 -0.265363
0.59644 -0.274142 -0.210834
0.579805 0.28265 0.054175
0.59644 0.700827 -0.167183
0.579805 -0.507596 0.147095
0.579805 0.200991 0.199865
0.579805 -0.188426 -0.23931
0.59644 0.121978 -0.274972
0.579805 0.252889 -0.089665
0.579805 0.360214 -0.199995
0.579805 0.608174 0.114151
0.59644 0.158873 -0.261857
0.579805 0.353671 -0.113623
0.579805 -0.152184 -0.063788
0.579805 0.584461 -0.121232
0.579805 0.457829 0.009984
0.59644 -0.437389 0.000902
0.579805 -0.317255 -0.183795
0.579805 -0.004288 -0.189158
0.579805 0.008456 -0.108778
0.579805 -0.183131 0.092717
0.579805 -0.461539 -0.171345
0.579805 -0.017299 0.11137
0.579805 -0.121765 -0.127981
0.579805 0.583664 0.123784
0.59644 -0.271374 0.169526
0.59644 0.561674 0.056959
0.579805 -0.269506 -0.242103
0.579805 -0.176252 -0.153494
0.59644 0.620649 -0.078153
0.579805 0.21928 0.183248
0.579805 0.490305 0.093517
0.579805 -0.145691 -0.23415
0.579805 0.443792 -0.259594
0.579805 -0.138676 0.139811
-0.579101 0.763906 -0.277223
-0.579101 -0.255869 -0.266765
-0.579101 0.45585 -0.027084
-0.579101 0.057314 -0.063339
-0.579101 -0.384804 0.025515
-0.579101 0.346766 -0.281572
-0.562466 0.745212 -0.015658
-0.572319 -0.008683 -0.289153
-0.562466 -0.160177 0.000687
-0.562466 0.249396 0.039103
-0.562466 -0.54657 -0.089467
-0.579101 0.595152 -0.167174
-0.579101 0.584998 0.122274
-0.579101 0.005494 0.110312
-0.579101 -0.385705 -0.155979
-0.562466 -0.281935 0.160148
-0.562466 -0.111446 -0.15996
-0.579101 0.302824 -0.126112
-0.565009 0.501954 -0.289153
-0.579101 0.432204 0.123794
-0.579101 -0.465749 0.145032
-0.562466 -0.254823 -0.121589
-0.562466 0.611101 -0.033688
-0.562466 0.428471 -0.168407
-0.579101 0.635046 -0.284957
-0.579101 -0.514988 0.029502
-0.579101 0.179022 -0.123225
-0.579101 -0.132244 -0.285188
-0.579101 0.167273 0.122862
-0.562466 -0.042627 -0.005463
-0.579101 -0.496052 -0.204676
-0.579101 -0.162637 0.117034
-0.579101 -0.26536 0.043627
-0.579101 -0.399074 -0.283652
-0.579101 0.363604 0.031271
-0.579101 -0.005922 -0.175233
-0.562466 -0.442103 -0.064468
-0.562466 0.161768 -0.01495
-0.562466 0.51254 0.188519
-0.562466 0.531268 -0.091748
-0.562466 0.269588 -0.222807
-0.579101 -0.318906 -0.049545
-0.562466 0.542103 0.036709
-0.562466 0.072876 -0.237518
-0.579101 0.65216 0.052933
-0.579101 0.069093 0.03267
-0.562466 0.318699 0.12194
-0.562466 -0.069385 0.161886
-0.562466 0.367404 -0.062291
-0.579101 -0.364871 0.123884
-0.579101 -0.555346 0.162526
-0.562466 0.239524 -0.05836
-0.562466 -0.305497 -0.197167
-0.579101 0.68473 0.176112
-0.562466 -0.20649 -0.198045
-0.56994 0.763912 0.069498
-0.579101 -0.177827 -0.090117
-0.579101 0.678554 -0.096337
-0.579101 -0.03113 -0.087391
-0.562466 0.691646 -0.221267
-0.562466 0.245497 0.162864
-0.579101 -0.095146 0.056567
-0.574636 -0.480232 -0.289153
-0.579101 0.525279 -0.208448
-0.562466 -0.070036 -0.238214
-0.573313 0.227092 -0.289153
-0.579101 0.063842 -0.140597
-0.579101 -0.563195 -0.168413
-0.579101 0.422739 -0.277577
-0.562466 -0.483179 -0.130908
-0.562466 0.36336 -0.207532
-0.579101 -0.5558 -0.253768
-0.562466 -0.109601 -0.065081
-0.562466 -0.452955 0.067361
-0.562466 0.756571 0.161513
-0.562466 0.436313 0.042752
-0.562553 0.763912 -0.090267
-0.579101 0.130852 -0.288585
-0.579101 0.453476 -0.104027
-0.562466 0.095804 0.117423
-0.569281 0.763912 -0.207789
-0.579101 -0.249024 -0.044785
-0.579101 -0.553633 0.087643
-0.562466 0.117458 -0.181181
-0.562466 -0.325994 -0.125447
-0.562466 0.300343 -0.026468
-0.579101 0.138661 0.047474
-0.562466 -0.226288 0.096927
-0.562466 0.491802 0.095542
-0.579101 -0.430754 -0.220497
-0.579101 0.237692 -0.166813
-0.579101 0.525537 -0.027803
-0.579101 -0.454525 0.002783
-0.579101 0.612801 -0.10052
-0.579101 0.375575 -0.125417
-0.562466 0.661286 0.117039
-0.562466 -0.325606 0.074279
-0.579101 -0.004779 0.044133
-0.562466 0.674986 -0.033238
-0.579101 0.56329 -0.28548
-0.562466 -0.372815 -0.08346
-0.579101 0.373849 0.164881
-0.579101 -0.31995 -0.278749
-0.579101 0.170572 0.200575
-0.579101 0.593526 -0.228738
-0.579101 0.175293 -0.190428
-0.562466 -0.058774 0.102303
-0.562466 0.370335 0.090572
-0.579101 0.120479 -0.055625
-0.562466 0.713558 0.037856
-0.562466 0.031387 -0.010782
-0.579101 -0.193828 0.049691
-0.562466 -0.373542 -0.211913
-0.562466 0.01059 -0.233673
-0.579101 0.207178 0.079086
-0.579101 0.285993 -0.287118
-0.579101 -0.314743 0.00921
-0.562466 0.509793 -0.154196
-0.579101 -0.146583 -0.20386
-0.562932 -0.191191 -0.289153
-0.562466 -0.160023 0.173061
-0.579101 0.307491 0.047743
-0.579101 0.621692 0.16724
-0.562466 0.656132 -0.175422
-0.562466 0.397646 -0.01311
-0.562466 -0.397018 0.17581
-0.579101 0.593568 0.056172
-0.579101 0.214592 -0.232168
-0.562466 0.108945 0.193772
-0.579101 -0.099689 0.000414
-0.579101 0.709833 0.091476
-0.562466 -0.378694 -0.02739
-0.562466 0.216331 -0.005893
-0.579101 -0.251319 -0.172698
-0.562466 0.251562 0.109451
-0.562466 -0.415384 0.117204
-0.579101 -0.054947 -0.135303
-0.562466 0.569624 0.179825
-0.579101 0.484464 0.027642
-0.579101 -0.24663 0.200058
-0.579101 0.014299 -0.12179
-0.579101 -0.109561 0.13195
-0.579101 0.476957 0.151694
-0.579101 0.429175 -0.225432
-0.579101 0.033728 0.154484
-0.579101 0.173558 -0.063238
-0.562466 -0.448844 -0.170317
-0.579101 0.234525 -0.107572
-0.562466 0.1039 -0.00184
-0.562466 -0.159484 -0.135522
-0.579101 0.135946 -0.225906
-0.579101 -0.073125 -0.190034
-0.579101 0.713976 -0.267027
-0.562466 -0.32759 0.182467
-0.562466 -0.204008 0.142457
-0.579101 -0.292228 0.113563
-0.562466 0.542154 0.093993
-0.579101 0.641868 0.002279
-0.579101 0.081293 -0.284558
-0.562466 0.576689 -0.070872
-0.562466 0.488163 -0.067232
-0.579101 0.70711 -0.168549
-0.579101 0.645132 -0.223841
-0.562466 0.05341 -0.185942
-0.579101 0.305715 -0.076796
-0.562466 -0.203356 -0.036973
-0.579101 0.315276 -0.243826
-0.579101 0.296951 0.16269
-0.579101 -0.016452 0.162533
-0.562466 -0.560317 -0.028509
-0.562466 -0.505187 0.074264
-0.579101 -0.100576 -0.109666
-0.562466 -0.510659 0.151004
-0.562466 -0.26005 -0.22169
-0.562466 -0.073526 -0.286255
-0.579101 -0.413036 -0.104014
-0.579101 0.422697 -0.061953
-0.579101 -0.186218 -0.238122
-0.562466 0.014236 -0.074318
-0.562466 0.033216 0.075957
-0.579101 -0.149734 0.066407
-0.562466 0.142487 0.159287
-0.579101 0.333941 -0.17501
-0.579101 -0.212818 -0.133917
-0.562466 -0.271809 0.000587
-0.579101 0.649098 -0.132487
-0.562466 0.441174 0.176192
-0.562466 -0.065005 -0.052518
-0.579101 0.623448 0.091581
-0.579101 -0.29395 -0.154192
-0.579101 0.539622 0.136916
-0.579101 0.185696 -0.267527
-0.562466 -0.388736 0.080447
-0.568695 0.037438 -0.289153
-0.562466 0.133359 -0.138787
-0.562466 0.33353 0.184527
-0.562466 0.074848 0.164051
-0.579101 -0.337004 -0.169456
-0.569936 0.763912 -0.147256
-0.572216 0.763912 0.024049
-0.562466 0.550717 -0.135642
-0.579101 0.469947 -0.167618
-0.562466 0.202317 0.173171
-0.562466 0.212374 0.129956
-0.579101 -0.508544 -0.074268
-0.579101 0.096145 -0.092503
-0.562466 0.179343 0.025558
-0.562466 0.278377 -0.170452
-0.562466 -0.543859 -0.214792
-0.579101 -0.336211 -0.237905
-0.562466 0.717938 0.132667
-0.579101 0.638961 -0.065269
-0.579101 -0.419211 -0.029391
-0.579101 0.691905 0.003749
-0.579101 0.717421 -0.076541
-0.562466 -0.554878 0.0352
-0.579101 -0.46934 0.18845
-0.579101 0.282477 0.08397
-0.579101 -0.030534 -0.241129
-0.579101 0.407845 0.196402
-0.562466 -0.291579 -0.100562
-0.579101 0.483494 -0.215086
-0.579101 0.104117 0.071795
-0.579101 0.592799 -0.000155
-0.579101 0.071294 -0.021615
-0.562466 -0.163141 -0.047327
-0.562466 0.16465 0.075034
-0.562466 0.411216 0.084497
-0.579101 0.392773 -0.183815
-0.562466 -0.125505 0.097734
-0.562466 0.39109 0.13138
-0.562466 -0.04825 0.062496
-0.579101 0.360292 -0.017778
-0.562466 -0.104585 -0.216157
-0.579101 -0.292691 -0.239524
-0.562466 -0.234975 0.022341
-0.562466 0.685962 -0.135862
-0.579101 0.14398 -0.090816
-0.562466 0.015898 0.186586
-0.562466 0.041611 0.116168
-0.579101 -0.001712 -0.026273
-0.579101 -0.245238 0.159948
-0.562466 -0.039365 -0.203919
-0.562466 -0.476648 0.035081
-0.562466 0.050637 -0.098967
-0.562466 0.405957 -0.094072
-0.562466 0.340562 -0.134673
-0.579101 0.251268 -0.253977
-0.562466 -0.329138 0.129173
-0.562466 0.282027 0.199169
-0.562466 0.719945 0.183492
-0.562466 -0.355782 -0.276909
-0.567316 -0.566889 0.202649
-0.562466 -0.435163 0.163654
-0.579101 -0.459992 0.106173
-0.562466 0.465315 -0.275243
-0.562466 0.269793 -0.103147
-0.562466 -0.01823 -0.136059
-0.579101 0.462611 0.066599
-0.579101 0.331025 0.009509
-0.562466 0.253398 -0.021771
-0.562466 0.500166 -0.115397
-0.56663 0.763912 -0.049687
-0.562466 0.420963 -0.130238
-0.579101 0.664037 -0.259139
-0.579101 -0.513594 -0.112735
-0.579101 -0.415707 -0.181708
-0.562466 0.622562 0.132333
-0.562466 -0.350273 0.02132
-0.562466 -0.02907 0.130155
-0.562466 -0.285101 -0.057566
-0.562466 0.325954 0.077166
-0.579101 0.030831 0.02851
-0.579101 0.106264 -0.250331
-0.562466 0.680833 0.072674
-0.579101 0.717656 -0.114729
-0.579101 -0.404261 -0.064515
-0.579101 0.349323 -0.097916
-0.579101 -0.126537 0.179679
-0.562466 -0.266115 0.091665
-0.579101 -0.210963 0.175719
-0.579101 0.475892 0.18933
-0.562466 -0.471613 -0.087728
-0.562466 0.206434 -0.142764
-0.562466 0.56378 -0.035619
-0.579101 0.287703 0.004603
-0.566888 0.381331 -0.289153
-0.579101 -0.131862 0.019274
-0.562466 -0.417006 0.003856
-0.579101 0.104981 0.150052
-0.579101 0.064123 0.091806
-0.562466 -0.209994 -0.073484
-0.579101 -0.433017 -0.141239
-0.579101 0.243597 0.072962
-0.562466 0.335571 -0.043818
-0.579101 -0.149857 -0.243787
-0.562466 -0.076696 0.02355
-0.579101 0.399471 0.038354
-0.562466 -0.029478 -0.044201
-0.579101 -0.246786 0.123509
-0.562466 0.462557 -0.135015
-0.562466 0.59868 -0.285015
-0.562466 0.302939 -0.208516
-0.579101 0.565061 -0.187414
-0.579101 -0.391373 -0.238738
-0.562466 0.23129 -0.198345
-0.562466 0.60452 -0.136415
-0.579101 -0.494266 -3.7e-05
-0.562466 0.574492 -0.106869
-0.562466 0.366541 -0.165647
-0.579101 -0.519163 -0.260433
-0.562466 0.213493 0.038029
-0.579101 -0.168242 -0.175263
-0.562466 0.192381 -0.094442
-0.562466 0.606049 -0.199639
-0.562466 -0.304001 -0.021732
-0.562466 -0.161965 0.036303
-0.579101 -0.303029 0.042762
-0.562466 0.452659 0.011259
-0.579101 0.138825 0.012013
-0.579101 -0.35406 -0.05131
-0.562466 0.09975 -0.214893
-0.579101 -0.139531 -0.072776
-0.562466 -0.19329 0.085109
-0.579101 0.510163 -0.256871
-0.579101 -0.531537 -0.017666
-0.562466 -0.547815 0.130644
-0.567146 0.763912 -0.244596
-0.579101 -0.430267 0.047057
-0.579101 -0.259833 -0.077727
-0.579101 -0.2284 0.052196
-0.579101 -0.116294 -0.030012
-0.562466 0.492695 -0.001525
-0.562466 -0.320463 -0.081637
-0.562466 0.458553 -0.197985
-0.562466 0.740968 -0.17392
-0.562466 0.399941 -0.214218
-0.579101 -0.039778 0.033542
-0.563483 0.735237 -0.289153
-0.579101 -0.404 0.146583
-0.562466 0.28093 0.137281
-0.562466 -0.533561 -0.163572
-0.562466 0.251302 -0.132446
-0.562466 0.680892 0.145095
-0.562466 0.444717 0.096636
-0.579101 -0.074189 -0.087944
-0.579101 0.024398 -0.192953
-0.579101 -0.489255 -0.037608
-0.579101 -0.234326 -0.24037
-0.579101 0.567816 0.079323
-0.579101 -0.531683 0.059027
-0.562466 0.650635 0.17319
-0.579101 0.12377 0.099258
-0.562466 -0.355946 0.088943
-0.562466 0.215287 0.204242
-0.562466 -0.486178 -0.164427
-0.579101 0.035947 -0.24816
-0.562466 0.551857 -0.227527
-0.579101 0.732676 -0.215069
-0.566799 -0.290554 -0.289153
-0.579101 -0.048754 0.182397
-0.579101 -0.06184 0.131138
-0.579101 -0.505105 0.18684
-0.579101 0.683572 -0.193498
-0.562466 -0.197438 0.021065
-0.579101 0.191235 -0.019861
-0.565146 -0.224289 -0.289153
-0.579101 0.348077 -0.248174
-0.562466 -0.423373 0.085097
-0.579101 0.181696 -0.229348
-0.579101 0.003452 0.010119
-0.579101 0.155824 -0.156221
-0.562466 -0.118642 -0.256679
-0.562466 -0.168603 -0.265254
-0.562466 -0.138455 -0.110343
-0.562466 0.745624 -0.11879
-0.579101 -0.381097 -0.111216
-0.579101 -0.338282 0.155818
-0.562466 0.52663 0.007892
-0.562466 -0.211083 -0.165783
-0.579101 0.467517 0.11285
-0.562466 0.199773 -0.206476
-0.564485 -0.427559 -0.289153
-0.562466 0.096422 0.03775
-0.579101 0.61448 -0.259936
-0.562466 -0.028677 0.090368
-0.562466 0.034559 -0.140774
-0.562466 0.179315 0.150442
-0.562466 0.624513 0.05367
-0.579101 0.351848 0.067468
-0.579101 -0.07613 -0.021617
-0.579101 -0.086131 0.099841
-0.562466 0.098732 -0.039256
-0.562466 0.714165 -0.022694
-0.579101 0.131592 -0.025922
-0.562466 -0.141777 -0.170762
-0.562466 0.154906 -0.27674
-0.562466 0.643654 -0.030082
-0.579101 -0.085235 -0.154753
-0.562466 -0.28669 0.063818
-0.579101 -0.564216 -0.057213
-0.562466 0.100786 -0.122124
-0.562466 0.204771 -0.065593
-0.579101 0.248057 0.004315
-0.562466 0.523931 0.159284
-0.562466 -0.528074 0.106196
-0.579101 0.275891 0.037172
-0.562466 0.036669 -0.046636
-0.562466 -0.003954 0.071327
-0.562466 0.596343 0.160329
-0.562466 -0.38134 -0.181849
-0.579101 -0.240971 -0.203769
-0.562466 -0.471902 -0.214686
-0.562466 -0.33478 -0.207223
-0.562466 0.038013 -0.215196
-0.579101 -0.178405 -0.026212
-0.579101 0.547863 -0.071664
-0.579101 0.30694 -0.159966
-0.579101 0.324167 0.148052
-0.579101 0.712069 0.158675
-0.562466 0.617017 0.009669
-0.579101 -0.150511 0.145308
-0.562466 0.523981 -0.061713
-0.562466 -0.192709 -0.111248
-0.579101 -0.32867 0.103381
-0.579101 0.57644 -0.137318
-0.562466 0.4219 0.015698
-0.579101 -0.186932 -0.057152
-0.579101 0.400588 -0.254112
-0.579101 0.006734 -0.259427
-0.579101 0.503092 -0.088041
-0.579101 -0.283543 -0.184046
-0.562466 -0.56406 0.005431
-0.579101 -0.124181 -0.131548
-0.562466 -0.056053 -0.10982
-0.562466 -0.396295 -0.131674
-0.562466 0.506905 0.03968
-0.579101 0.722519 0.014096
-0.579101 -0.309217 0.147189
-0.579101 0.726656 0.066267
-0.579101 0.421191 -0.022255
-0.562466 0.390866 -0.147737
-0.579101 -0.182268 0.185048
-0.562466 -0.406384 -0.21431
-0.579101 -0.550531 -0.114294
-0.579101 0.678237 -0.058155
-0.579101 0.516212 -0.178461
-0.562466 0.283993 -0.24904
-0.562466 0.447249 -0.065896
-0.579101 -0.521819 -0.189508
-0.562466 -0.109724 0.156789
-0.562466 -0.088472 0.192783
-0.579101 -0.095159 -0.248804
-0.579101 0.488727 -0.025907
-0.579101 -0.474297 -0.256386
-0.579101 -0.37269 0.052618
-0.562466 0.451449 0.205912
-0.579101 -0.032294 -0.161719
-0.562466 0.281373 -0.07434
-0.562466 0.197358 -0.170831
-0.579101 0.564227 -0.25031
-0.562466 -0.282791 -0.132663
-0.579101 0.075931 0.063692
-0.562466 0.645076 -0.088601
-0.579101 -0.460551 -0.025877
-0.579101 -0.191896 0.118086
-0.562466 -0.122953 -0.193025
-0.579101 -0.445688 -0.0881
-0.562466 0.010163 0.158073
-0.579101 -0.413481 -0.258491
-0.562466 0.491691 -0.192814
-0.579101 0.334686 -0.067493
-0.562466 0.272573 0.060611
-0.579101 0.337667 0.107915
-0.562466 0.327309 -0.013755
-0.562466 0.67153 0.015429
-0.562466 0.154453 0.103282
-0.562466 -0.378163 0.154241
-0.562466 0.342168 0.04627
-0.562466 -0.450289 0.127649
-0.562466 -0.434665 -0.195178
-0.562466 -0.475227 -0.059369
-0.579101 0.600576 -0.074704
-0.562466 -0.209402 -0.23685
-0.562466 -0.245235 -0.009816
-0.579101 0.077853 -0.115816
-0.562466 -0.478859 0.084987
-0.562466 0.652926 0.089906
-0.562466 0.540935 -0.191602
-0.579101 0.577725 0.023869
-0.562466 -0.34217 -0.031657
-0.562466 -0.133056 -0.04571
-0.579101 0.426831 0.063621
-0.562466 -0.021819 0.189283
-0.579101 0.555819 -0.014201
-0.562466 -0.479974 0.168252
-0.579101 0.531114 -0.124139
-0.562466 0.57167 0.103904
-0.562466 0.20975 -0.037919
-0.579101 0.642677 0.142671
-0.562466 0.34181 -0.226453
-0.579101 -0.513241 -0.226749
-0.579101 -0.502369 -0.142564
-0.579101 -0.535622 0.182309
-0.579101 0.490127 0.061801
-0.562466 0.509204 0.073729
-0.579101 0.389149 0.012443
-0.562466 0.630633 0.203821
-0.579101 -0.135623 -0.009927
-0.579101 -0.000966 -0.054067
-0.562466 -0.004465 -0.094811
-0.562466 0.320972 -0.092912
-0.579101 0.067338 0.143172
-0.579101 0.573556 0.158098
-0.562466 -0.288794 0.022376
-0.579101 0.277912 -0.202446
-0.579101 -0.464537 -0.185653
-0.562466 -0.085671 -0.125749
-0.579101 0.737617 -0.095791
-0.579101 0.583675 -0.050099
-0.562466 -0.037471 0.156215
-0.579101 0.278658 -0.027943
-0.579101 -0.432103 0.14216
-0.579101 0.656718 0.194011
-0.562466 0.158328 -0.116742
-0.562466 0.226706 0.08843
-0.579101 0.089891 0.183576
-0.562466 -0.269619 0.135823
-0.579101 -0.058719 0.20776
-0.579101 0.59096 0.093655
-0.562466 -0.441388 -0.01605
-0.579101 -0.09574 -0.047793
-0.562466 -0.226003 0.191063
-0.579101 0.274251 -0.149376
-0.562466 0.435276 -0.092643
-0.562466 0.159561 -0.239178
-0.562466 0.225238 -0.08341
-0.579101 -0.175613 0.019932
-0.562466 0.586905 -0.020613
-0.567392 -0.157041 -0.289153
-0.562466 0.721709 -0.13559
-0.579101 0.149365 -0.197814
-0.562466 0.573602 -0.211685
-0.579101 0.04611 0.004356
-0.579101 0.702467 0.196493
-0.562466 0.420935 0.141574
-0.579101 0.312726 -0.285298
-0.579101 -0.120705 0.07729
-0.562466 0.452765 0.12798
-0.579101 0.042249 -0.160285
-0.579101 -0.450811 0.029274
-0.579101 -0.333422 0.033711
-0.562466 0.055262 0.182206
-0.562466 0.258353 -0.273595
-0.579101 0.144804 0.082862
-0.579101 0.735631 0.12165
-0.579101 -0.355825 -0.095528
-0.579101 -0.280025 -0.216031
-0.579101 -0.199927 0.207728
-0.562466 -0.40833 0.06248
-0.562466 0.153541 -0.068615
-0.562466 0.021105 0.052308
-0.562466 0.204139 -0.277101
-0.579101 0.265682 0.16741
-0.579101 0.16152 0.175639
-0.579101 -0.2752 0.195943
-0.579101 0.251685 -0.195195
-0.579101 0.434646 -0.148743
-0.579101 0.723574 -0.190203
-0.579101 -0.273887 -0.11379
-0.579101 -0.043273 -0.059488
-0.562466 0.188984 0.088699
-0.579101 0.699548 0.064185
-0.579101 -0.367305 0.191611
-0.579101 0.251551 0.129957
-0.562466 -0.129387 0.123819
-0.579101 0.446239 -0.181641
-0.579101 -0.225919 0.142004
-0.562466 0.21424 -0.10913
-0.579101 0.444916 0.146783
-0.579101 -0.305637 -0.130681
-0.562466 0.065102 -0.272361
-0.579101 -0.269373 -0.019464
-0.562466 -0.07092 0.079134
-0.562466 -0.464129 -0.112791
-0.562466 0.630172 -0.172303
-0.579101 0.350828 0.152531
-0.579101 -0.051844 -0.031218
-0.579101 0.372392 -0.085703
-0.579101 0.609768 0.03575
-0.562466 -0.277169 -0.267211
-0.579101 -0.048634 0.084994
-0.562466 0.436059 -0.26258
-0.579101 -0.528472 0.135951
-0.562466 0.7577 0.093643
-0.562466 0.257941 0.209033
-0.562466 0.074813 -0.049421
-0.562466 0.584776 -0.184263
-0.579101 -0.227562 -0.059432
-0.579101 -0.439091 -0.254137
-0.579101 0.440025 -0.004369
-0.579101 0.289253 0.11918
-0.579101 -0.023495 0.067498
-0.562466 -0.182622 -0.161492
-0.562466 0.475194 -0.089701
-0.579101 -0.354121 -0.216224
-0.579101 0.504839 0.164842
-0.562466 0.739091 0.042075
-0.562466 0.015222 0.127579
-0.566715 0.103523 -0.289153
-0.579101 0.454638 0.030799
-0.562466 0.441404 -0.040385
-0.562466 0.646699 -0.250022
-0.579101 0.16416 0.050673
-0.576927 0.763912 0.181446
-0.562466 -0.166488 -0.233499
-0.579101 -0.331616 -0.010112
-0.562466 -0.482026 -0.015226
-0.579101 0.539089 0.192669
-0.562466 -0.293879 0.187851
-0.579101 -0.419428 0.174945
-0.579101 -0.483141 0.053265
-0.562466 0.405232 0.177294
-0.562466 0.30493 -0.057534
-0.562466 0.082933 0.087582
-0.579101 -0.410024 0.028896
-0.579101 -0.38311 0.106148
-0.562466 0.549734 -0.271832
-0.579101 -0.479539 0.123669
-0.579101 0.124403 0.133666
-0.562466 0.472324 -0.036916
-0.579101 0.382827 -0.050895
-0.579101 0.032579 -0.092524
-0.579101 0.066821 0.198754
-0.579101 -0.244716 0.071635
-0.579101 0.365529 0.109078
-0.579101 0.511131 -0.006521
-0.562466 0.049853 0.027433
-0.579101 0.62395 -0.210059
-0.562466 0.406476 0.111383
-0.579101 0.211001 0.111057
-0.579101 -0.008615 -0.228747
-0.579101 0.552851 0.020084
-0.562466 0.700938 -0.106019
-0.579101 -0.201369 -0.272852
-0.579101 0.497461 -0.133937
-0.579101 0.41534 -0.194661
-0.562466 0.12664 -0.097841
-0.562466 0.005897 -0.209096
-0.562466 -0.215913 -0.101925
-0.579101 0.219842 0.166771
-0.579101 0.235222 0.026979
-0.579101 0.644266 -0.189794
-0.562466 -0.218106 0.121836
-0.562466 0.505334 -0.213734
-0.562466 -0.080016 0.117425
-0.579101 0.744963 -0.060114
-0.579101 0.551363 -0.208963
-0.579101 -0.285381 -0.039032
-0.579101 -0.338126 0.06067
-0.579101 -0.230415 -0.151395
-0.579101 -0.312664 -0.174202
-0.579101 0.344926 -0.152524
-0.579101 0.287875 -0.099908
-0.579101 0.636696 0.118641
-0.562466 0.52691 0.056459
-0.579101 -0.144933 0.196134
-0.579101 0.096968 -0.06307
-0.579101 0.092663 0.012484
-0.562466 0.615383 0.107847
-0.579101 -0.321543 -0.149459
-0.562466 0.750084 -0.265519
-0.562466 -0.539906 -0.188618
-0.579101 0.138975 -0.175565
-0.562466 0.715639 -0.226423
-0.579101 0.54636 -0.104941
-0.562466 0.26178 0.08261
-0.579101 0.197037 0.153362
-0.579101 -0.298347 -0.069651
-0.579101 0.728413 -0.239133
-0.579101 -0.173459 0.072241
-0.562466 -0.056558 -0.085157
-0.562466 -0.102928 -0.275326
-0.579101 0.251964 -0.220206
-0.562466 -0.408996 -0.081679
-0.562466 0.39087 -0.068849
-0.577471 -0.566889 0.132348
-0.562466 -0.387114 -0.059941
-0.579101 0.157248 -0.032006
-0.579101 -0.074938 0.043193
-0.562466 0.283588 0.102495
-0.562466 -0.304082 0.085388
-0.562466 0.645812 0.019409
-0.579101 0.238276 0.188023
-0.579101 0.615419 -0.184795
-0.579101 0.733558 -0.028754
-0.562466 0.136407 -0.048345
-0.579101 0.116064 -0.141144
-0.579101 0.571168 -0.16082
-0.562466 0.658538 -0.212727
-0.579101 0.477194 -0.108088
-0.579101 -0.22021 0.07481
-0.562466 -0.403001 -0.157036
-0.579101 -0.40473 -0.008363
-0.579101 -0.018463 0.116553
-0.579101 -0.251574 0.017745
-0.579101 -0.444648 -0.043693
-0.579101 -0.561483 0.05101
-0.579101 0.497246 -0.048189
-0.579101 0.615605 0.068244
-0.562466 -0.024837 -0.223445
-0.562466 -0.54079 0.010561
-0.579101 -0.390689 -0.196084
-0.579101 0.295478 -0.265289
-0.562466 -0.56136 -0.127366
-0.562466 -0.061049 -0.151108
-0.579101 0.213874 -0.167336
-0.579101 0.696763 -0.283292
-0.562466 0.692029 -0.013103
-0.579101 0.030891 0.179083
-0.579101 0.076389 -0.26001
-0.562466 0.365047 -0.038842
-0.562466 -0.377217 -0.267132
-0.562466 0.697276 -0.040864
-0.575452 0.763912 -0.009619
-0.562466 -0.306313 -0.220704
-0.562466 -0.16965 0.151651
-0.562466 0.634208 0.07574
-0.562466 -0.061983 -0.210089
-0.579101 0.056695 -0.234322
-0.562466 0.626692 -0.054288
-0.562466 -0.116516 0.025219
-0.579101 0.589555 -0.095332
-0.579101 0.396132 0.077994
-0.562466 -0.238726 -0.183226
-0.562466 0.468435 0.095291
-0.579101 -0.272421 0.076535
-0.579101 -0.126966 -0.154832
-0.562466 -0.019394 -0.007032
-0.579101 0.314788 -0.03401
-0.562466 -0.24545 -0.142904
-0.562466 -0.145567 -0.259503
-0.579101 0.371039 -0.24462
-0.579101 0.428677 0.094484
-0.579101 -0.524813 0.090456
-0.562466 0.662519 -0.279475
-0.562466 -0.520516 0.176866
-0.562466 -0.152421 -0.021092
-0.579101 0.470766 -0.074274
-0.562466 0.567978 0.063334
-0.562466 -0.401753 -0.027253
-0.562466 0.305978 0.088678
-0.562466 -0.231699 -0.216744
-0.579101 -0.234588 -0.126394
-0.579101 -0.530677 0.15982
-0.562466 -0.426833 -0.043366
-0.562466 0.045114 0.138904
-0.562466 -0.52274 -0.244962
-0.562466 -0.037374 -0.123344
-0.562466 0.565535 0.126045
-0.579101 0.034716 0.10195
-0.579101 -0.534585 -0.277398
-0.579101 0.021158 -0.027243
-0.562466 0.553741 -0.05709
-0.562466 0.185508 -0.053056
-0.562466 0.543236 0.171519
-0.579101 -0.290343 0.006786
-0.579101 0.213968 -0.022149
-0.562466 0.600191 0.070941
-0.579101 0.257967 0.05219
-0.579101 0.253036 -0.037404
-0.579101 0.187235 0.111861
-0.579101 -0.201276 -0.177766
-0.579101 0.113414 -0.222963
-0.562466 -0.306948 0.108822
-0.562466 -0.24903 0.184847
-0.562466 -0.550683 0.179162
-0.562466 0.692908 -0.084869
-0.579101 -0.31155 0.16969
-0.562466 0.407865 -0.181208
-0.562466 0.464034 0.17967
-0.562466 -0.356373 -0.197239
-0.579101 -0.320011 -0.211085
-0.579101 -0.077434 -0.061366
-0.579101 0.570546 -0.228687
-0.562466 -0.411704 0.197724
-0.579101 0.731477 0.099534
-0.562466 0.022185 0.016088
-0.579101 0.372753 0.059191
-0.562466 -0.49444 0.135433
-0.562466 -0.379765 0.126523
-0.579101 -0.004275 0.18143
-0.562466 -0.494697 0.197798
-0.562466 -0.348909 0.110258
-0.579101 0.269155 -0.083138
-0.579101 0.397145 -0.278947
-0.579101 0.010542 -0.143905
-0.562466 -0.031704 0.047359
-0.562466 0.666846 0.049706
-0.579101 0.663264 -0.004401
-0.579101 -0.195741 -0.154247
-0.562466 0.749701 -0.223679
-0.562466 0.140718 -0.211732
-0.579101 0.687489 0.092543
-0.562466 -0.454048 0.175598
-0.579101 0.448965 -0.080699
-0.579101 -0.50838 -0.051955
-0.579101 -0.360299 0.074731
-0.579101 -0.259843 -0.236523
-0.562466 -0.341989 0.000471
-0.579101 -0.103154 -0.172217
-0.579101 -0.030192 -0.026082
-0.579101 0.18373 0.17454
-0.579101 0.203645 0.027056
-0.579101 0.304398 -0.223171
-0.562466 0.056891 -0.024687
-0.579101 0.545437 -0.037677
-0.562466 0.308043 0.141425
-0.562466 -0.391914 0.012646
-0.579101 -0.057263 -0.006468
-0.579101 -0.386204 -0.077333
-0.562466 -0.066513 0.189926
-0.562466 0.075431 -0.188065
-0.579101 0.52679 0.174301
-0.579101 -0.340361 0.084645
-0.562466 0.092478 -0.161908
-0.579101 0.548236 0.1579
-0.562466 0.700868 -0.25328
-0.579101 -0.055562 -0.164534
-0.579101 0.759742 -0.122098
-0.562466 0.358681 -0.266256
-0.579101 0.599241 0.146178
-0.562466 -0.564537 -0.207193
-0.579101 -0.436762 0.194483
-0.562466 0.164402 -0.09558
-0.579101 0.699967 -0.139243
-0.562466 0.533849 -0.016056
-0.579101 0.525183 -0.076052
-0.562466 0.741511 0.187787
-0.579101 0.627523 -0.128328
-0.579101 -0.546173 -0.15458
-0.562466 0.458534 0.150888
-0.579101 0.286698 0.062121
-0.579101 -0.533169 -0.101015
-0.579101 0.631068 0.189691
-0.579101 0.159263 -0.132491
-0.579101 -0.441897 0.094
-0.579101 0.14974 -0.249271
-0.579101 -0.313543 -0.233214
-0.562466 0.685061 -0.157619
-0.562466 0.122104 0.166941
-0.579101 -0.049542 0.014084
-0.579101 0.246858 0.094472
-0.579101 0.216606 0.189911
-0.562466 0.221976 0.018005
-0.562466 -0.563672 -0.182388
-0.562466 0.389653 -0.10843
-0.562466 -0.299402 -0.169958
-0.579101 0.389171 -0.205426
-0.579101 -0.038484 -0.182493
-0.562466 0.003349 -0.132104
-0.562466 -0.31161 -0.108688
-0.579101 0.416516 -0.001166
-0.562466 -0.492359 -0.276088
-0.579101 -0.370338 -0.243536
-0.579101 0.490595 0.135027
-0.579101 0.344018 -0.121464
-0.562466 0.675555 -0.235547
-0.579101 0.670609 -0.132721
-0.579101 -0.510176 -0.279963
-0.579101 0.757955 -0.077963
-0.562466 0.225491 0.154523
-0.579101 0.703687 -0.232662
-0.579101 0.735717 -0.274568
-0.562466 -0.176773 -0.07676
-0.579101 0.52939 0.089972
-0.579101 0.348428 -0.047517
-0.562466 -0.264689 -0.172348
-0.562466 0.366109 -0.144326
-0.562466 0.105104 0.058494
-0.562466 0.227928 -0.175895
-0.579101 -0.475496 -0.120014
-0.562466 0.289201 0.037198
-0.579101 0.201478 -0.130417
-0.579101 0.744572 0.077746
-0.579101 0.673546 0.112004
-0.562466 0.665706 -0.053847
-0.579101 0.658479 -0.073692
-0.562466 0.320929 0.046288
-0.579101 -0.125563 -0.056792
-0.579101 0.342215 0.027516
-0.562466 -0.08423 -0.265406
-0.579101 0.435026 -0.114395
-0.562466 0.472531 0.033
-0.562466 0.164687 -0.198071
-0.579101 0.759962 0.043655
-0.579101 -0.147661 0.102122
-0.579101 -0.356958 -0.17638
-0.562466 0.38396 0.073407
-0.579101 -0.272117 -0.058307
-0.562466 0.699393 0.155841
-0.562466 -0.366449 -0.055669
-0.562466 0.507843 -0.075304
-0.579101 0.39219 0.175301
-0.562466 -0.105657 0.1196
-0.579101 -0.018054 -0.123109
-0.562466 0.425562 0.19798
-0.562466 0.007508 0.097579
-0.579101 -0.382064 -0.014957
-0.562466 0.223761 0.056375
-0.562466 -0.265607 0.030778
-0.562466 -0.036939 -0.101073
-0.562466 -0.270343 -0.10147
-0.562466 0.641611 0.041482
-0.579101 -0.169574 0.097217
-0.562466 -0.097477 0.034053
-0.562466 0.229767 0.118239
-0.562466 0.070099 -0.151727
-0.562466 0.13688 -0.014328
-0.579101 0.684333 -0.254089
-0.579101 0.563784 -0.093377
-0.579101 0.381899 0.122689
-0.562466 -0.45608 0.040772
-0.579101 0.388626 0.143742
-0.562466 0.105566 -0.084169
-0.562466 -0.182394 0.054869
-0.562466 0.005827 -0.171039
-0.579101 -0.069074 -0.250648
-0.562466 -0.139466 0.009394
-0.579101 0.712391 0.121508
-0.562466 -0.505145 0.018588
-0.562466 0.069185 -0.007943
-0.579101 0.451722 -0.047424
-0.579101 -0.42333 -0.072677
-0.579101 -0.3239 -0.258387
-0.562466 -0.138435 0.061398
-0.562466 0.276146 0.173985
0.189393 0.169416 -0.255883
-0.343074 0.232345 -0.255883
-0.077717 -0.267775 -0.244793
-0.119699 0.653809 -0.255883
0.246081 -0.419144 -0.255883
0.172066 0.490103 -0.244793
0.326123 -0.115257 -0.244793
-0.319782 -0.080189 -0.244793
-0.394498 0.532261 -0.255883
-0.08695 0.365852 -0.255883
0.390986 0.337838 -0.244793
0.050476 -0.045561 -0.255883
-0.149344 0.097447 -0.255883
0.130796 -0.239518 -0.255883
0.3652 0.560292 -0.244793
0.538804 -0.14859 -0.244793
0.026892 -0.430951 -0.255883
0.403643 -0.318136 -0.244793
-0.537752 0.169276 -0.244793
0.009767 0.207601 -0.255883
-0.264508 0.405011 -0.244793
-0.130588 -0.081984 -0.244793
-0.006503 0.522653 -0.244793
0.225223 0.331937 -0.255883
0.220251 0.007213 -0.244793
0.360542 0.179503 -0.255883
-0.421643 0.371478 -0.255883
0.069817 0.359712 -0.244793
-0.435482 -0.183045 -0.244793
0.440067 -0.00761 -0.255883
-0.242817 0.562076 -0.255883
-0.227377 -0.201276 -0.244793
-0.461817 0.673325 -0.244793
-0.192903 0.241865 -0.244793
0.536626 0.416128 -0.255883
-0.296274 0.075285 -0.255883
-0.193808 -0.37651 -0.244793
-0.435698 0.007433 -0.244793
0.496985 0.137431 -0.255883
0.271695 -0.240381 -0.244793
0.494699 -0.422466 -0.244793
0.018524 -0.177086 -0.255883
0.104799 0.601125 -0.255883
0.159812 -0.109962 -0.244793
-0.133307 0.507841 -0.244793
0.425445 -0.195143 -0.244793
0.12616 -0.361778 -0.244793
-0.334439 0.640365 -0.255883
0.289695 0.464868 -0.244793
0.332218 0.063846 -0.244793
-0.425216 0.125627 -0.244793
0.487475 0.266244 -0.244793
-0.466927 0.264711 -0.255883
0.432982 0.467757 -0.255883
0.356643 -0.440237 -0.244793
-0.283624 -0.443502 -0.255883
0.030924 -0.302843 -0.244793
-0.072336 -0.382258 -0.244793
-0.049214 0.044397 -0.244793
0.064879 0.111587 -0.255883
-0.450649 -0.29872 -0.244793
0.113986 0.260983 -0.255883
-0.212775 -0.013063 -0.244793
-0.340217 -0.228162 -0.255883
-0.483761 -0.086963 -0.244793
0.501814 -0.280989 -0.255883
-0.095891 0.187859 -0.255883
-0.473537 0.464138 -0.255883
-0.502978 0.578213 -0.244793
0.365417 0.673028 -0.244793
0.266165 0.238509 -0.255883
-0.231907 0.675689 -0.244793
0.217959 -0.323099 -0.255883
-0.27061 0.306549 -0.244793
-0.268361 0.168979 -0.244793
-0.092593 -0.171557 -0.255883
-0.180286 0.34244 -0.244793
-0.379193 -0.440717 -0.244793
0.48943 0.549113 -0.255883
0.073674 0.473155 -0.255883
-0.004459 0.301884 -0.255883
-0.244005 -0.298438 -0.255883
-0.041676 -0.047152 -0.255883
0.242133 0.547782 -0.255883
0.117808 0.015027 -0.244793
-0.00193 0.414961 -0.255883
0.113334 -0.459841 -0.255883
0.445968 -0.097557 -0.244793
-0.365842 0.446188 -0.255883
-0.426189 -0.523631 -0.255883
0.314407 -0.322198 -0.255883
0.15305 0.402937 -0.255883
0.304535 -0.020964 -0.255883
0.270786 0.132211 -0.255883
0.518462 0.046366 -0.244793
-0.221824 -0.11342 -0.244793
-0.137425 -0.443088 -0.244793
-0.116937 0.282671 -0.255883
0.239421 -0.142773 -0.255883
-0.163798 -0.260473 -0.244793
0.308966 0.363549 -0.244793
-0.177911 0.434565 -0.244793
-0.070493 0.583652 -0.255883
0.474198 0.358014 -0.244793
-0.025389 0.131011 -0.255883
-0.508053 0.383079 -0.255883
-0.340055 0.355806 -0.244793
0.193796 0.696438 -0.244793
-0.397672 -0.105601 -0.255883
-0.304948 0.508847 -0.244793
-0.354231 0.000542 -0.255883
0.528703 -0.035357 -0.244793
0.405779 0.248109 -0.255883
0.536251 0.617858 -0.244793
-0.346054 0.138813 -0.255883
0.359234 0.425519 -0.255883
-0.127335 0.021248 -0.244793
0.347215 -0.2122 -0.244793
0.187677 0.091072 -0.244793
-0.527123 -0.34482 -0.255883
-0.427787 0.603316 -0.255883
-0.395179 0.298666 -0.244793
-0.503227 -0.242282 -0.255883
0.304314 0.607477 -0.255883
-0.063328 0.461048 -0.255883
0.085981 -0.128856 -0.244793
-0.190027 0.165795 -0.244793
0.239106 0.40811 -0.244793
0.55174 0.337222 -0.244793
0.189002 0.24431 -0.244793
0.229499 -0.067782 -0.255883
-0.032145 -0.121352 -0.244793
-0.185491 0.61011 -0.244793
0.14784 0.328381 -0.244793
-0.134331 -0.331358 -0.255883
-0.212179 -0.46924 -0.244793
-0.425044 0.203357 -0.244793
0.023633 0.033482 -0.255883
-0.237028 0.482206 -0.255883
0.416264 -0.390339 -0.244793
0.080633 0.192901 -0.244793
0.384369 -0.060431 -0.255883
-0.051959 0.677852 -0.244793
0.003044 0.594219 -0.255883
0.06261 0.659354 -0.244793
-0.288268 -0.145254 -0.244793
-0.268009 -0.365618 -0.244793
0.442821 0.187691 -0.244793
0.432133 -0.470273 -0.244793
0.530516 -0.345943 -0.255883
-0.058046 -0.450833 -0.255883
0.312026 0.292509 -0.255883
0.182486 -0.449176 -0.244793
0.539648 0.194133 -0.255883
-0.510401 -0.464393 -0.244793
0.513066 0.481244 -0.244793
-0.159292 -0.153623 -0.244793
-0.004873 -0.367566 -0.255883
0.16788 -0.179017 -0.244793
-0.332129 0.572237 -0.244793
-0.502552 -0.005123 -0.255883
0.525712 0.690525 -0.255883
0.43776 0.596979 -0.255883
0.19922 -0.242247 -0.255883
-0.016385 -0.237921 -0.244793
0.182177 0.603766 -0.255883
-0.354591 -0.160089 -0.244793
0.254079 0.065697 -0.244793
-0.532299 -0.168379 -0.244793
0.372189 0.004943 -0.244793
0.163775 -0.032562 -0.255883
-0.056248 0.240736 -0.244793
0.12416 0.537523 -0.255883
-0.22911 0.085929 -0.255883
-0.386031 -0.275595 -0.255883
0.530093 -0.215668 -0.244793
0.051763 0.550482 -0.255883
0.131206 0.124076 -0.244793
0.099215 -0.302556 -0.244793
0.440015 -0.256983 -0.255883
-0.290595 -0.008204 -0.255883
-0.133665 0.572172 -0.244793
0.063034 -0.221968 -0.244793
-0.446458 -0.463601 -0.244793
0.378719 -0.149856 -0.255883
0.551146 0.271017 -0.244793
-0.529223 0.3119 -0.255883
0.427341 0.68524 -0.244793
0.056232 0.282846 -0.244793
0.185209 -0.379614 -0.255883
-0.535035 0.459669 -0.244793
-0.455958 0.536888 -0.244793
0.418428 0.405479 -0.255883
0.357518 -0.369373 -0.244793
0.2923 -0.466029 -0.244793
0.430603 0.533186 -0.244793
-0.274211 -0.240196 -0.255883
0.296355 -0.381327 -0.255883
-0.333689 0.294276 -0.244793
0.463723 -0.351131 -0.244793
0.069772 -0.386078 -0.244793
-0.513077 0.224359 -0.255883
0.230169 0.473487 -0.255883
-0.087547 0.111765 -0.255883
0.368022 -0.268334 -0.255883
-0.479352 0.153417 -0.244793
-0.113881 0.430313 -0.244793
-0.425515 -0.053489 -0.244793
0.542308 -0.468283 -0.244793
-0.249997 -0.061224 -0.244793
0.344874 0.48583 -0.244793
-0.324499 -0.402643 -0.244793
0.340516 0.234773 -0.255883
0.424272 0.133103 -0.255883
0.295677 0.184942 -0.255883
0.300902 -0.176843 -0.244793
0.307045 0.55045 -0.244793
0.107709 -0.055653 -0.255883
0.025816 -0.11738 -0.244793
0.475607 -0.146181 -0.255883
-0.394882 0.655888 -0.255883
-0.28919 0.250212 -0.244793
-0.435478 -0.240841 -0.244793
-0.308896 0.441582 -0.244793
-0.016439 0.35806 -0.255883
0.477928 0.415039 -0.244793
-0.185958 0.037385 -0.244793
0.509277 -0.088909 -0.244793
-0.030854 -0.318139 -0.244793
0.266113 0.654909 -0.244793
-0.540444 -0.515137 -0.244793
-0.187347 -0.068292 -0.244793
0.183664 0.545503 -0.244793
0.158285 -0.288901 -0.255883
0.008103 -0.483239 -0.244793
-0.120801 -0.219839 -0.255883
-0.474251 0.321833 -0.255883
0.014755 0.691121 -0.244793
-0.422221 0.071528 -0.255883
0.144353 0.213763 -0.255883
-0.287833 0.676426 -0.244793
-0.036474 -0.178363 -0.255883
-0.234425 0.3519 -0.244793
-0.50689 0.519731 -0.255883
-0.194465 -0.321644 -0.244793
0.232727 -0.197207 -0.255883
0.22671 -0.487531 -0.244793
0.409944 0.043386 -0.255883
0.064701 0.420481 -0.244793
-0.259983 0.035572 -0.244793
-0.322677 -0.278589 -0.244793
-0.075093 -0.003494 -0.244793
0.009099 0.471735 -0.255883
-0.45867 0.409744 -0.244793
0.282599 -0.071682 -0.244793
0.467228 -0.533619 -0.250862
0.432862 0.303475 -0.244793
0.084931 0.061327 -0.255883
-0.199233 0.51929 -0.244793
0.122936 0.651327 -0.244793
