-0.045715 -0.522931 -0.024805609205503815
-0.024347 -0.581472 -0.011730609205503811
0.079533 -0.65058 -0.011730609205503811
-0.154532 -0.485212 -0.011730609205503811
0.068085 -0.531315 -0.024805609205503815
0.142093 -0.609043 -0.024805609205503815
0.034583 -0.635383 -0.024805609205503815
0.061641 -0.605669 -0.011730609205503811
-0.107067 -0.673546 -0.024805609205503815
0.362254 -0.450816 -0.024805609205503815
0.394016 -0.575979 -0.024805609205503815
-0.12112 -0.629691 -0.024805609205503815
0.015233 -0.612237 -0.024805609205503815
0.229937 -0.454495 -0.024805609205503815
0.067141 -0.685125 -0.0182676092055038
-0.053024 -0.562861 -0.011730609205503811
0.212783 -0.650695 -0.011730609205503811
0.041689 -0.56754 -0.024805609205503815
-0.167689 -0.666814 -0.024805609205503815
0.168927 -0.480742 -0.024805609205503815
-0.044666 -0.672626 -0.024805609205503815
-0.110194 -0.503501 -0.011730609205503811
0.349249 -0.653562 -0.011730609205503811
-0.075385 -0.46259 -0.024805609205503815
0.194023 -0.629016 -0.024805609205503815
-0.071983 -0.606254 -0.024805609205503815
0.337248 -0.477343 -0.024805609205503815
-0.100224 -0.614393 -0.011730609205503811
0.301971 -0.547376 -0.024805609205503815
-0.133754 -0.540232 -0.024805609205503815
0.186933 -0.683287 -0.024805609205503815
-0.031529 -0.450954 -0.024805609205503815
0.244682 -0.618903 -0.011730609205503811
-0.02958 -0.501883 -0.024805609205503815
0.368452 -0.532656 -0.024805609205503815
-0.112255 -0.582257 -0.011730609205503811
-0.167606 -0.55322 -0.011730609205503811
0.378961 -0.613808 -0.024805609205503815
0.25404 -0.646736 -0.011730609205503811
-0.176352 -0.496107 -0.024805609205503815
0.113344 -0.664785 -0.011730609205503811
-0.02392 -0.63712 -0.024805609205503815
0.121828 -0.610282 -0.011730609205503811
0.18253 -0.52087 -0.011730609205503811
0.104114 -0.465409 -0.011730609205503811
-0.158888 -0.461139 -0.024805609205503815
0.021907 -0.480556 -0.011730609205503811
0.083606 -0.560403 -0.011730609205503811
0.319986 -0.659605 -0.011730609205503811
0.26009 -0.52255 -0.011730609205503811
0.311681 -0.509448 -0.024805609205503815
0.305348 -0.60164 -0.024805609205503815
-0.193359 -0.521155 -0.013858609205503802
0.387252 -0.654096 -0.011730609205503811
0.100765 -0.682722 0.1166193907944962
0.445655 -0.682722 0.3144383907944962
0.199711 -0.688442 0.27068539079449616
0.020425 -0.682722 0.2700743907944962
0.45418 -0.682722 0.1725263907944962
0.3208 -0.682722 0.3041613907944962
-0.155241 -0.688442 0.3202313907944962
0.337722 -0.688442 0.0556903907944962
0.278315 -0.688442 0.21726039079449622
0.235895 -0.688442 0.035177390794496194
0.004865 -0.688442 0.3576963907944962
0.039565 -0.682722 0.1891443907944962
-0.01694 -0.682722 0.0631833907944962
-0.068469 -0.682722 0.1233663907944962
0.390987 -0.688442 0.1169813907944962
0.282032 -0.682722 0.1393443907944962
-0.036069 -0.688442 -2.4609205503817178e-05
0.132309 -0.682722 0.27854639079449617
0.44466 -0.682722 0.23687039079449618
0.062304 -0.682722 0.3161113907944962
0.330963 -0.688442 0.1932763907944962
0.178989 -0.688442 0.04570539079449619
0.161486 -0.682722 0.3589583907944962
-0.019357 -0.682722 0.1682713907944962
0.32962 -0.682722 0.1092533907944962
0.160003 -0.682722 0.2167443907944962
-0.022275 -0.688442 0.3018323907944962
0.211645 -0.688442 0.2088553907944962
-0.101743 -0.682722 0.33325739079449623
0.296564 -0.688442 0.020546390794496203
0.275563 -0.682722 0.3475933907944962
0.372851 -0.682722 0.2805453907944962
0.210947 -0.688442 0.3405563907944962
-0.069333 -0.682722 0.07344439079449619
0.239414 -0.682722 0.3017493907944962
0.466244 -0.682722 0.1015233907944962
0.410333 -0.682722 0.3597903907944962
0.370422 -0.688442 0.1649333907944962
0.140008 -0.682722 0.0917423907944962
0.09456 -0.682722 0.3494633907944962
0.427363 -0.688442 0.0799183907944962
-0.094782 -0.682722 0.03242639079449619
0.032797 -0.682722 0.1371563907944962
0.238111 -0.682722 0.24442239079449618
-0.129389 -0.688442 0.3681203907944962
0.082845 -0.682722 0.1618983907944962
0.353342 -0.688442 0.3336723907944962
0.420117 -0.688442 0.20079639079449618
0.347968 -0.688442 0.2450583907944962
0.13264 -0.682722 0.32698739079449624
0.006015 -0.682722 -0.006195609205503799
-0.010342 -0.688442 0.1068543907944962
0.173606 -0.688442 0.11713139079449619
0.235179 -0.682722 0.1742243907944962
0.08466 -0.688442 0.2527623907944962
0.279606 -0.682722 0.0841903907944962
-0.042555 -0.682722 0.3709503907944962
0.430634 -0.682722 0.1380843907944962
0.469401 -0.688442 0.3905363907944962
0.280633 -0.688442 0.29736439079449617
0.077827 -0.688442 0.008048390794496194
0.192327 -0.688442 0.17321339079449619
0.04564 -0.682722 0.3601443907944962
0.180322 -0.682722 0.3154493907944962
0.097783 -0.688442 0.29681839079449623
0.127051 -0.682722 0.02039539079449619
0.420571 -0.688442 0.28355239079449623
-0.060467 -0.688442 0.3266943907944962
0.279021 -0.688442 0.1794273907944962
0.323217 -0.688442 0.1512463907944962
0.113816 -0.688442 0.1852773907944962
0.313329 -0.682722 0.2335613907944962
-0.148193 -0.682722 0.2844643907944962
0.182685 -0.682722 0.007114390794496189
0.024031 -0.688442 0.3100193907944962
0.426466 -0.682722 0.044546390794496196
-0.163753 -0.682722 0.2033903907944962
0.214125 -0.688442 0.062292390794496194
0.070836 -0.688442 0.0958343907944962
0.244853 -0.682722 0.2065313907944962
0.291982 -0.688442 0.053703390794496195
0.020567 -0.688442 0.0784033907944962
0.124641 -0.688442 0.3626373907944962
-0.118519 -0.688442 0.00425639079449619
0.173664 -0.682722 0.0850923907944962
0.07262 -0.688442 0.1922493907944962
-0.119814 -0.682722 0.30642539079449616
0.385249 -0.688442 0.3403213907944962
-0.157573 -0.682722 0.3517323907944962
0.14088 -0.682722 0.2478493907944962
0.381452 -0.688442 0.2110513907944962
0.371036 -0.682722 0.05157539079449619
0.038248 -0.688442 0.030307390794496195
0.453132 -0.688442 0.2818143907944962
0.170099 -0.688442 0.1518103907944962
0.395034 -0.688442 0.1471233907944962
0.250194 -0.688442 0.0794453907944962
0.399466 -0.682722 0.011626390794496191
-0.060804 -0.688442 0.028488390794496193
0.326966 -0.688442 0.3469593907944962
0.302845 -0.688442 0.2775123907944962
0.05316 -0.682722 0.24584339079449619
0.208401 -0.688442 0.027474390794496192
0.247638 -0.682722 0.3534173907944962
-0.036757 -0.688442 0.1175403907944962
0.054177 -0.688442 0.1655623907944962
0.177811 -0.688442 0.2436263907944962
0.216918 -0.682722 0.3675553907944962
0.441942 -0.688442 0.3740313907944962
-0.10404 -0.682722 0.2344153907944962
0.45772 -0.688442 0.1274723907944962
0.130116 -0.688442 0.11701739079449619
0.30469 -0.682722 0.1997303907944962
-0.086587 -0.688442 0.3109963907944962
0.107109 -0.688442 0.0017053907944961921
-0.069863 -0.688442 0.3683903907944962
0.116706 -0.682722 0.07771639079449619
0.306994 -0.688442 0.0883343907944962
-0.092156 -0.688442 0.2660343907944962
0.211563 -0.682722 0.3142333907944962
0.368283 -0.688442 0.3112663907944962
0.111891 -0.682722 0.2387243907944962
0.224916 -0.682722 -0.0038376092055038002
0.136741 -0.682722 0.2038903907944962
0.356857 -0.688442 0.19896439079449618
0.235474 -0.688442 0.33068339079449616
0.195426 -0.682722 0.1471013907944962
0.33604 -0.682722 0.37084439079449616
0.389883 -0.688442 0.3749403907944962
0.003135 -0.682722 0.04658239079449619
0.056281 -0.682722 0.2116573907944962
0.098196 -0.688442 0.37454339079449617
-0.123405 -0.682722 0.2768193907944962
0.156468 -0.682722 0.30533539079449623
0.177062 -0.682722 0.2829163907944962
0.400862 -0.682722 0.2358193907944962
0.074294 -0.682722 0.1378503907944962
0.071098 -0.688442 0.3650383907944962
0.47464 -0.688442 0.31523639079449617
0.407682 -0.682722 0.2603163907944962
-0.026087 -0.682722 0.0861953907944962
0.022107 -0.682722 0.3793723907944962
-0.126702 -0.682722 0.3444623907944962
0.289731 -0.682722 0.36963239079449617
0.386062 -0.682722 0.1841623907944962
0.255706 -0.688442 0.0491263907944962
0.02933 -0.682722 0.2348353907944962
0.344007 -0.688442 0.1730743907944962
0.210672 -0.688442 0.1057023907944962
0.155417 -0.682722 0.26680939079449617
-0.170526 -0.688442 0.24029139079449618
-0.04702 -0.688442 0.059253390794496194
0.150103 -0.682722 0.001568390794496194
0.365412 -0.682722 0.3710543907944962
0.116972 -0.682722 0.3095293907944962
0.35473 -0.688442 0.2227023907944962
0.37659 -0.688442 0.09570039079449619
0.274965 -0.682722 0.23956939079449618
0.183867 -0.682722 0.35133939079449616
0.556414 -0.520349 0.168095
0.536802 -0.488014 0.148893
0.536802 -0.475319 0.194134
0.556414 -0.501882 0.147265
-0.241165 -0.484582 0.193674
-0.241165 -0.513479 0.011321
-0.241165 -0.536914 0.104221
-0.241165 -0.467509 0.009922
0.101999 -0.724399 0.195884
0.111452 -0.704786 0.095253
0.387841 -0.704786 0.108539
0.386849 -0.724399 0.207671
0.178248 -0.724399 0.19552
0.322056 -0.704786 0.246245
0.000335 -0.724399 0.091995
0.070077 -0.724399 0.140801
0.431864 -0.704786 0.266158
0.320319 -0.724399 0.123995
-0.054856 -0.724399 0.053199
0.024832 -0.724399 0.175923
0.459103 -0.724399 0.079343
0.409227 -0.724399 0.149868
0.136763 -0.724399 0.242217
0.344066 -0.724399 0.176575
0.040386 -0.704786 0.103483
0.449174 -0.724399 0.028437
-0.011914 -0.724399 0.152105
0.063785 -0.724399 0.2137
0.185287 -0.724399 0.236545
0.44773 -0.724399 0.136001
0.138503 -0.724399 0.178865
0.318479 -0.724399 0.207349
0.334274 -0.724399 0.086555
0.163832 -0.704786 0.156317
0.358252 -0.704786 0.246164
0.398019 -0.704786 0.177193
0.103147 -0.724399 0.152954
0.291449 -0.704786 0.127597
0.360845 -0.724399 0.147173
-0.000587 -0.704786 0.127467
0.417329 -0.704786 0.125386
0.336363 -0.704786 0.145825
0.043074 -0.704786 0.201706
0.351291 -0.724399 0.206359
0.289726 -0.724399 0.151731
0.03547 -0.724399 0.126345
-0.010781 -0.704786 0.058819
0.072439 -0.704786 0.164593
0.090144 -0.724399 0.227833
0.208802 -0.724399 0.254345
0.053389 -0.724399 0.174923
0.2278 -0.704786 -0.018649
-0.001389 -0.704786 0.185355
0.178659 -0.704786 0.218224
-0.028255 -0.704786 0.099946
0.384288 -0.704786 0.268356
0.110813 -0.704786 0.217911
0.013693 -0.704786 0.16135
0.455791 -0.704786 0.11964
0.333234 -0.724399 0.229374
0.2323 -0.704786 0.013898
0.021141 -0.724399 0.201873
0.475506 -0.704786 0.098734
-0.020613 -0.724399 0.071954
0.378953 -0.704786 0.063149
0.136227 -0.704786 0.218495
0.111379 -0.724399 0.243265
0.125813 -0.704786 0.139476
0.012957 -0.724399 0.137715
0.089283 -0.704786 0.186563
0.135333 -0.716392 0.271621
0.367211 -0.724399 0.187299
0.160726 -0.704786 0.201136
-0.161578 -0.704786 0.233707
0.418762 -0.724399 0.058812
0.397287 -0.704786 0.141304
0.22471 -0.724399 0.200041
0.126361 -0.704786 0.172253
0.318523 -0.704786 0.161713
0.213934 -0.704786 0.175564
0.053746 -0.724399 0.103465
0.438717 -0.704786 0.090834
-0.069436 -0.704786 0.045446
0.364975 -0.704786 0.112775
0.372329 -0.704786 0.142354
0.358983 -0.724399 0.258505
0.411009 -0.751619 0.310846
0.140437 -0.724286 0.309398
0.109734 -0.756592 0.310846
0.393458 -0.711441 0.29778
0.097754 -0.720373 0.301525
0.438533 -0.736815 0.310846
0.167437 -0.724276 0.309275
0.177962 -0.751012 0.310846
0.508609 -0.662417 0.288493
0.173885 -0.701517 0.284443
-0.011198 -0.69498 0.281348
-0.149626 -0.69498 0.284015
0.381289 -0.736581 0.271621
0.180552 -0.745111 0.271621
0.103384 -0.717348 0.271621
0.460187 -0.712078 0.291233
0.206456 -0.71662 0.291233
0.421014 -0.725489 0.291233
0.392389 -0.742727 0.291233
0.195836 -0.737394 0.291233
0.516098 -0.526638 0.194294
0.508609 -0.54157 0.130878
0.508609 -0.547021 0.1804
-0.212972 -0.563164 0.161726
-0.217073 -0.526638 0.085657
-0.212972 -0.572834 0.078479
-0.222038 -0.526638 0.035479
-0.241165 -0.529136 0.151655
-0.229762 -0.526638 -0.009408
-0.241165 -0.550857 0.141375
0.409888 -0.676833 0.4197463907944962
0.435952 -0.656945 0.4001343907944962
0.436599 -0.681385 0.4197463907944962
-0.188728 -0.440016 0.0373233907944962
0.162119 -0.450073 0.10272339079449619
0.158917 -0.440016 0.014866390794496198
0.162119 -0.489247 0.2107363907944962
0.162119 -0.456965 0.1469523907944962
0.162119 -0.451661 0.05657239079449619
0.162119 -0.45246 0.22374739079449618
0.162119 -0.475583 0.1141813907944962
0.162119 -0.474879 0.1874543907944962
0.149044 -0.481467 0.0604823907944962
0.157199 -0.440016 0.2818223907944962
0.162119 -0.445747 0.1258863907944962
0.137121 -0.440016 0.2322583907944962
0.13544 -0.492316 0.1666013907944962
0.133517 -0.44131 0.2873633907944962
0.138256 -0.492316 0.0929743907944962
0.146593 -0.451682 0.19094539079449618
0.133517 -0.459017 0.1184003907944962
0.146593 -0.472243 0.2439873907944962
0.146593 -0.465704 0.0809293907944962
0.133517 -0.481901 0.2052683907944962
0.133517 -0.463375 0.1625583907944962
0.140084 -0.440016 0.09933739079449619
0.133517 -0.450068 0.2542273907944962
0.486758 -0.615925 -0.024805609205503815
0.491254 -0.440016 0.32448539079449623
0.482458 -0.441914 0.03868639079449619
0.482458 -0.532465 -0.0008676092055037998
0.482458 -0.647447 0.058103390794496196
0.482458 -0.601688 0.039161390794496195
0.482458 -0.479858 0.022049390794496193
0.495533 -0.667178 0.027062390794496197
0.482458 -0.527969 0.058767390794496194
0.495533 -0.664259 -0.023065609205503795
0.495533 -0.678208 0.0719053907944962
0.495533 -0.510394 0.0253033907944962
0.482458 -0.651043 0.005112390794496199
0.482458 -0.549572 0.034221390794496195
0.494955 -0.440016 -0.02030460920550381
0.495533 -0.689086 0.0074753907944961895
0.492673 -0.546587 -0.024805609205503815
0.482458 -0.579531 0.004926390794496194
0.495533 -0.62676 0.0465233907944962
0.495533 -0.513859 -0.014863609205503808
0.495533 -0.608665 0.02095039079449619
0.440392 -0.440016 -0.022439609205503808
0.488996 -0.468694 -0.018228609205503815
0.459522 -0.66375 -0.011730609205503811
0.435329 -0.545779 -0.024805609205503815
0.079415 -0.44076 -0.024805609205503815
0.447933 -0.496161 -0.011730609205503811
0.474962 -0.573977 -0.024805609205503815
0.413641 -0.650892 -0.024805609205503815
0.447561 -0.630656 -0.024805609205503815
0.418098 -0.481165 -0.024805609205503815
0.465274 -0.452032 -0.024805609205503815
0.435001 -0.51641 -0.024805609205503815
0.409928 -0.62194 -0.011730609205503811
0.469595 -0.684291 -0.024805609205503815
0.472099 -0.59952 -0.011730609205503811
0.433463 -0.609233 -0.011730609205503811
0.452467 -0.562954 -0.024805609205503815
0.461474 -0.688442 0.041020390794496195
0.470562 -0.682722 0.01449739079449619
0.471551 -0.682722 0.0769833907944962
0.483723 -0.682722 0.0460073907944962
-0.182005 -0.297483 0.3388881730124402
0.380096 -0.21857 0.3388881730124402
0.08651 -0.155595 0.31927617301244016
0.013632 -0.321544 0.3388881730124402
-0.063192 -0.193945 0.30620117301244015
0.231229 -0.192042 0.31927617301244016
0.402084 -0.054679 0.31927617301244016
0.116071 -0.265146 0.31927617301244016
-0.177585 -0.185362 0.3388881730124402
0.441573 -0.303839 0.31927617301244016
0.011163 -0.081606 0.31927617301244016
0.330229 -0.136658 0.30620117301244015
0.154879 -0.08575 0.3388881730124402
0.293415 -0.267489 0.3388881730124402
0.028638 -0.225666 0.31927617301244016
-0.062698 -0.276052 0.3388881730124402
0.415664 -0.13575 0.3388881730124402
-0.127085 -0.11885 0.31927617301244016
0.482458 -0.09539 0.31750817301244016
0.001423 -0.155338 0.3388881730124402
0.208759 -0.263915 0.30620117301244015
0.368885 -0.296985 0.3388881730124402
0.483432 -0.244577 0.3388881730124402
0.159646 -0.202108 0.3388881730124402
-0.129233 -0.239395 0.3388881730124402
0.085204 -0.08372 0.3100531730124402
0.244905 -0.125251 0.3388881730124402
-0.116131 -0.314359 0.3388881730124402
-0.042173 -0.119013 0.30620117301244015
-0.040651 -0.345222 0.3150821730124402
0.441536 -0.200962 0.30620117301244015
0.362496 -0.094329 0.3388881730124402
0.191132 -0.152067 0.3388881730124402
0.145816 -0.324373 0.31927617301244016
-0.120604 -0.182587 0.30620117301244015
0.288059 -0.176669 0.30620117301244015
-0.026953 -0.224399 0.3388881730124402
0.105593 -0.208686 0.31927617301244016
-0.20682 -0.344171 0.31927617301244016
0.40482 -0.263367 0.30620117301244015
0.21826 -0.08372 0.30910817301244015
0.340021 -0.239492 0.30620117301244015
-0.006446 -0.281294 0.30620117301244015
0.305643 -0.099057 0.3388881730124402
-0.174136 -0.096978 0.3388881730124402
0.359334 -0.168862 0.3388881730124402
0.310238 -0.305737 0.30620117301244015
0.055004 -0.116263 0.3388881730124402
0.498452 -0.298818 0.3388881730124402
0.168189 -0.281443 0.3388881730124402
0.064374 -0.271799 0.31927617301244016
-0.178286 -0.138136 0.30620117301244015
-0.034941 -0.054302 0.3387801730124402
0.261805 -0.287837 0.30620117301244015
0.126063 -0.132867 0.3388881730124402
0.25434 -0.235615 0.31927617301244016
-0.086359 -0.235741 0.30620117301244015
0.075044 -0.313952 0.3388881730124402
-0.062681 -0.146326 0.3388881730124402
0.045396 -0.169881 0.3388881730124402
0.407637 -0.167511 0.30620117301244015
0.317166 -0.054302 0.33791217301244014
0.27083 -0.093419 0.30620117301244015
0.290686 -0.144831 0.3388881730124402
0.179464 -0.229189 0.30620117301244015
-0.077145 -0.08372 0.3121631730124402
0.45843 -0.176064 0.3388881730124402
0.028308 -0.143453 0.30620117301244015
0.326979 -0.192299 0.31927617301244016
0.226679 -0.313103 0.31927617301244016
0.441689 -0.08372 0.30796517301244014
-0.088813 -0.206486 0.3388881730124402
-0.14072 -0.265203 0.30620117301244015
0.284576 -0.317514 0.3388881730124402
0.471014 -0.13762 0.31927617301244016
0.399012 -0.309008 0.30620117301244015
0.191075 -0.179921 0.30620117301244015
0.441723 -0.236094 0.3388881730124402
-0.116153 -0.078399 0.3388881730124402
-0.084233 -0.291622 0.30620117301244015
0.039232 -0.054302 0.3367281730124402
0.335322 -0.270758 0.3388881730124402
0.331703 -0.09482 0.30620117301244015
0.139061 -0.167419 0.31927617301244016
0.250602 -0.157468 0.30620117301244015
0.236485 -0.277871 0.3388881730124402
0.183464 -0.108009 0.31927617301244016
0.103782 -0.120653 0.30620117301244015
-0.017595 -0.186051 0.31927617301244016
0.073767 -0.232979 0.31927617301244016
0.219782 -0.224782 0.3388881730124402
-0.108005 -0.163631 0.3388881730124402
0.378372 -0.124441 0.31927617301244016
0.02502 -0.344989 0.30620117301244015
-0.135735 -0.306043 0.30620117301244015
0.209594 -0.142254 0.30620117301244015
0.286713 -0.227283 0.3388881730124402
0.302306 -0.345222 0.3106651730124402
-0.043511 -0.315128 0.3388881730124402
0.118815 -0.29806 0.3388881730124402
-0.001134 -0.119084 0.30620117301244015
-0.041549 -0.237104 0.30620117301244015
0.348954 -0.283981 0.30620117301244015
0.411456 -0.293398 0.3388881730124402
0.425566 -0.193479 0.3388881730124402
0.421339 -0.082059 0.3388881730124402
-0.147578 -0.207365 0.3388881730124402
0.478594 -0.30226 0.30620117301244015
-0.130911 -0.278334 0.3388881730124402
0.439391 -0.12012 0.30620117301244015
0.145498 -0.231349 0.31927617301244016
0.096878 -0.106157 0.3388881730124402
-0.161107 -0.238241 0.31927617301244016
0.458713 -0.232771 0.30620117301244015
0.342274 -0.218517 0.3388881730124402
0.036377 -0.301775 0.31927617301244016
-0.092781 -0.129339 0.31927617301244016
-0.026271 -0.08692 0.30620117301244015
-0.147792 -0.062735 0.31927617301244016
0.103619 -0.295842 0.30620117301244015
0.053559 -0.102549 0.30620117301244015
0.113658 -0.345222 0.31852817301244013
0.46802 -0.276463 0.3388881730124402
0.260529 -0.188788 0.3388881730124402
0.277525 -0.134511 0.30620117301244015
0.088238 -0.18499 0.3388881730124402
-0.004844 -0.246154 0.30620117301244015
-0.034365 -0.153304 0.30620117301244015
-0.165743 -0.188404 0.30620117301244015
-0.01548 -0.311945 0.31927617301244016
0.193703 -0.199574 0.3388881730124402
-0.133879 -0.151417 0.30620117301244015
0.358174 -0.192471 0.30620117301244015
0.007511 -0.119728 0.3388881730124402
0.242376 -0.091584 0.3388881730124402
0.238552 -0.110525 0.30620117301244015
0.14539 -0.275106 0.30620117301244015
-0.011 -0.253918 0.3388881730124402
0.159848 -0.121548 0.3388881730124402
0.475225 -0.211516 0.3388881730124402
0.270065 -0.337622 0.30620117301244015
0.316022 -0.302232 0.3388881730124402
0.09016 -0.257831 0.3388881730124402
0.334972 -0.14091 0.3388881730124402
0.031594 -0.195274 0.30620117301244015
0.219488 -0.345222 0.30768617301244017
0.498802 -0.148519 0.33619817301244015
-0.041591 -0.114193 0.3388881730124402
0.388206 -0.186689 0.3388881730124402
0.412991 -0.217053 0.30620117301244015
0.173604 -0.318095 0.3388881730124402
-0.065172 -0.142676 0.30620117301244015
0.030079 -0.2581 0.31927617301244016
0.470124 -0.334418 0.30620117301244015
0.279408 -0.080031 0.3388881730124402
0.375211 -0.27023 0.31927617301244016
0.17102 -0.234879 0.3388881730124402
0.399762 -0.244161 0.3388881730124402
0.455603 -0.118088 0.3388881730124402
0.317377 -0.338684 0.3377261730124402
-0.207564 -0.152654 0.31927617301244016
-0.147735 -0.304738 0.3388881730124402
0.4114 -0.134023 0.30620117301244015
0.466662 -0.079419 0.3388881730124402
0.226872 -0.22979 0.30620117301244015
0.402458 -0.322838 0.3388881730124402
0.054487 -0.219756 0.3388881730124402
0.06846 -0.134787 0.30620117301244015
0.124214 -0.24081 0.3388881730124402
0.240332 -0.166145 0.3388881730124402
-0.144308 -0.091489 0.3388881730124402
0.065388 -0.188229 0.31927617301244016
0.433933 -0.149754 0.31927617301244016
-0.113101 -0.08372 0.30943817301244014
0.319146 -0.16458 0.30620117301244015
0.382971 -0.15403 0.31927617301244016
0.175487 -0.257006 0.31927617301244016
-0.099889 -0.269799 0.31927617301244016
0.162027 -0.299906 0.30620117301244015
0.268594 -0.107769 0.3388881730124402
0.162119 -0.131689 0.31147917301244016
0.281107 -0.31059 0.30620117301244015
0.370814 -0.238109 0.31927617301244016
-0.02524 -0.081673 0.3388881730124402
-0.066224 -0.31008 0.31927617301244016
-0.034873 -0.290657 0.31927617301244016
0.265948 -0.208889 0.31927617301244016
-0.115074 -0.325609 0.30865817301244014
-0.178161 -0.163419 0.31927617301244016
0.365083 -0.08372 0.31262517301244014
0.315131 -0.243642 0.31927617301244016
0.354568 -0.345222 0.31060617301244015
0.097654 -0.240521 0.30620117301244015
-0.161416 -0.294581 0.30620117301244015
-0.151866 -0.12119 0.30620117301244015
0.240097 -0.255997 0.30620117301244015
0.166163 -0.192905 0.30620117301244015
0.136018 -0.205064 0.31927617301244016
0.345471 -0.325465 0.3388881730124402
-0.057299 -0.173541 0.3388881730124402
0.173873 -0.173736 0.3388881730124402
0.012134 -0.171638 0.31927617301244016
0.173705 -0.081167 0.31927617301244016
-0.139565 -0.202422 0.30620117301244015
-0.026234 -0.264927 0.31927617301244016
0.381115 -0.058563 0.3388881730124402
0.111959 -0.146482 0.31927617301244016
-0.074484 -0.080828 0.3388881730124402
0.46418 -0.194415 0.31927617301244016
0.106372 -0.173612 0.31927617301244016
-0.11575 -0.227129 0.31927617301244016
0.288939 -0.248253 0.31927617301244016
0.451438 -0.326539 0.3388881730124402
0.254775 -0.320592 0.31927617301244016
0.216738 -0.097327 0.3388881730124402
0.109462 -0.321416 0.30620117301244015
-0.007666 -0.206758 0.3388881730124402
0.195465 -0.208545 0.30620117301244015
0.00859 -0.23666 0.3388881730124402
0.369108 -0.138931 0.3388881730124402
-0.011233 -0.139085 0.31927617301244016
0.1079 -0.321553 0.3388881730124402
-0.055053 -0.094716 0.31927617301244016
0.354354 -0.10876 0.31927617301244016
0.419653 -0.242525 0.30620117301244015
0.210083 -0.120351 0.31927617301244016
0.374769 -0.342165 0.32581317301244017
0.086448 -0.083021 0.3388881730124402
0.061261 -0.244194 0.3388881730124402
-0.104736 -0.111241 0.30620117301244015
0.320235 -0.2826 0.30620117301244015
0.134504 -0.299615 0.31927617301244016
0.342286 -0.154824 0.31927617301244016
0.352434 -0.252436 0.3388881730124402
0.187005 -0.127404 0.3388881730124402
0.298666 -0.158101 0.31927617301244016
0.452604 -0.276107 0.31927617301244016
0.405946 -0.082191 0.31927617301244016
-0.008641 -0.335904 0.31927617301244016
0.158905 -0.159988 0.30620117301244015
0.482522 -0.166983 0.3388881730124402
0.3824 -0.200339 0.31927617301244016
0.015029 -0.289887 0.31927617301244016
-0.159466 -0.146552 0.31927617301244016
0.044537 -0.324773 0.31927617301244016
0.429558 -0.337873 0.3388881730124402
-0.100829 -0.303753 0.31927617301244016
0.047481 -0.150843 0.31927617301244016
0.244336 -0.077289 0.31927617301244016
0.48699 -0.202928 0.31927617301244016
-0.07043 -0.119778 0.31927617301244016
0.308324 -0.112967 0.31927617301244016
0.237456 -0.137207 0.31927617301244016
0.261942 -0.25851 0.31927617301244016
0.43384 -0.170836 0.3388881730124402
0.409446 -0.113898 0.31927617301244016
0.017138 -0.104916 0.31927617301244016
-0.057458 -0.224785 0.31927617301244016
-0.186822 -0.301042 0.31567317301244013
-0.102493 -0.140377 0.3388881730124402
-0.006715 -0.301494 0.3388881730124402
0.365192 -0.313452 0.30620117301244015
0.074133 -0.115701 0.31927617301244016
-0.114223 -0.148345 0.31927617301244016
-0.131745 -0.163905 0.3388881730124402
0.249299 -0.183956 0.30620117301244015
0.038541 -0.238252 0.3388881730124402
0.181095 -0.281145 0.31927617301244016
-0.076483 -0.269427 0.31927617301244016
0.043998 -0.291594 0.3388881730124402
0.083749 -0.193805 0.30620117301244015
0.050092 -0.208137 0.31927617301244016
-0.039591 -0.148598 0.3388881730124402
0.482458 -0.230196 -0.04507482698755985
0.488996 -0.331 0.08989417301244015
0.495533 -0.170984 0.30747717301244015
0.482458 -0.193924 0.08501217301244016
0.482458 -0.340416 -0.10210182698755985
0.488547 -0.08372 -0.011869826987559846
0.482458 -0.236256 0.24530217301244014
0.482458 -0.259263 0.16529017301244014
0.482458 -0.12875 0.13264017301244016
0.482458 -0.264376 0.045753173012440154
0.495533 -0.129521 0.04259517301244015
0.482458 -0.157154 -0.03303882698755985
0.482458 -0.302796 -0.03460682698755985
0.495533 -0.275604 0.2872721730124401
0.495533 -0.115723 0.25551017301244017
0.495533 -0.276495 0.09963917301244016
0.494724 -0.126955 -0.10566382698755986
0.495533 -0.209617 0.040840173012440154
0.482458 -0.252547 -0.001138826987559842
0.495533 -0.344661 0.18314017301244015
0.495533 -0.08789 -0.058097826987559845
0.495533 -0.138779 0.08790017301244016
0.482458 -0.187091 0.18069417301244015
0.482458 -0.288806 0.21762517301244017
0.495533 -0.299826 -0.07524382698755984
0.495533 -0.332489 -0.0073758269875598415
0.482458 -0.227597 0.12390617301244015
0.495533 -0.316113 0.13415317301244017
0.495533 -0.186773 0.25892517301244017
0.495533 -0.335629 -0.054946826987559844
0.489612 -0.08372 -0.09741682698755985
0.495533 -0.091485 0.032704173012440156
0.482458 -0.167739 0.13081017301244016
0.482458 -0.29937 0.16955717301244017
0.482458 -0.165296 0.04627617301244016
0.482458 -0.151383 -0.07057282698755984
0.482458 -0.192988 -0.04271982698755984
0.495533 -0.130425 0.005868173012440157
0.482458 -0.300093 0.2542601730124402
0.488236 -0.08372 0.2692441730124402
0.482458 -0.268263 -0.06648482698755985
0.495533 -0.272911 0.13383417301244016
0.482458 -0.115139 0.22375817301244016
0.482458 -0.131838 0.28258817301244016
0.495533 -0.288169 -0.006891826987559843
0.482458 -0.245183 0.07253317301244015
0.489423 -0.345222 0.14723017301244015
0.495533 -0.147845 0.25524917301244016
0.482458 -0.244317 0.27635617301244014
0.482458 -0.295851 0.04525717301244016
0.495533 -0.193915 0.014059173012440154
0.482458 -0.266679 0.24249017301244016
0.490628 -0.345222 0.26321817301244016
0.495533 -0.312591 0.28199517301244015
0.493163 -0.178847 -0.10566382698755986
0.482458 -0.164721 0.07817417301244016
0.483991 -0.255734 0.30620117301244015
0.482458 -0.212926 0.2725801730124402
0.495533 -0.156985 -0.006346826987559846
0.495533 -0.304107 0.08223217301244015
0.495533 -0.154973 0.15300117301244015
0.482458 -0.275922 0.07183117301244016
0.482458 -0.30726 0.11041017301244016
0.495533 -0.124448 0.30723217301244016
0.487779 -0.225947 0.30620117301244015
0.482458 -0.208927 -0.015021826987559841
0.482458 -0.27306 -0.02521982698755984
0.495533 -0.213422 0.10539417301244015
0.495533 -0.221769 0.06401617301244016
0.495533 -0.188027 0.12210517301244016
0.482458 -0.154929 -0.10395782698755984
0.495533 -0.152343 0.018820173012440156
0.495533 -0.140661 -0.04733882698755984
0.482458 -0.212107 0.17775017301244014
0.495533 -0.247578 0.13152217301244015
0.482458 -0.188454 0.06070217301244016
0.495533 -0.324048 0.15845017301244016
0.495533 -0.167989 -0.05778882698755984
0.495533 -0.327283 0.3017041730124402
0.482458 -0.33648 -0.07725182698755985
0.482458 -0.182993 0.29064617301244017
0.495533 -0.099165 -0.029106826987559842
0.495533 -0.311015 0.23128117301244017
0.482458 -0.29502 0.14614117301244017
0.495533 -0.110433 0.13940117301244015
0.482458 -0.335229 0.20506817301244015
0.482458 -0.319019 0.03380117301244016
0.153897 -0.08372 0.22844817301244016
0.162119 -0.087467 -0.015996826987559845
0.162119 -0.119715 0.04025017301244015
0.162119 -0.096827 0.13911417301244017
0.149044 -0.091421 -0.07420182698755984
0.162119 -0.108497 0.19174117301244015
0.162119 -0.085331 0.29260317301244015
0.161229 -0.136021 0.14964917301244016
0.15084 -0.08372 0.018237173012440155
0.162119 -0.122311 -0.012748826987559844
0.154688 -0.136021 0.25242117301244016
0.149044 -0.106707 -0.04395282698755984
0.149044 -0.110317 0.2669271730124402
0.162119 -0.122488 0.22104017301244017
0.15976 -0.136021 0.18580517301244015
0.162119 -0.131829 -0.04234182698755984
0.157299 -0.08372 0.17246917301244014
0.160237 -0.136021 0.09344117301244015
0.162119 -0.103174 0.006286173012440152
0.149044 -0.105494 0.29121817301244013
0.149044 -0.113723 0.16985117301244015
0.134212 -0.136021 0.09338417301244015
0.133517 -0.131633 0.17111317301244017
0.144189 -0.136021 0.2848801730124402
0.135659 -0.136021 -0.050978826987559844
0.146593 -0.085437 0.09174917301244015
0.133517 -0.08536 0.2716221730124402
0.133517 -0.125894 0.22359517301244017
0.133517 -0.10425 0.06047417301244015
0.133517 -0.106844 -0.0012478269875598469
0.133517 -0.093474 0.16151017301244014
0.133517 -0.098173 0.31232217301244014
0.133517 -0.135272 0.12829917301244015
0.146593 -0.128435 0.011500173012440155
0.133517 -0.110833 0.13967017301244017
0.146593 -0.131811 -0.07506382698755984
0.135816 -0.136021 0.3101961730124402
0.146593 -0.113651 0.08704217301244016
0.133517 -0.110223 -0.06573182698755985
0.133517 -0.104523 0.023216173012440156
0.146593 -0.10644 0.23303417301244014
0.14523 -0.136021 0.03877917301244015
0.133517 -0.128844 0.2656531730124402
-0.186822 -0.256193 -0.06923582698755984
-0.199897 -0.309111 0.07568417301244015
-0.196728 -0.345222 0.25029017301244016
-0.190707 -0.345222 -0.011354826987559845
-0.199897 -0.246043 0.25991517301244016
-0.186822 -0.260763 0.018848173012440156
-0.199897 -0.290095 0.21425817301244016
-0.199897 -0.32523 -0.08806382698755985
-0.186822 -0.212287 -0.023506826987559848
-0.199897 -0.141602 -0.09824382698755985
-0.199897 -0.285836 -0.03125482698755984
-0.186822 -0.28583 0.11611117301244016
-0.186822 -0.21674 0.30332017301244013
-0.198815 -0.345222 0.11419117301244015
-0.199897 -0.177345 -0.06246382698755984
-0.186822 -0.287233 0.29416917301244017
-0.199897 -0.335771 0.18947117301244015
-0.187457 -0.325609 0.030020173012440154
-0.186822 -0.122397 -0.06264582698755984
-0.199897 -0.288369 0.2569101730124401
-0.193359 -0.085777 0.3068121730124402
-0.186822 -0.113487 0.23335317301244016
-0.186822 -0.282924 0.049041173012440153
-0.199897 -0.124063 0.27939717301244016
-0.199897 -0.24941 -0.012458826987559846
-0.186822 -0.258902 0.22464117301244016
-0.186822 -0.281613 0.18250517301244015
-0.199897 -0.313192 0.13953717301244017
-0.199897 -0.286157 -0.07965482698755985
-0.186822 -0.341093 -0.04437582698755985
-0.186822 -0.305867 -0.006859826987559846
-0.186822 -0.227758 -0.053922826987559846
-0.186822 -0.315583 0.10479717301244015
-0.199897 -0.165449 0.25233817301244016
-0.186822 -0.312708 -0.06288082698755984
-0.186822 -0.190647 0.2647031730124402
-0.186822 -0.194261 0.0010531730124401575
-0.186822 -0.282364 0.08108917301244015
-0.192861 -0.345222 0.2794771730124401
-0.199897 -0.337275 0.08204017301244015
-0.188917 -0.11108 0.31927617301244016
-0.186822 -0.316637 0.28103017301244015
-0.199897 -0.226795 0.009186173012440152
-0.186822 -0.228836 0.27700717301244016
-0.199897 -0.25845 0.20066417301244016
-0.186822 -0.294539 0.15423617301244014
-0.199897 -0.30942 0.18817617301244016
-0.199897 -0.253027 -0.04689782698755984
-0.186822 -0.281215 0.003565173012440158
-0.199897 -0.11362 0.25623917301244015
-0.190494 -0.30963 -0.10566382698755986
-0.199897 -0.26306 0.042390173012440156
-0.188119 -0.268204 -0.09912582698755984
-0.186822 -0.138335 0.20734017301244015
-0.186822 -0.096057 0.28569217301244015
-0.199897 -0.153116 -0.06061782698755984
-0.186822 -0.166673 -0.08260482698755983
-0.199897 -0.339836 0.16596417301244015
-0.186822 -0.195374 0.2929961730124402
-0.186822 -0.257902 0.08616017301244015
0.048142 -0.168369 -0.09258882698755985
0.196517 -0.154494 -0.10566382698755986
0.44299 -0.08372 -0.10292382698755984
0.29476 -0.252603 -0.10566382698755986
-0.063595 -0.232715 -0.09258882698755985
-0.05725 -0.099866 -0.09258882698755985
0.364349 -0.161101 -0.09258882698755985
0.18944 -0.263219 -0.09258882698755985
-0.139931 -0.345222 -0.09335682698755984
0.106374 -0.08372 -0.09980882698755986
0.277013 -0.10308 -0.10566382698755986
-0.145364 -0.147264 -0.09258882698755985
0.388134 -0.253387 -0.10566382698755986
0.233606 -0.345222 -0.09821982698755985
0.029783 -0.260329 -0.09258882698755985
-0.04613 -0.338452 -0.10566382698755986
0.460943 -0.168464 -0.10566382698755986
0.322219 -0.345222 -0.10125282698755986
0.128516 -0.197123 -0.09258882698755985
0.353682 -0.08372 -0.09323882698755984
0.405313 -0.324888 -0.09258882698755985
0.293083 -0.178747 -0.09258882698755985
-0.024199 -0.164911 -0.09258882698755985
0.035025 -0.093149 -0.09258882698755985
0.121205 -0.265243 -0.10566382698755986
0.032677 -0.341657 -0.09258882698755985
0.482458 -0.265769 -0.10264282698755983
0.15748 -0.34489 -0.09258882698755985
-0.124624 -0.267191 -0.09258882698755985
0.234734 -0.20987 -0.09258882698755985
0.206223 -0.09514 -0.09258882698755985
-0.114441 -0.08372 -0.10300582698755983
-0.115848 -0.199843 -0.09258882698755985
-0.031296 -0.283843 -0.09258882698755985
-0.176075 -0.204247 -0.09258882698755985
0.413906 -0.196612 -0.09258882698755985
0.135116 -0.133007 -0.10566382698755986
0.237349 -0.282714 -0.10566382698755986
-0.094567 -0.148653 -0.10566382698755986
0.078838 -0.208784 -0.10566382698755986
0.276273 -0.318483 -0.09258882698755985
0.328704 -0.215247 -0.10566382698755986
0.35172 -0.285686 -0.09258882698755985
0.184235 -0.201548 -0.09258882698755985
-0.009433 -0.21115 -0.10566382698755986
0.069469 -0.299663 -0.10566382698755986
-0.173098 -0.286646 -0.10566382698755986
0.426542 -0.130172 -0.10566382698755986
-0.097042 -0.325037 -0.10566382698755986
0.440738 -0.237459 -0.09258882698755985
0.087888 -0.127276 -0.09258882698755985
-0.008961 -0.108681 -0.09258882698755985
0.322069 -0.144782 -0.10566382698755986
0.23744 -0.134729 -0.10566382698755986
0.153686 -0.237233 -0.09258882698755985
-0.058991 -0.186718 -0.10566382698755986
0.199554 -0.305071 -0.09258882698755985
0.448758 -0.291671 -0.10566382698755986
0.019107 -0.140447 -0.10566382698755986
0.121593 -0.322307 -0.10566382698755986
0.016718 -0.303151 -0.09258882698755985
0.098018 -0.172723 -0.10566382698755986
0.44218 -0.341492 -0.09258882698755985
-0.149436 -0.107535 -0.09258882698755985
0.041892 -0.22324 -0.10566382698755986
0.066754 -0.256441 -0.10566382698755986
-0.055797 -0.141751 -0.10566382698755986
0.194314 -0.342578 -0.10566382698755986
0.169997 -0.100226 -0.10566382698755986
0.306661 -0.288753 -0.10566382698755986
-0.0155 -0.246242 -0.09258882698755985
0.258272 -0.163196 -0.09258882698755985
0.3892 -0.288446 -0.09258882698755985
0.407074 -0.085614 -0.09258882698755985
-0.072716 -0.29728 -0.10566382698755986
-0.089289 -0.255355 -0.10566382698755986
0.250301 -0.251041 -0.09258882698755985
0.458368 -0.118043 -0.09258882698755985
0.313109 -0.099883 -0.10566382698755986
0.461997 -0.212469 -0.10566382698755986
0.276524 -0.209378 -0.09258882698755985
0.073827 -0.093441 -0.10566382698755986
-0.111785 -0.116302 -0.09258882698755985
0.350598 -0.254198 -0.10566382698755986
0.405951 -0.153669 -0.09258882698755985
-0.088761 -0.21444 -0.10566382698755986
0.161756 -0.276222 -0.10566382698755986
0.095338 -0.281478 -0.09258882698755985
-0.11138 -0.29445 -0.10566382698755986
0.174618 -0.129671 -0.09258882698755985
0.289096 -0.130254 -0.09258882698755985
0.339626 -0.187615 -0.09258882698755985
0.166915 -0.177952 -0.10566382698755986
-0.162975 -0.259332 -0.09258882698755985
0.419472 -0.278364 -0.09258882698755985
0.370535 -0.132748 -0.10566382698755986
-0.154888 -0.18452 -0.10566382698755986
-0.170595 -0.336479 -0.09258882698755985
-0.087137 -0.181744 -0.09258882698755985
0.210407 -0.190246 -0.10566382698755986
0.471585 -0.310204 -0.09258882698755985
-0.189068 -0.238324 -0.09912582698755984
-0.141025 -0.31421 -0.09258882698755985
0.016737 -0.195192 -0.10566382698755986
0.013831 -0.225602 -0.09258882698755985
0.043598 -0.284046 -0.10566382698755986
0.121401 -0.108699 -0.09258882698755985
0.35157 -0.340739 -0.10566382698755986
-0.112944 -0.173299 -0.10566382698755986
-0.04809 -0.259573 -0.09258882698755985
0.098631 -0.251649 -0.09258882698755985
0.121813 -0.161576 -0.09258882698755985
0.050462 -0.195373 -0.10566382698755986
0.329177 -0.313958 -0.09258882698755985
-0.181142 -0.162239 -0.10566382698755986
0.353624 -0.221318 -0.09258882698755985
0.245018 -0.319988 -0.10566382698755986
-0.00418 -0.317633 -0.10566382698755986
0.043633 -0.312162 -0.10566382698755986
0.22881 -0.161426 -0.10566382698755986
0.002591 -0.174886 -0.09258882698755985
-0.106459 -0.237691 -0.09258882698755985
0.440397 -0.188356 -0.09258882698755985
0.285951 -0.154501 -0.10566382698755986
0.319396 -0.237733 -0.09258882698755985
0.339099 -0.10925 -0.10566382698755986
0.227256 -0.112631 -0.09258882698755985
0.30431 -0.203484 -0.10566382698755986
0.395885 -0.211369 -0.10566382698755986
0.044232 -0.131456 -0.10566382698755986
0.064612 -0.151992 -0.10566382698755986
0.302689 -0.315865 -0.09258882698755985
0.174747 -0.313994 -0.09258882698755985
-0.093351 -0.095261 -0.09258882698755985
0.321074 -0.170864 -0.10566382698755986
0.280327 -0.274202 -0.10566382698755986
0.257695 -0.085806 -0.10566382698755986
0.387123 -0.165601 -0.10566382698755986
0.203786 -0.117122 -0.10566382698755986
0.365079 -0.190348 -0.09258882698755985
0.217815 -0.228949 -0.09258882698755985
0.342578 -0.13756 -0.09258882698755985
-0.031996 -0.09751 -0.09258882698755985
-0.040433 -0.121765 -0.10566382698755986
-0.080681 -0.345222 -0.10509982698755985
0.171188 -0.218586 -0.10566382698755986
0.476653 -0.103546 -0.10566382698755986
0.098496 -0.193919 -0.09258882698755985
0.443218 -0.271736 -0.09258882698755985
0.327598 -0.262073 -0.10566382698755986
0.248291 -0.194539 -0.10566382698755986
0.143062 -0.173495 -0.10566382698755986
0.225007 -0.322555 -0.09258882698755985
-0.17669 -0.138881 -0.09258882698755985
0.440757 -0.144374 -0.09258882698755985
0.299527 -0.345222 -0.09387082698755986
0.413813 -0.302889 -0.09258882698755985
0.140055 -0.094962 -0.09694782698755985
0.423109 -0.332993 -0.10566382698755986
-0.055428 -0.281731 -0.09258882698755985
0.3435 -0.326426 0.12794417301244015
-0.011314 -0.326426 -0.020976826987559843
-0.08242 -0.332147 0.16674017301244015
0.20473 -0.326426 -0.007885826987559845
0.364857 -0.332147 -0.02950382698755985
0.0579 -0.326426 0.20075717301244014
0.204028 -0.326426 0.19992917301244015
0.34139 -0.332147 0.26369917301244017
0.089417 -0.332147 0.07392317301244015
0.484894 -0.332147 0.22805517301244016
0.095811 -0.326426 -0.07245082698755985
-0.094219 -0.326426 0.27753817301244016
-0.090189 -0.326426 0.05855717301244016
0.232271 -0.326426 0.09425217301244015
0.448987 -0.332147 0.006877173012440153
0.399972 -0.326426 0.19642617301244014
0.298391 -0.332147 0.027800173012440154
-0.002573 -0.326426 0.13090717301244015
0.136121 -0.326426 0.26157517301244015
-0.171799 -0.326426 0.15431917301244014
0.135746 -0.326426 0.15565717301244014
0.293641 -0.326426 0.19012917301244014
-0.031645 -0.326426 0.22859417301244014
0.403478 -0.326426 0.08034617301244015
-0.11687 -0.326426 -0.016496826987559846
0.243625 -0.332147 0.27952617301244015
-0.014677 -0.332147 0.051972173012440157
0.03243 -0.332147 0.27010717301244014
0.109303 -0.332147 -0.003166826987559844
0.460019 -0.326426 0.15382217301244017
0.268064 -0.332147 -0.03561982698755985
-0.136394 -0.326426 0.21381017301244015
0.179446 -0.326426 0.053226173012440155
0.409356 -0.332147 0.27142017301244015
0.06901 -0.326426 0.13910317301244016
0.045376 -0.332147 0.029503173012440154
0.293062 -0.332147 0.08973617301244016
-0.059264 -0.326426 0.11239817301244015
0.178738 -0.332147 0.11447917301244015
0.263842 -0.326426 0.14023917301244015
-0.063273 -0.332147 -0.05340082698755985
0.341738 -0.332147 0.06203517301244016
-0.139645 -0.332147 0.03509517301244015
0.244404 -0.326426 0.030518173012440156
0.026778 -0.332147 0.08618417301244016
0.283196 -0.326426 0.24367317301244015
0.157319 -0.332147 -0.04138482698755984
-0.146659 -0.326426 0.27230117301244017
-0.153387 -0.332147 0.10565417301244015
-0.083228 -0.326426 0.22251617301244014
0.350927 -0.332147 0.21210717301244014
0.186496 -0.332147 0.25114517301244016
0.107513 -0.326426 0.21356917301244016
0.469743 -0.326426 0.27477317301244014
0.436984 -0.332147 -0.041001826987559845
0.392702 -0.326426 0.13028017301244016
0.39729 -0.326426 0.031731173012440154
0.004759 -0.332147 0.17878617301244015
0.140389 -0.332147 0.07960517301244016
0.224956 -0.326426 -0.05567782698755984
0.433092 -0.332147 0.22967617301244014
-0.021228 -0.332147 0.2743941730124402
0.072854 -0.326426 0.24747417301244015
-0.006783 -0.332147 -0.07027582698755984
0.034994 -0.332147 -0.014763826987559847
-0.15751 -0.326426 -0.03585682698755985
-0.119791 -0.332147 0.13523117301244014
-0.079245 -0.326426 0.015547173012440157
0.250869 -0.326426 0.20080517301244016
0.118668 -0.332147 0.03988917301244015
0.435943 -0.332147 0.10956217301244014
0.363035 -0.332147 0.16985017301244015
-0.039637 -0.326426 0.15990417301244014
0.150483 -0.326426 0.22037417301244017
0.310397 -0.332147 -0.013448826987559843
0.404348 -0.332147 -0.013451826987559846
0.110934 -0.326426 0.10980317301244016
0.059811 -0.332147 -0.05149682698755985
0.168539 -0.332147 0.013757173012440158
0.027373 -0.326426 0.22983717301244017
0.188242 -0.332147 0.30142717301244015
0.090785 -0.332147 0.2895731730124401
0.439525 -0.326426 0.061593173012440154
0.357345 -0.332147 0.010239173012440157
0.309677 -0.332147 0.14790517301244016
0.003137 -0.326426 0.017699173012440155
-0.052914 -0.326426 -0.016274826987559846
0.453202 -0.326426 0.19203417301244016
0.363387 -0.326426 0.09548717301244015
0.303132 -0.326426 -0.05026782698755984
-0.159197 -0.332147 0.06746617301244015
-0.051877 -0.332147 0.05724817301244016
0.242261 -0.326426 -0.008397826987559844
-0.035988 -0.326426 0.021739173012440154
-0.175132 -0.326426 0.30451817301244016
0.373025 -0.332147 0.2936641730124402
-0.139897 -0.332147 0.17132317301244016
0.094594 -0.332147 0.16445117301244017
0.336432 -0.332147 -0.07113282698755985
-0.163273 -0.326426 0.0018051730124401533
-0.053057 -0.332147 0.19228217301244016
-0.115255 -0.326426 -0.07549982698755985
0.241668 -0.332147 0.23418217301244015
0.209409 -0.326426 0.029257173012440154
-0.178109 -0.326426 0.21517817301244016
-0.125029 -0.326426 0.08666217301244016
0.195586 -0.326426 0.14409317301244015
-0.055773 -0.332147 0.2874791730124402
0.276221 -0.326426 0.0026381730124401537
0.330971 -0.326426 0.17934117301244015
0.063971 -0.326426 -0.08463482698755984
0.369213 -0.332147 0.24436717301244015
0.088716 -0.332147 0.024595173012440154
0.102196 -0.326426 -0.03944582698755984
0.217862 -0.326426 0.16894517301244016
-0.06536 -0.332147 0.25005217301244015
0.20842 -0.326426 0.27556717301244016
-0.084108 -0.326426 -0.028538826987559843
0.201478 -0.326426 0.08306317301244015
0.375944 -0.326426 0.06340617301244016
0.40166 -0.326426 -0.04506282698755984
-0.084335 -0.332147 0.09307517301244016
0.059519 -0.326426 0.28581617301244017
0.139306 -0.326426 0.18720117301244016
-0.109869 -0.326426 0.18081117301244015
0.143322 -0.326426 -0.06843482698755984
0.18639 -0.326426 -0.03329182698755985
0.262892 -0.332147 0.09496617301244015
0.026556 -0.332147 -0.04417682698755984
0.440732 -0.332147 0.28195517301244016
0.42966 -0.326426 0.15553117301244015
-0.032617 -0.332147 -0.041766826987559846
0.325827 -0.326426 0.2905401730124402
-0.109619 -0.332147 0.25218117301244014
0.456841 -0.326426 0.03698117301244015
0.421011 -0.328421 0.31273817301244017
0.323696 -0.326426 0.08530817301244015
0.240699 -0.332147 0.12219517301244015
0.459894 -0.326426 0.09211617301244016
-0.089048 -0.326426 0.12163717301244016
0.065849 -0.332147 0.11068117301244015
0.101719 -0.332147 0.2626221730124402
0.208908 -0.326426 0.23364217301244017
-0.030318 -0.326426 0.11265017301244015
-0.003249 -0.326426 0.29624617301244016
-0.048149 -0.326426 -0.07724082698755984
0.313063 -0.332147 0.11954917301244015
0.468129 -0.332147 0.12745917301244014
0.061221 -0.326426 0.052005173012440155
-0.136988 -0.326426 -0.054906826987559845
0.312307 -0.332147 0.2667011730124401
0.124442 -0.332147 0.23681317301244015
0.151701 -0.332147 0.12088017301244015
0.377424 -0.326426 -0.05824682698755984
-0.135549 -0.332147 0.24278517301244015
0.09029 -0.330489 -0.09912582698755984
0.278851 -0.332147 0.16787117301244014
-0.091138 -0.332147 -0.06407282698755984
0.034205 -0.332147 0.18861017301244015
-0.075455 -0.326426 -0.08916482698755984
0.013315 -0.326426 0.06331817301244015
0.077378 -0.328055 0.31273817301244017
0.070732 -0.326426 0.17545917301244016
0.331257 -0.326426 -0.04538882698755985
-0.189132 -0.332147 0.05593417301244016
0.128712 -0.326426 -0.04317182698755985
0.413493 -0.326426 0.055503173012440156
0.023064 -0.326426 0.16019617301244016
0.261692 -0.326426 -0.07167482698755985
-0.042679 -0.332147 0.08974217301244015
0.133504 -0.332147 -0.014098826987559848
0.453871 -0.332147 -0.02056682698755985
0.269972 -0.326426 0.03747317301244016
-0.111693 -0.332147 0.22148917301244014
0.337497 -0.326426 0.026826173012440155
0.055038 -0.326426 0.0015721730124401562
0.283712 -0.326426 0.12285717301244016
0.478782 -0.326426 0.012002173012440158
0.169451 -0.326426 -0.011901826987559844
-0.154816 -0.326426 0.13443117301244017
0.115107 -0.326426 0.07630017301244016
0.22603 -0.326426 0.25641717301244016
0.479225 -0.332147 -0.02741182698755984
0.458434 -0.332147 -0.07486382698755985
0.083012 -0.332147 0.19963717301244016
0.225049 -0.326426 -0.02756582698755984
0.005383 -0.326426 0.24315017301244016
0.368859 -0.332147 0.12267517301244016
0.040168 -0.326426 -0.06691282698755985
0.421284 -0.332147 0.18358817301244015
0.29994 -0.326426 0.22446317301244015
-0.104276 -0.326426 0.0056551730124401525
0.085318 -0.332147 -0.010677826987559848
0.388007 -0.332147 0.009219173012440157
-0.181022 -0.326426 -0.02516382698755984
0.241689 -0.332147 0.17263217301244016
0.012973 -0.332147 0.10654217301244015
0.323183 -0.332147 0.24471917301244014
-0.174028 -0.332147 0.08696517301244015
0.487719 -0.326426 0.06601317301244015
0.479897 -0.326426 0.17935417301244017
-0.13058 -0.332147 0.06374017301244016
-0.106191 -0.326426 0.15684717301244017
0.289886 -0.326426 -0.02675682698755985
-0.187741 -0.332147 0.13142017301244016
0.089928 -0.326426 0.12125217301244015
-0.055959 -0.326426 0.22885417301244015
0.170743 -0.332147 0.20934317301244015
0.414062 -0.326426 0.10238717301244016
0.302131 -0.326426 0.29053417301244017
0.145242 -0.326426 0.29578817301244015
0.15728 -0.332147 0.14818117301244016
0.098063 -0.332147 0.05117517301244016
-0.162733 -0.326426 0.23284917301244015
0.235233 -0.326426 0.052011173012440154
-0.073951 -0.326426 0.03811317301244015
0.219657 -0.332147 0.06989717301244015
-0.285233 -0.327612 0.025981
-0.307861 -0.347225 0.05867
-0.346932 -0.347225 0.033489
-0.30322 -0.347225 0.004272
-0.270356 -0.327612 -0.024259
-0.33159 -0.327612 0.011389
-0.262412 -0.332727 0.008479
-0.336382 -0.347225 0.056495
-0.291641 -0.338267 0.075495
-0.266416 -0.347225 0.028293
-0.295073 -0.327612 -0.040481
-0.339578 -0.327612 0.044316
0.556414 -0.131453 0.106981
0.556414 -0.308931 -0.113707
0.556414 -0.279387 0.068242
0.536802 -0.644002 0.032314
0.556414 -0.181108 0.036294
0.536802 -0.272029 0.122301
0.536802 -0.118108 -0.039041
0.556414 -0.217478 0.078391
0.536802 -0.352739 -0.101494
