-0.268116 -0.073854 -0.017412
0.093624 -0.073854 0.098657
-0.004104 -0.102844 -0.243606
-0.21671 -0.073854 -0.001297
0.507136 -0.073854 -0.169659
0.107447 -0.073854 0.273932
-0.148669 -0.073854 -0.200552
-0.004291 -0.102844 0.134718
0.14129 -0.073854 -0.244304
0.06934 -0.073854 0.038151
-0.349478 -0.102844 -0.101036
-0.156846 -0.073854 -0.139507
-0.500543 -0.073854 0.160646
-0.230156 -0.073854 0.092966
0.303397 -0.073854 0.102989
-0.253066 -0.102844 -0.06764
-0.289996 -0.073854 -0.324018
0.59438 -0.073854 -0.04491
0.550645 -0.102844 -0.144813
-0.135032 -0.073854 -0.250557
-0.583792 -0.102844 -0.219386
-0.033711 -0.102844 -0.289761
-0.162942 -0.073854 0.133595
0.459338 -0.073854 -0.167354
0.430445 -0.102844 -0.319189
-0.252484 -0.073854 -0.090704
-0.498975 -0.102844 -0.238534
-0.216973 -0.073854 0.052254
-0.460347 -0.073854 -0.321655
0.597277 -0.102844 -0.185352
0.456073 -0.073854 -0.264115
0.023307 -0.102844 -0.213766
-0.272741 -0.102844 0.269006
0.226184 -0.073854 -0.279165
-0.051071 -0.073854 0.175384
0.439056 -0.073854 -0.066071
0.08186 -0.073854 -0.04566
-0.473636 -0.102844 -0.264575
0.496457 -0.102844 0.166615
-0.543775 -0.073854 0.180858
-0.646698 -0.073854 -0.063207
0.124927 -0.102844 0.204142
-0.534568 -0.102844 0.075238
0.565694 -0.102844 -0.30631
-0.160419 -0.102844 -0.166045
0.274944 -0.073854 -0.062961
-0.381238 -0.102844 -0.179018
-0.296458 -0.073854 0.083077
0.340328 -0.073854 0.204236
0.335611 -0.073854 -0.186419
-0.547919 -0.073854 0.07749
0.382313 -0.073854 0.162984
0.572246 -0.102844 -0.032764
0.261402 -0.073854 0.160545
0.15319 -0.073854 0.030853
-0.626024 -0.073854 -0.082476
-0.517113 -0.073854 -0.124248
0.3624 -0.073854 0.117823
0.046448 -0.073854 0.015012
-0.531152 -0.073854 0.288244
-0.170146 -0.102844 0.289292
0.640798 -0.102844 -0.261013
0.381265 -0.102844 0.191062
0.289668 -0.073854 -0.262983
0.092372 -0.073854 0.24729
0.680518 -0.102844 -0.078662
0.088015 -0.102844 -0.298277
0.032293 -0.102844 -0.183656
-0.078972 -0.073854 0.011146
0.526623 -0.102844 0.088645
0.411512 -0.073854 0.266298
0.213911 -0.073854 -0.167297
0.272938 -0.073854 -0.103105
-0.577969 -0.102844 -0.15674
0.198616 -0.073854 -0.04373
0.421654 -0.102844 0.271411
0.302942 -0.102844 0.290006
0.59936 -0.073854 -0.20353
-0.541768 -0.102844 -0.272252
-0.639897 -0.073854 -0.107002
0.573459 -0.102844 0.107273
0.2276 -0.073854 -0.005125
0.059624 -0.073854 0.20792
0.448201 -0.102844 0.219102
0.310874 -0.102844 0.070726
-0.630947 -0.073854 0.067281
0.060798 -0.102844 0.228033
-0.099867 -0.102844 0.231923
-0.198671 -0.073854 -0.159715
-0.451764 -0.102844 -0.223965
-0.329501 -0.102844 -0.218539
-0.332617 -0.102844 -0.06024
0.053245 -0.102844 0.274166
0.182189 -0.102844 -0.237234
0.638951 -0.102844 0.050112
-0.137338 -0.102844 -0.2813
-0.370784 -0.102844 0.206913
0.407855 -0.102844 -0.275855
-0.089633 -0.073854 -0.245598
-0.349649 -0.073854 0.172687
-0.338669 -0.073854 -0.26455
-0.616829 -0.073854 -0.115784
-0.388313 -0.102844 -0.273411
0.459158 -0.102844 0.068793
0.112983 -0.073854 -0.028443
0.33803 -0.102844 -0.259723
-0.081375 -0.073854 -0.128444
0.048269 -0.073854 -0.201117
-0.106802 -0.102844 -0.052352
0.558325 -0.102844 0.014539
-0.150187 -0.073854 0.25569
0.546373 -0.073854 -0.056347
-0.543592 -0.102844 0.277769
-0.56172 -0.073854 -0.145285
-0.586119 -0.102844 0.087253
-0.186024 -0.073854 -0.126471
-0.326538 -0.102844 -0.318457
0.32573 -0.102844 -0.133241
-0.619317 -0.102844 -0.214783
0.313977 -0.073854 0.250396
0.019988 -0.073854 -0.034637
0.576228 -0.102844 0.186629
-0.027574 -0.073854 0.265298
0.643581 -0.090395 0.291721
-0.456426 -0.073854 0.190624
-0.536398 -0.073854 -0.236979
-0.507495 -0.073854 0.20251
-0.606506 -0.102844 0.287281
0.365772 -0.073854 -0.164236
0.144233 -0.102844 -0.215506
0.36741 -0.073854 -0.270369
0.136524 -0.102844 0.25968
0.420059 -0.073854 -0.216254
-0.487347 -0.092973 0.291721
0.030685 -0.073854 -0.013353
0.202926 -0.102844 0.002601
0.635955 -0.073854 -0.322927
-0.636827 -0.102844 0.047795
0.082783 -0.102844 0.282204
0.072409 -0.102844 -0.279555
-0.323363 -0.102844 0.199974
0.059122 -0.102844 0.052194
-0.226503 -0.102844 -0.284616
-0.10332 -0.073854 0.173486
-0.350512 -0.073854 0.213711
-0.396443 -0.073854 -0.248861
-0.233138 -0.073854 -0.194626
-0.036128 -0.073854 -0.149718
0.117421 -0.073854 0.058868
0.549701 -0.073854 -0.129191
0.295058 -0.080157 0.291721
-0.109298 -0.073854 -0.207914
0.582803 -0.102844 0.291198
-0.0348 -0.073854 0.129073
-0.518065 -0.102844 -0.054777
-0.507118 -0.073854 -0.074574
-0.216129 -0.073854 -0.091836
0.153354 -0.101872 0.291721
0.466387 -0.102844 0.286953
0.346885 -0.073854 0.149968
0.528664 -0.073854 0.024397
-0.162047 -0.073854 0.205847
0.125626 -0.102844 -0.326436
0.131862 -0.102844 0.109506
0.625259 -0.102844 -0.186744
0.178635 -0.078451 0.291721
-0.288087 -0.073854 0.222026
0.041568 -0.102844 -0.062722
0.607323 -0.073854 0.27579
0.518658 -0.073854 -0.046088
-0.071748 -0.102844 -0.230416
-0.497959 -0.102844 0.039884
-0.039049 -0.102844 0.043512
0.372518 -0.102844 -0.186184
0.479075 -0.102844 -0.125197
0.510539 -0.073854 -0.125205
0.062472 -0.073854 -0.131089
0.16389 -0.102844 0.134002
-0.444353 -0.073854 0.170015
0.085779 -0.073854 -0.234096
0.441242 -0.073854 -0.230233
-0.403589 -0.102844 -0.139157
-0.5924 -0.102844 -0.300964
-0.349875 -0.073854 -0.179876
-0.336203 -0.102844 0.280322
-0.51466 -0.073854 0.129023
0.21494 -0.102844 -0.215715
-0.53109 -0.073854 0.027931
-0.587586 -0.102844 -0.17741
-0.398288 -0.073854 -0.08194
0.528563 -0.073854 -0.190493
0.440237 -0.102844 0.096026
0.206298 -0.102844 -0.129727
0.703925 -0.715549 -0.034667
0.703925 -0.715233 -0.316083
0.703925 -0.660528 -0.185548
0.703925 -0.638913 0.07392
0.703925 -0.621703 -0.058233
0.703925 -0.621833 -0.316043
0.703925 -0.697725 0.159772
0.703925 -0.582085 -0.14152
0.703925 -0.584149 0.01488
0.703925 -0.573922 0.169861
0.703925 -0.715945 0.062327
0.703925 -0.714123 -0.112312
0.703925 -0.620321 -0.242968
0.703925 -0.584335 -0.370152
0.703925 -0.713888 -0.212541
0.703925 -0.675958 -0.271121
0.703925 -0.570826 -0.205119
0.703925 -0.550758 -0.309867
0.703925 -0.646964 0.130709
0.703925 -0.673188 0.024304
0.703925 -0.56515 -0.084337
0.70241 -0.694268 -0.375042
0.703925 -0.668189 -0.333266
0.703925 -0.626051 0.18595
0.703925 -0.629112 -0.12947
0.703925 -0.665378 -0.041657
0.703925 -0.569402 -0.040502
0.703925 -0.627357 0.019904
0.703925 -0.707328 0.104735
0.703925 -0.687623 -0.079395
0.703925 -0.612136 0.107152
0.703925 -0.611225 -0.169894
0.703925 -0.566693 0.066314
0.703925 -0.584791 -0.328653
0.703925 -0.58249 -0.248521
0.703925 -0.708754 0.195294
0.703925 -0.664319 -0.235905
0.703925 -0.613709 -0.206651
0.703925 -0.662981 -0.142598
0.703925 -0.583228 0.13475
0.688198 -0.669711 0.19992
0.703925 -0.600736 -0.025323
0.703925 -0.636063 -0.347413
0.703925 -0.548052 0.023978
0.703925 -0.705272 0.016814
0.703925 -0.712694 -0.283296
0.703925 -0.683358 0.066122
0.703925 -0.676635 -0.01163
0.703925 -0.546596 0.187871
0.703925 -0.682289 -0.207891
0.703925 -0.667291 0.166179
0.703925 -0.595844 0.043543
0.703925 -0.705269 -0.141725
0.703925 -0.677564 -0.107678
0.703925 -0.676458 0.095083
0.703925 -0.679899 -0.300523
0.703925 -0.616755 -0.374166
0.703925 -0.547734 -0.182173
0.703925 -0.551049 -0.281438
0.703925 -0.547264 -0.233621
0.703925 -0.648688 -0.06489
0.703925 -0.705741 0.132226
0.703925 -0.607997 -0.292377
0.703925 -0.578337 -0.179289
0.703925 -0.578812 -0.107301
0.703925 -0.561232 -0.015688
0.702472 -0.648111 0.19992
0.703925 -0.650382 -0.267184
0.703669 -0.647845 -0.375042
0.703925 -0.543808 -0.349269
0.703925 -0.608413 -0.265526
0.702864 -0.568739 0.19992
0.703925 -0.702428 -0.351585
0.703925 -0.645636 -0.313597
0.703925 -0.684866 0.182378
0.703925 -0.571941 0.034889
0.703925 -0.635916 -0.039889
0.703925 -0.555695 -0.107929
0.703925 -0.543393 0.165196
0.703925 -0.574334 -0.348884
0.074853 -0.706336 -0.375041
-0.355211 -0.709861 -0.375041
0.521415 -0.709285 -0.375041
0.302052 -0.546466 -0.375041
-0.142627 -0.595752 -0.375041
-0.63641 -0.607691 -0.375041
0.290776 -0.711143 -0.375041
-0.297051 -0.5645 -0.375041
0.637305 -0.590508 -0.375041
-0.449899 -0.592837 -0.375041
0.444641 -0.595993 -0.375041
0.189165 -0.623304 -0.375041
-0.00992 -0.586235 -0.375041
-0.085923 -0.712897 -0.375041
-0.503672 -0.697278 -0.375041
-0.246132 -0.675324 -0.375041
-0.53958 -0.489372 -0.374331
0.410602 -0.489372 -0.371126
0.42309 -0.710593 -0.375041
0.61496 -0.686773 -0.375041
-0.084269 -0.519709 -0.375041
0.358785 -0.640615 -0.375041
0.542508 -0.585563 -0.375041
0.595949 -0.506195 -0.375041
0.10097 -0.591768 -0.375041
0.173906 -0.71494 -0.375041
-0.547804 -0.587153 -0.375041
-0.368412 -0.621811 -0.375041
0.020243 -0.497063 -0.375041
-0.23305 -0.502268 -0.375041
-0.587228 -0.705903 -0.375041
-0.167904 -0.703792 -0.375041
-0.008622 -0.668095 -0.375041
0.280389 -0.629846 -0.375041
-0.370014 -0.539842 -0.375041
-0.603123 -0.532445 -0.375041
0.166723 -0.544032 -0.375041
-0.428114 -0.696303 -0.375041
-0.233842 -0.604724 -0.375041
-0.152477 -0.505741 -0.375041
0.677821 -0.646611 -0.375041
-0.49296 -0.540493 -0.375041
0.365923 -0.573731 -0.375041
-0.298586 -0.635243 -0.375041
0.513517 -0.52668 -0.375041
0.26786 -0.489372 -0.360275
-0.073252 -0.591939 -0.375041
0.494872 -0.652154 -0.375041
0.232872 -0.670277 -0.375041
0.037933 -0.628047 -0.375041
0.140679 -0.658416 -0.375041
-0.295766 -0.712921 -0.375041
-0.07845 -0.65097 -0.375041
-0.301881 -0.492638 -0.375041
0.039183 -0.552528 -0.375041
0.246567 -0.582737 -0.375041
0.591055 -0.634043 -0.375041
-0.563569 -0.654418 -0.375041
0.454503 -0.522697 -0.375041
0.112427 -0.535442 -0.375041
-0.194938 -0.565993 -0.375041
-0.499537 -0.614791 -0.375041
0.361663 -0.513186 -0.375041
0.655582 -0.489372 -0.370063
0.409205 -0.659714 -0.375041
-0.429716 -0.538716 -0.375041
0.089464 -0.649924 -0.375041
0.234785 -0.532312 -0.375041
-0.419014 -0.633894 -0.375041
0.373224 -0.701925 -0.375041
-0.020628 -0.714756 -0.375041
0.070117 -0.51363 -0.375041
-0.133868 -0.672512 -0.375041
0.461082 -0.683604 -0.375041
-0.378367 -0.670049 -0.375041
0.33414 -0.678702 -0.375041
0.202562 -0.571586 -0.375041
-0.191184 -0.489372 -0.35856
-0.348401 -0.50025 -0.375041
0.570749 -0.679164 -0.375041
-0.395578 -0.498512 -0.375041
0.633603 -0.545958 -0.375041
0.594904 -0.577088 -0.375041
-0.20208 -0.676208 -0.375041
0.535049 -0.634511 -0.375041
-0.317765 -0.67532 -0.375041
-0.518562 -0.656466 -0.375041
0.12057 -0.696909 -0.375041
-0.611182 -0.489372 -0.367638
0.320685 -0.501744 -0.375041
0.393929 -0.605733 -0.375041
0.155391 -0.597541 -0.375041
-0.497298 -0.48984 -0.375041
-0.167213 -0.629994 -0.375041
0.230848 -0.624048 -0.375041
0.636454 -0.651094 -0.375041
0.3941 -0.538992 -0.375041
-0.154677 -0.546709 -0.375041
-0.603833 -0.66221 -0.375041
-0.623459 -0.567804 -0.375041
0.480945 -0.489372 -0.360175
-0.016479 -0.628819 -0.375041
0.680409 -0.547164 -0.375041
-0.315935 -0.599196 -0.375041
0.061606 -0.593191 -0.375041
-0.413978 -0.574814 -0.375041
0.523133 -0.489372 -0.367325
0.456128 -0.644717 -0.375041
0.663777 -0.698737 -0.375041
-0.46481 -0.68472 -0.375041
-0.2414 -0.567104 -0.375041
0.507916 -0.601506 -0.375041
0.017082 -0.695761 -0.375041
0.321384 -0.637438 -0.375041
0.675534 -0.609604 -0.375041
0.222253 -0.497557 -0.375041
0.574447 -0.535738 -0.375041
-0.047905 -0.517299 -0.375041
-0.119505 -0.490229 -0.375041
-0.202741 -0.623505 -0.375041
0.433826 -0.561737 -0.375041
-0.567553 -0.531452 -0.375041
-0.186542 -0.531285 -0.375041
-0.312166 -0.526356 -0.375041
0.206777 -0.702766 -0.375041
0.421866 -0.626782 -0.375041
-0.118179 -0.570898 -0.375041
-0.526842 -0.54747 -0.375041
-0.270559 -0.615452 -0.375041
-0.003159 -0.522097 -0.375041
0.47824 -0.584412 -0.375041
-0.581997 -0.585243 -0.375041
-0.573709 -0.489372 -0.373832
0.444186 -0.489372 -0.365109
0.543593 -0.551478 -0.375041
0.174048 -0.664965 -0.375041
-0.046327 -0.693099 -0.375041
0.282914 -0.519374 -0.375041
-0.039555 -0.605206 -0.375041
-0.348915 -0.565194 -0.375041
-0.027441 -0.558534 -0.375041
0.553712 -0.714089 -0.375041
0.163199 -0.511627 -0.375041
-0.520041 -0.515611 -0.375041
-0.45117 -0.628925 -0.375041
0.340576 -0.537881 -0.375041
0.021419 -0.59425 -0.375041
0.091859 -0.560352 -0.375041
0.278502 -0.585822 -0.375041
-0.418875 -0.665682 -0.375041
-0.06668 -0.560872 -0.375041
0.26123 -0.684419 -0.375041
-0.618137 -0.712776 -0.375041
0.491366 -0.692816 -0.375041
0.12685 -0.489372 -0.366092
-0.218633 -0.530269 -0.375041
0.661202 -0.522333 -0.375041
0.384644 -0.489372 -0.353667
-0.166266 -0.672558 -0.375041
0.372975 -0.670651 -0.375041
0.556274 -0.489372 -0.357245
-0.181802 -0.60101 -0.375041
0.323153 -0.707234 -0.375041
-0.130632 -0.527827 -0.375041
-0.606075 -0.605177 -0.375041
0.621107 -0.489372 -0.37232
0.15079 -0.693943 -0.375041
-0.392084 -0.595812 -0.375041
0.604725 -0.60576 -0.375041
-0.039031 -0.663843 -0.375041
0.474984 -0.621192 -0.375041
0.002647 -0.558395 -0.375041
-0.488868 -0.655048 -0.375041
-0.067734 -0.489372 -0.360141
-0.62797 -0.645611 -0.375041
-0.63781 -0.498696 -0.375041
0.046275 -0.655918 -0.375041
0.266034 -0.559601 -0.375041
0.516453 -0.572921 -0.375041
-0.339857 -0.615422 -0.375041
0.400453 -0.577781 -0.375041
-0.346814 -0.682459 -0.375041
-0.395104 -0.693139 -0.375041
-0.46012 -0.489372 -0.366845
-0.442483 -0.513506 -0.375041
0.080733 -0.613979 -0.375041
0.386773 -0.63951 -0.375041
0.357451 -0.600362 -0.375041
0.599385 -0.663614 -0.375041
0.123044 -0.608702 -0.375041
-0.565089 -0.558948 -0.375041
0.040126 -0.489372 -0.357551
-0.402981 -0.525039 -0.375041
0.053828 -0.688591 -0.375041
-0.645372 -0.713994 -0.375041
-0.479679 -0.510568 -0.375041
0.304329 -0.658544 -0.375041
-0.324705 -0.642394 -0.375041
-0.21743 -0.64624 -0.375041
0.108482 -0.672786 -0.375041
-0.419979 -0.489372 -0.368223
-0.489476 -0.489372 -0.34963
0.430119 -0.533268 -0.375041
-0.017465 -0.489372 -0.352279
0.415258 -0.685618 -0.375041
-0.469419 -0.551928 -0.375041
-0.293071 -0.68381 -0.375041
0.142586 -0.553903 -0.375041
-0.201961 -0.506453 -0.375041
0.020333 -0.64701 -0.375041
-0.616019 -0.684945 -0.375041
0.155918 -0.637771 -0.375041
0.30795 -0.686689 -0.375041
0.211953 -0.54319 -0.375041
-0.526341 -0.680366 -0.375041
0.603925 -0.709209 -0.375041
-0.416176 -0.60244 -0.375041
-0.087302 -0.687999 -0.375041
0.369176 -0.539476 -0.375041
0.519875 -0.684425 -0.375041
-0.10675 -0.534735 -0.375041
0.637201 -0.697683 -0.375041
-0.054629 -0.644346 -0.375041
0.114525 -0.569879 -0.375041
0.420081 -0.597052 -0.375041
-0.143466 -0.70616 -0.375041
0.296636 -0.489372 -0.370097
-0.445833 -0.7127 -0.375041
0.577597 -0.710804 -0.375041
-0.556341 -0.489372 -0.357039
0.317591 -0.489372 -0.354829
-0.526818 -0.634086 -0.375041
-0.384317 -0.558763 -0.375041
0.068107 -0.489372 -0.368664
-0.512599 -0.595155 -0.375041
-0.175793 -0.495668 -0.375041
0.659487 -0.583118 -0.375041
0.006593 -0.625714 -0.375041
-0.034728 -0.582442 -0.375041
-0.244469 -0.625244 -0.375041
0.506793 -0.503671 -0.375041
-0.332617 -0.581356 -0.375041
-0.214726 -0.489372 -0.351982
-0.374409 -0.489372 -0.364515
-0.625342 -0.52728 -0.375041
0.556874 -0.628209 -0.375041
-0.668252 -0.711513 0.19871
-0.668252 -0.704885 -0.165804
-0.668252 -0.576752 0.035069
-0.668252 -0.542834 -0.21537
-0.668252 -0.711742 -0.021951
-0.668252 -0.710482 -0.308502
-0.668252 -0.604403 0.150952
-0.668252 -0.67687 0.070305
-0.668252 -0.622493 -0.120538
-0.668252 -0.634491 -0.254691
-0.668252 -0.604251 -0.040116
-0.668252 -0.558148 -0.321
-0.668252 -0.710808 -0.094008
-0.649969 -0.675356 -0.375042
-0.668252 -0.628583 -0.186666
-0.668252 -0.568831 -0.150779
-0.668252 -0.626253 -0.314884
-0.668252 -0.596847 0.094841
-0.663565 -0.543435 -0.375042
-0.668252 -0.573675 -0.262137
-0.668252 -0.689763 0.124361
-0.66024 -0.628295 0.19992
-0.668252 -0.65212 -0.067034
-0.668252 -0.636419 0.034029
-0.668252 -0.656356 0.160056
-0.668252 -0.682665 -0.208193
-0.668252 -0.586448 -0.205132
-0.668252 -0.6681 -0.329907
-0.668252 -0.676156 -0.280245
-0.668252 -0.709425 -0.353979
-0.668252 -0.564134 0.134712
-0.668252 -0.640156 0.097723
-0.668252 -0.580381 -0.110237
-0.668252 -0.604294 0.001441
-0.668252 -0.671796 0.012548
-0.668252 -0.590118 -0.297724
-0.668252 -0.626891 -0.365296
-0.668252 -0.689527 -0.12521
-0.668252 -0.593734 0.188458
-0.668252 -0.573087 -0.018191
-0.668252 -0.709308 0.155232
-0.668252 -0.551881 0.170518
-0.668252 -0.711334 -0.056168
-0.668252 -0.63093 0.130103
-0.668252 -0.700623 0.046792
-0.668252 -0.61349 -0.08845
-0.668252 -0.600144 -0.161834
-0.668252 -0.647463 -0.159987
-0.665829 -0.596324 -0.375042
-0.668252 -0.542579 -0.259326
-0.668252 -0.586667 0.0654
-0.668252 -0.644365 -0.290535
-0.668252 -0.652367 -0.122144
-0.668252 -0.678316 -0.237306
-0.668252 -0.599797 -0.327506
-0.668252 -0.670241 0.103014
-0.668252 -0.639086 0.062685
-0.668252 -0.712877 -0.192198
-0.668252 -0.703273 0.07588
-0.668252 -0.569297 -0.177385
-0.668252 -0.685617 -0.021876
-0.668252 -0.696318 0.003907
-0.668252 -0.554708 -0.050887
-0.668252 -0.583955 0.11816
-0.668252 -0.55695 0.051582
-0.668252 -0.557885 -0.236222
-0.668252 -0.599816 -0.13238
-0.652353 -0.692159 0.19992
-0.668252 -0.612022 0.037068
-0.668252 -0.569137 0.196343
-0.668252 -0.705624 -0.284969
-0.668252 -0.550813 -0.192769
-0.668252 -0.686315 -0.180805
-0.668252 -0.55136 -0.280815
-0.668252 -0.678656 0.154359
-0.668252 -0.664646 -0.366287
-0.668252 -0.664189 -0.307501
0.079119 -0.710373 0.19992
-0.222312 -0.716331 0.19992
0.657529 -0.631202 0.19992
0.317327 -0.707781 0.19992
-0.438649 -0.619019 0.19992
0.497277 -0.700266 0.19992
-0.082061 -0.646815 0.19992
0.199198 -0.628345 0.19992
-0.573192 -0.576731 0.19992
-0.223226 -0.583709 0.19992
-0.547583 -0.700557 0.19992
0.399208 -0.610325 0.19992
-0.338152 -0.689999 0.19992
0.026975 -0.608321 0.19992
0.527152 -0.59734 0.19992
0.296395 -0.574064 0.19992
-0.447545 -0.713372 0.19992
-0.317084 -0.59098 0.19992
0.121996 -0.57129 0.19992
0.223905 -0.714581 0.19992
0.585835 -0.682693 0.19992
-0.133982 -0.559397 0.19992
-0.046688 -0.567786 0.19992
0.604824 -0.566034 0.19992
0.415946 -0.691971 0.19992
-0.128283 -0.712305 0.19992
0.206684 -0.542548 0.19992
0.005211 -0.68445 0.19992
-0.389484 -0.538487 0.19992
-0.161996 -0.63063 0.19992
-0.605692 -0.65504 0.19992
-0.255058 -0.64975 0.19992
-0.510568 -0.628877 0.19992
0.442305 -0.552289 0.19992
0.127322 -0.657085 0.19992
0.331496 -0.633518 0.19992
0.262753 -0.651261 0.19992
-0.644529 -0.567121 0.19992
-0.376995 -0.638323 0.19992
0.468949 -0.62482 0.19992
-0.271665 -0.546264 0.19992
0.348269 -0.547905 0.19992
-0.52538 -0.546936 0.19992
0.158642 -0.703117 0.19992
0.520597 -0.535778 0.19992
0.075698 -0.637224 0.19992
-0.39275 -0.69727 0.19992
0.666887 -0.697756 0.19992
0.038162 -0.540829 0.19992
0.522238 -0.650957 0.19992
0.655748 -0.551166 0.19992
0.239093 -0.584544 0.19992
0.105972 -0.520904 0.19992
-0.093851 -0.593791 0.19992
-0.475591 -0.581508 0.19992
-0.314466 -0.643297 0.19992
-0.009425 -0.520759 0.19992
0.586442 -0.633694 0.19992
-0.342622 -0.548966 0.19992
-0.035247 -0.638378 0.19992
-0.568435 -0.625853 0.19992
-0.265836 -0.697906 0.19992
-0.061428 -0.688526 0.19992
-0.402281 -0.591392 0.19992
0.049984 -0.674302 0.19992
0.676169 -0.590851 0.19992
-0.61162 -0.611163 0.19992
0.356416 -0.597319 0.19992
0.39893 -0.558996 0.19992
0.191719 -0.674437 0.19992
0.369943 -0.653754 0.19992
0.467864 -0.668463 0.19992
-0.504617 -0.705323 0.19992
-0.464606 -0.535566 0.19992
0.194299 -0.585624 0.19992
-0.588033 -0.536524 0.19992
0.164478 -0.549125 0.19992
0.428123 -0.641248 0.19992
0.471871 -0.582701 0.19992
-0.626622 -0.707122 0.19992
-0.445499 -0.671757 0.19992
-0.267996 -0.610153 0.19992
0.634462 -0.672606 0.19992
0.081026 -0.569851 0.19992
-0.428225 -0.554026 0.19992
-0.15913 -0.685656 0.19992
0.537123 -0.68863 0.19992
0.634654 -0.593282 0.19992
-0.008386 -0.589188 0.19992
0.261862 -0.691396 0.19992
-0.108631 -0.677531 0.19992
-0.183626 -0.581016 0.19992
-0.215605 -0.648471 0.19992
0.481534 -0.526718 0.19992
-0.123291 -0.624897 0.19992
0.35396 -0.694774 0.19992
0.556242 -0.57157 0.19992
-0.47032 -0.6424 0.19992
-0.082929 -0.555146 0.19992
0.013259 -0.643839 0.19992
0.674567 -0.518224 0.19992
-0.08632 -0.716214 0.19992
0.379003 -0.527192 0.19992
-0.52238 -0.663906 0.19992
0.154401 -0.51405 0.19992
-0.502689 -0.519013 0.19992
0.105732 -0.68643 0.19992
0.004939 -0.553826 0.19992
0.433277 -0.601341 0.19992
0.550658 -0.630388 0.19992
-0.190841 -0.700843 0.19992
0.594053 -0.59962 0.19992
0.164465 -0.630261 0.19992
0.563927 -0.524383 0.19992
-0.579826 -0.713193 0.19992
0.255603 -0.617495 0.19992
-0.029313 -0.675909 0.19992
0.383753 -0.710907 0.19992
-0.524473 -0.580537 0.19992
0.157408 -0.581914 0.19992
0.320119 -0.529681 0.19992
0.106937 -0.600459 0.19992
-0.161745 -0.542014 0.19992
0.505941 -0.622813 0.19992
0.244193 -0.51494 0.19992
-0.054389 -0.536209 0.19992
-0.038725 -0.606102 0.19992
0.292689 -0.638788 0.19992
-0.1285 -0.591258 0.19992
0.332082 -0.575465 0.19992
-0.234554 -0.67403 0.19992
0.272995 -0.552638 0.19992
-0.609228 -0.560104 0.19992
-0.645743 -0.514169 0.19992
-0.125397 -0.523223 0.19992
0.063113 -0.608433 0.19992
-0.234556 -0.62353 0.19992
0.455784 -0.697342 0.19992
0.075098 -0.518238 0.19992
-0.239032 -0.557141 0.19992
0.32148 -0.604726 0.19992
0.616753 -0.634999 0.19992
-0.557343 -0.671936 0.19992
-0.641158 -0.604769 0.19992
-0.315557 -0.535721 0.19992
0.504075 -0.577967 0.19992
0.413732 -0.517271 0.19992
0.235298 -0.677581 0.19992
0.560785 -0.602248 0.19992
0.619448 -0.540077 0.19992
-0.380936 -0.670258 0.19992
-0.562478 -0.521904 0.19992
0.280007 -0.601108 0.19992
-0.305473 -0.67109 0.19992
0.336919 -0.671277 0.19992
-0.29515 -0.572067 0.19992
-0.296898 -0.611663 0.19992
0.565378 -0.66252 0.19992
0.134787 -0.534935 0.19992
0.272357 -0.52009 0.19992
0.66134 -0.66182 0.19992
-0.43144 -0.592059 0.19992
-0.209831 -0.61081 0.19992
-0.542549 -0.644767 0.19992
-0.144405 -0.651882 0.19992
-0.400978 -0.618674 0.19992
-0.379362 -0.563796 0.19992
0.17041 -0.65764 0.19992
0.090776 -0.54499 0.19992
-0.280973 -0.660479 0.19992
0.022767 -0.703722 0.19992
0.19846 -0.708976 0.19992
-0.48177 -0.606798 0.19992
-0.064432 -0.603539 0.19992
-0.546966 -0.567877 0.19992
-0.133334 -0.684943 0.19992
0.292117 -0.713206 0.19992
0.567907 -0.701187 0.19992
0.520526 -0.711241 0.19992
-0.623235 -0.581662 0.19992
0.630875 -0.563092 0.19992
-0.638123 -0.641281 0.19992
-0.153297 -0.585294 0.19992
-0.404702 -0.518199 0.19992
0.610163 -0.665475 0.19992
-0.158494 -0.710943 0.19992
-0.3759 -0.715842 0.19992
-0.497337 -0.663918 0.19992
-0.173393 -0.603775 0.19992
-0.612738 -0.533544 0.19992
0.393306 -0.634456 0.19992
-0.057534 -0.65014 0.19992
-0.482173 -0.715555 0.19992
0.305701 -0.549528 0.19992
0.443765 -0.669007 0.19992
0.457486 -0.525675 0.19992
-0.247061 -0.583065 0.19992
0.216389 -0.644627 0.19992
0.40507 -0.67155 0.19992
-0.32166 -0.558708 0.19992
0.653807 -0.60616 0.19992
-0.456679 -0.513927 0.19992
-0.410416 -0.682762 0.19992
0.703925 0.615744 -0.351366
0.703925 -0.255194 -0.35533
0.684599 0.190193 -0.056575
0.703925 -0.335532 0.019901
0.684599 0.551215 -0.006804
0.684599 0.055627 -0.34962
0.703925 -0.527976 -0.254095
0.684599 -0.056747 0.07636
0.703925 0.347405 0.180982
0.703925 0.111297 0.253871
0.703925 0.378272 -0.194687
0.703925 -0.180819 -0.145821
0.703925 -0.518337 -0.053178
0.684599 0.01178 -0.152859
0.684599 -0.256801 0.207727
0.703925 0.246032 -0.336587
0.691707 0.42741 -0.375042
0.684599 -0.370662 -0.159608
0.703925 0.365341 -0.009903
0.703925 0.579396 -0.181854
0.703925 -0.464375 0.155169
0.684599 0.196943 0.112142
0.684599 -0.416294 -0.373871
0.703925 0.492113 0.226357
0.684599 0.149913 -0.214426
0.703925 -0.030541 0.221521
0.703925 0.068848 0.001281
0.684599 -0.191428 0.062218
0.703925 -0.085868 -0.056028
0.703925 0.066956 0.134229
0.703925 0.467693 -0.105481
0.699093 0.617067 0.22182
0.703925 -0.529903 0.259431
0.703925 0.476963 0.101314
0.684599 0.488236 -0.271308
0.703925 -0.26154 -0.231837
0.703925 0.261628 -0.185725
0.703925 -0.349885 0.140675
0.684599 -0.271027 -0.076883
0.703925 -0.142858 0.196126
0.703925 0.253404 0.246079
0.703925 0.589476 0.100987
0.703925 -0.369594 -0.269689
0.684599 0.303567 0.077257
0.702164 -0.064216 -0.375042
0.703925 0.000871 -0.260268
0.703925 0.287802 -0.083648
0.684599 0.101438 -0.107975
0.703925 -0.391432 -0.063126
0.703925 -0.084827 -0.18458
0.701614 0.617067 -0.079102
0.703925 -0.519659 -0.358152
0.703925 -0.354387 0.242467
0.703925 0.144663 -0.315485
0.684599 0.363059 0.272166
0.684599 -0.188645 -0.030956
0.703925 -0.540826 0.096726
0.684599 0.15547 0.030648
0.703925 0.45668 -0.011627
0.684599 0.31469 -0.255979
0.684599 0.006067 -0.064753
0.684599 -0.276986 0.083098
0.703925 -0.158066 -0.23548
0.703925 0.40026 -0.277228
0.703925 0.511887 -0.372454
0.703925 -0.105682 0.272005
0.703925 0.387057 0.106707
0.703925 0.236602 0.022208
0.703925 0.175804 0.200565
0.684599 -0.447767 -0.296696
0.684599 0.192084 -0.142969
0.684599 -0.408312 0.053644
0.703925 0.463298 -0.195913
0.703925 -0.128343 0.109056
0.684599 -0.458106 -0.217178
0.684599 -0.208938 0.143766
0.703925 -0.438775 0.230762
0.684599 0.06807 -0.222813
0.703925 -0.290953 -0.158574
0.684599 0.549035 0.165967
0.700424 0.315222 -0.375042
0.703925 -0.030744 0.004585
0.684599 0.369897 -0.105474
0.684599 0.431662 0.167686
0.703925 0.276368 0.147056
0.684599 -0.446404 -0.013023
0.703925 -0.453575 -0.142762
0.691434 0.617067 0.030801
0.703925 -0.106639 0.02306
0.703925 -0.207914 -0.291011
0.684599 0.544658 -0.083148
0.703925 0.041622 0.205265
0.684599 -0.255904 -0.000355
0.684599 0.029531 0.074769
0.703925 0.016982 0.276628
0.703925 0.557281 0.263027
0.703925 -0.508664 0.02052
0.684599 0.220287 -0.272285
0.684599 -0.001099 0.145021
0.703925 0.128966 0.093264
0.684599 -0.294775 0.273382
0.684599 -0.295142 -0.295228
0.684599 -0.11569 -0.115066
0.684599 0.107014 0.188356
0.684599 0.302232 0.009504
0.703925 -0.514872 -0.185655
0.684599 0.314639 -0.143209
0.684599 -0.047669 -0.107266
0.703925 -0.175016 -0.372449
0.684599 -0.322843 -0.218851
0.703925 0.421167 0.249607
0.703925 0.115965 -0.047677
0.684599 0.544094 0.058943
0.684599 0.078256 -0.28679
0.684599 -0.333408 -0.093838
0.684599 -0.121855 -0.341695
0.703925 0.538234 -0.235822
0.684599 0.419026 -0.149792
0.684599 -0.206396 0.246238
0.703925 -0.062264 -0.271491
0.703925 0.377919 -0.336098
0.703925 0.408037 -0.056015
0.684599 -0.317447 0.191391
0.703925 0.092503 -0.168361
0.689489 0.135702 -0.375042
0.703925 -0.021794 -0.202786
0.684599 0.429432 0.066137
0.684599 -0.385785 0.193199
0.684599 0.523849 -0.163718
0.703925 0.56259 -0.31677
0.684599 -0.212358 -0.093773
0.684599 0.250889 -0.033801
0.684599 -0.421279 0.112672
0.684599 -0.455065 -0.085705
0.684599 -0.269238 0.149311
0.684599 0.442645 -0.314538
0.703925 0.60695 0.158003
0.684599 -0.345477 0.084472
0.703925 0.489122 0.167482
0.703925 -0.390325 -0.00445
0.684599 0.295889 0.21076
0.684599 0.359463 0.044888
0.703925 0.150853 0.147146
0.701055 0.617067 -0.13782
0.703925 -0.31414 -0.033971
0.703925 0.194396 0.262972
0.703925 0.486703 0.044708
0.703925 0.316717 -0.202029
0.703925 0.320063 -0.309646
0.703925 0.218741 0.161459
0.703925 -0.514852 -0.128861
0.684599 -0.227459 -0.171659
0.703925 0.61387 0.278212
0.684599 0.206387 -0.213697
0.703925 0.12635 -0.261625
0.684599 -0.463109 0.065291
0.703925 0.242632 -0.129069
0.703925 -0.067358 0.127586
0.684599 -0.133204 -0.032732
0.703925 -0.382456 -0.323547
0.684599 -0.150734 -0.290547
0.703925 0.056666 -0.07482
0.703925 -0.415564 -0.184904
0.684599 0.083743 0.050487
0.703925 -0.491878 0.216942
0.684599 0.327996 -0.044526
0.703925 -0.468102 -0.375033
0.684599 0.247428 0.092529
0.684599 0.31036 0.284636
0.684599 0.390388 0.209869
0.684599 0.02728 -0.303865
0.703925 -0.520173 0.171238
0.703925 0.266073 -0.246049
0.703925 0.562677 -0.131344
0.698242 0.564666 -0.375042
0.702061 -0.33355 -0.375042
0.698878 0.01131 -0.375042
0.684599 0.497181 -0.038712
0.684599 0.600666 -0.023326
0.684599 0.406428 0.019406
0.703925 0.538366 0.11091
0.684599 -0.374437 -0.210857
0.684599 0.022716 0.013008
0.703925 -0.085552 0.213762
0.684599 -0.404127 0.263224
0.703925 0.178375 -0.010562
0.703925 0.198449 0.055904
0.703925 0.432622 -0.23801
0.703925 -0.105312 -0.244478
0.703925 0.334948 0.111762
0.684599 -0.165033 -0.076413
0.703925 0.183636 -0.358934
0.703925 0.604702 -0.232009
0.684599 -0.151716 -0.18966
0.703925 -0.211315 0.189089
0.703925 -0.249915 -0.131602
0.684599 0.385462 0.151407
0.684599 0.475819 -0.153098
0.703925 0.552956 0.214645
0.684599 -0.227891 0.099186
0.703925 0.416872 -0.103548
0.684599 -0.490668 -0.325468
0.684599 0.053449 -0.118112
0.684599 -0.20103 -0.229754
0.703925 -0.242434 0.270272
0.684599 0.519413 -0.306974
0.703925 0.433833 0.124503
0.684599 -0.31048 0.116556
0.703925 0.358474 -0.255029
0.703925 -0.424447 -0.243925
0.703925 -0.243713 -0.04375
0.703925 -0.048788 -0.150117
0.703925 0.473462 -0.34432
0.703925 -0.167709 0.264324
0.703925 -0.408053 0.153241
0.703925 0.36038 -0.146898
0.69062 0.269704 -0.375042
0.684599 0.167639 -0.270996
0.703925 0.112792 0.016552
0.684599 -0.110916 0.147588
0.703925 -0.021815 0.108421
0.684599 -0.158632 0.005694
0.703925 -0.311198 0.059079
0.703925 -0.416077 -0.1018
0.703925 0.5191 -0.117129
0.703925 0.141026 -0.120515
0.684599 0.251519 0.200127
0.684599 -0.340891 -0.299309
0.703925 -0.316466 -0.332886
0.684599 0.508085 0.263878
0.703925 -0.456174 0.272375
0.684599 -0.43969 0.190153
0.703925 0.094136 -0.365834
0.684599 -0.040243 -0.034789
0.684599 0.356947 -0.373987
0.684599 -0.207429 0.009522
0.703925 -0.472378 -0.26519
0.684599 0.153282 0.23357
0.703925 -0.000181 0.045373
0.703925 0.506853 -0.000642
0.684599 0.601313 -0.311595
0.703925 0.509315 -0.199863
0.684599 0.351166 0.228217
0.703925 0.017594 -0.027772
0.703925 -0.107601 -0.305722
0.684599 0.141031 -0.077066
0.703925 -0.388495 0.086684
0.684599 -0.014006 0.186139
0.703925 -0.288414 -0.112375
0.684599 -0.019657 0.265039
0.703925 0.067049 0.252308
0.703925 -0.027493 -0.333844
0.703925 -0.27319 0.033784
0.684599 0.112653 0.144938
0.684599 0.079804 -0.035175
0.703925 0.100446 -0.317522
0.703925 0.581155 0.051598
0.684599 0.32695 0.148686
0.684599 -0.478297 -0.040945
0.703925 -0.355809 -0.124072
0.703925 0.291085 -0.340181
0.684599 0.023372 0.237893
0.684599 -0.483333 -0.165752
0.703925 0.329653 -0.08708
0.684599 0.509759 0.13659
0.703925 0.197272 -0.093013
0.703925 -0.051078 0.185135
0.684599 0.457458 0.256809
0.684599 0.212437 0.230685
0.703925 -0.430666 -0.049495
0.684599 0.458562 -0.053879
0.703925 -0.167428 0.089564
0.703925 0.022445 -0.099108
0.684599 -0.472346 0.019822
0.703925 -0.123401 0.060569
0.684599 0.014051 -0.207511
0.703925 -0.41367 -0.284675
0.684599 -0.414153 -0.148846
0.684599 0.111475 -0.22847
0.703925 -0.259083 -0.296043
0.703925 -0.492406 -0.229586
0.684599 -0.159349 0.229582
0.703925 0.542534 -0.279794
0.684599 0.089253 0.090689
0.684599 0.12726 -0.160484
0.703925 0.199112 -0.300904
0.684599 -0.321309 -0.132713
0.684599 -0.348204 -0.043859
0.703925 -0.538656 0.219999
0.703925 -0.127865 -0.067695
0.69651 -0.373293 -0.375042
0.684599 -0.327542 -0.258702
0.684599 0.043934 -0.176831
0.684599 -0.37109 0.038736
0.703925 0.275727 0.03244
0.684599 0.466873 -0.231645
0.703925 0.439246 0.030622
0.703925 -0.283816 0.240641
0.684599 0.548466 -0.197112
0.684599 -0.28722 -0.368008
0.695322 -0.103636 -0.375042
0.703925 -0.160805 0.131528
0.684599 -0.531868 0.045683
0.703925 0.501298 -0.082104
0.703925 0.201574 -0.179899
0.684599 -0.501461 0.141346
0.703925 0.19425 -0.24976
0.684599 0.083035 0.222251
0.703925 -0.196115 -0.184859
0.703925 0.017135 0.111749
0.703925 -0.528372 -0.015425
0.684599 -0.537852 -0.160666
0.684599 -0.027278 -0.367789
0.703925 0.530852 -0.043022
0.703925 -0.121366 -0.14852
0.703925 -0.149556 -0.113668
0.700498 0.617067 -0.270813
0.703925 0.023987 -0.33756
0.684599 0.342636 -0.334599
0.703925 -0.477699 -0.112415
0.703925 -0.397483 0.224618
0.684599 -0.272268 -0.263574
0.703925 0.242933 -0.29694
0.703925 -0.069956 0.035231
0.684599 -0.320989 0.242113
0.684599 -0.03656 -0.250265
0.684599 0.288362 -0.283921
0.684599 0.174346 0.081117
0.684599 0.345198 -0.224671
0.703925 -0.088212 -0.094299
0.684599 -0.532771 -0.090267
0.684599 -0.127252 -0.219981
0.703925 0.318729 0.037881
0.684599 -0.211145 -0.133345
0.703925 0.366196 -0.047954
0.684599 0.441855 0.204314
0.703925 0.302906 0.252824
0.703925 0.422234 -0.182264
0.694434 0.232118 -0.375042
0.703925 -0.276878 -0.025668
0.703925 -0.278147 0.117718
0.703925 0.589394 0.006987
0.684599 -0.097282 -0.021425
0.684599 0.471581 0.140342
0.684599 -0.230338 -0.328647
0.684599 -0.022843 -0.170563
0.703925 -0.208726 -0.057326
0.684599 0.371016 -0.290612
0.703925 0.576497 -0.096517
0.703925 0.072919 0.184688
0.703925 0.063226 -0.315265
0.703925 -0.491077 0.255534
0.684599 0.509666 0.199791
0.703925 -0.293579 0.169794
0.684599 -0.17634 0.161727
0.684599 0.123984 -0.013191
0.703925 0.030608 0.146315
0.684599 0.209911 -0.008102
0.703925 -0.341085 -0.170584
0.703925 0.509347 0.073943
0.684599 0.253778 -0.217169
0.703925 0.282237 -0.032331
0.703925 0.234452 -0.093181
0.703925 -0.23541 -0.266656
0.684599 0.147671 0.276037
0.703925 0.579469 0.182189
0.684599 0.385918 -0.240459
0.684599 0.037543 -0.26878
0.684599 -0.302518 -0.188487
0.703925 0.038286 0.039779
0.684599 0.530127 0.025281
0.684599 0.479206 0.014885
0.684599 -0.3049 0.01842
0.703925 -0.44071 0.089044
0.684599 0.281904 0.177503
0.684599 0.467093 -0.374078
0.703925 0.489273 -0.302916
0.684599 0.181577 0.144609
0.703925 -0.134974 -0.264553
0.684599 0.210887 -0.343322
0.703925 0.032868 -0.231003
0.703925 -0.359515 0.178941
0.684599 0.124383 -0.291437
0.684599 -0.541104 -0.202376
0.684599 -0.023428 0.063969
0.684599 -0.195064 0.279868
0.684599 -0.258319 -0.189159
0.684599 -0.009908 -0.124825
0.684599 -0.174692 -0.264477
0.703925 -0.508166 0.08322
0.684599 0.578135 0.146022
0.703925 -0.202951 -0.342083
0.703925 0.286082 -0.135887
0.703925 0.614045 0.063868
0.684599 0.275882 0.278413
0.703925 0.14976 0.065108
0.684599 -0.367991 -0.088444
0.684599 -0.194599 0.111962
0.703925 0.144177 0.181348
0.684599 0.389273 0.062791
0.703925 0.24993 0.063816
0.703925 -0.478922 -0.197439
0.703925 0.232206 -0.055557
0.703925 0.134481 -0.188219
0.703925 0.161281 -0.148522
0.703925 -0.285199 0.203893
0.703925 0.53942 -0.351595
0.703925 0.3254 -0.007269
0.684599 -0.440944 -0.171766
0.703925 0.422945 -0.018572
0.703925 0.615296 -0.199236
0.703925 0.392388 0.178987
0.684599 -0.429732 0.0269
0.703925 0.013106 0.178074
0.703925 0.559481 0.023661
0.684599 -0.474472 0.097595
0.684599 0.362446 0.120231
0.684599 -0.522756 -0.307859
0.703925 0.106598 0.066782
0.703925 0.417526 0.091784
0.703925 -0.055181 -0.313142
0.684599 0.147858 -0.343758
0.684599 0.171606 -0.308513
0.684599 -0.354943 -0.238853
0.684599 -0.537472 0.149672
0.684599 0.209438 0.28751
0.703925 0.415345 -0.310319
0.684599 -0.406925 -0.341516
0.703925 -0.069597 0.261007
0.684599 0.522201 0.233396
0.703925 -0.230993 -0.198875
0.684599 -0.374194 0.128004
0.703925 0.068675 -0.140879
0.684599 -0.226496 -0.018023
0.684599 0.307617 0.112883
0.684599 0.056623 0.098115
0.703925 0.580596 -0.25522
0.684599 0.28504 -0.172094
0.703925 -0.102002 0.086028
0.684599 -0.039677 0.128745
0.703925 0.449307 -0.158243
0.684599 0.250949 -0.154734
0.703925 0.223785 0.113499
0.684599 0.216655 0.08037
0.684599 0.213027 -0.114603
0.684599 -0.051793 0.237696
0.684599 0.348377 -0.191899
0.703925 0.331512 -0.276633
0.684599 0.341946 -0.12284
0.703925 0.556445 0.082449
0.703925 0.458287 -0.292112
0.703925 -0.348275 0.05219
0.703925 -0.07478 0.162503
0.684599 0.401401 -0.2116
0.703925 -0.139495 0.023886
0.703925 0.473359 0.196145
0.703925 0.323105 0.202462
0.703925 0.210257 0.192754
0.684599 0.43917 -0.205497
0.703925 -0.210241 0.035329
0.703925 -0.285576 -0.210176
0.703925 -0.380871 -0.237912
0.684599 -0.12648 0.001512
0.703925 0.510281 -0.257846
0.703925 -0.135859 0.259313
0.703925 0.392251 -0.151654
0.703925 -0.434734 0.134666
0.703925 0.448626 0.083396
0.684599 0.30434 -0.224607
0.703925 -0.356063 -0.019356
0.703925 0.379728 0.252583
0.703925 0.568403 -0.213203
0.684599 0.388502 -0.02079
0.684599 0.14759 -0.0457
0.703925 0.342635 0.0641
0.703925 -0.061695 -0.003622
0.703925 -0.006216 0.243374
0.684599 -0.115863 0.179191
0.703925 -0.038238 0.04325
0.684599 -0.073797 -0.216192
0.684599 -0.172104 0.036791
0.703925 0.219365 -0.150939
0.684599 -0.512904 -0.274579
0.703925 0.414678 0.218524
0.684599 -0.249116 0.040506
0.703925 0.563753 -0.066616
0.703925 -0.324584 0.159521
0.703925 0.520208 0.162307
0.703925 0.25236 0.17525
0.703925 -0.350823 -0.070512
0.703925 -0.272865 0.285054
0.684599 -0.46211 -0.338604
0.684599 0.277284 0.239465
0.684599 -0.412336 -0.077338
0.690165 -0.146923 -0.375042
0.703925 0.05955 -0.195947
0.684599 -0.155229 -0.137679
0.684599 0.503309 -0.136067
0.703925 0.269313 0.103877
0.703925 0.100897 -0.206226
0.703925 -0.469937 -0.004615
0.684599 -0.174554 -0.213172
0.684599 0.117284 -0.350316
0.703925 0.18203 -0.211778
0.684599 -0.07124 -0.294762
0.703925 -0.357914 0.211537
0.684599 -0.180991 0.207232
0.703925 -0.174804 -0.309516
0.703925 -0.19911 0.223161
0.684599 -0.052315 -0.179831
0.684599 -0.395928 -0.039469
0.684599 0.215176 -0.074679
0.684599 0.212605 0.023198
0.684599 -0.187936 -0.113135
0.684599 0.202261 -0.373787
0.684599 0.273116 0.074311
0.703925 -0.045574 0.153478
0.684599 -0.471771 0.229376
0.703925 -0.385481 -0.189958
0.703925 0.009061 -0.18446
0.69774 0.617067 0.112324
0.703925 0.100711 -0.074014
0.684599 0.068388 0.284924
0.703925 0.494235 -0.173521
0.703925 -0.077761 0.066136
0.684599 -0.430431 0.278298
0.684599 0.172746 -0.119657
0.684599 -0.536478 -0.038599
0.684599 -0.486251 0.194388
0.684599 0.281038 -0.061415
0.703925 -0.311287 -0.242152
0.684599 -0.011541 0.017457
0.684599 -0.437327 -0.2631
0.684599 -0.515134 -0.217459
0.684599 0.393322 -0.073667
0.703925 0.060726 -0.272016
0.684599 0.088851 0.120661
0.703925 -0.155607 -0.037436
0.703925 -0.407971 0.187573
0.684599 0.269536 -0.097411
0.684599 0.103476 -0.13784
0.684599 -0.039611 -0.217101
0.703925 0.066681 0.065611
0.684599 0.122039 0.114984
0.703925 -0.205803 -0.261221
0.684599 -0.242216 0.161996
0.703925 -0.306139 -0.005243
0.684599 0.361529 0.198749
0.703925 0.143023 -0.000899
0.684599 -0.218402 0.211317
0.684599 0.036819 -0.013185
0.703925 -0.483926 0.127128
0.684599 0.150229 0.203091
0.703925 -0.397984 0.033596
0.703925 -0.111657 -0.039342
0.684599 -0.267576 -0.046119
0.703925 0.179877 0.018994
0.684599 0.528477 0.090889
0.703925 0.349269 0.148249
0.684599 0.467599 0.056202
0.688702 0.617067 0.00144
0.703925 -0.295109 -0.056413
0.703925 -0.004494 0.208017
0.703925 0.584204 -0.038026
0.703925 0.199935 -0.030455
0.703925 -0.033041 -0.27405
0.684599 0.379923 -0.13335
0.684599 0.280967 -0.312306
0.684599 -0.292232 -0.136641
0.698337 0.05103 -0.375042
0.684599 -0.431409 -0.20012
0.684599 -0.48381 -0.09105
0.703925 -0.09551 -0.213066
0.684599 0.614161 -0.102681
0.684599 -0.4173 -0.015595
0.684599 -0.045521 0.281396
0.703925 -0.345693 0.106351
0.684599 0.069616 -0.09382
0.703925 -0.290824 -0.316449
0.703925 0.569452 -0.344961
0.684599 -0.526352 0.008149
0.684599 0.544966 -0.256319
0.684599 0.433015 -0.067478
0.703925 0.429267 -0.13088
0.684599 -0.283013 -0.232881
0.703925 0.20473 0.135234
0.684599 -0.263047 -0.335328
0.703925 -0.004496 -0.083446
0.684599 0.235531 -0.194793
0.703925 -0.346667 -0.319877
0.684599 0.124376 0.034494
0.684599 0.418091 -0.33922
0.703925 0.191189 0.229003
0.703925 0.006614 0.073242
0.684599 0.360953 0.010825
0.703925 0.51737 0.042157
0.703925 0.478417 -0.249349
0.703925 0.103704 0.218013
0.703925 0.317906 -0.122369
0.703925 -0.466656 -0.306003
0.684599 0.59497 -0.340105
0.703925 -0.459187 -0.031072
0.684599 -0.022483 -0.065135
0.684599 -0.528365 -0.339023
0.684599 0.398152 -0.171801
0.684599 0.156067 -0.017345
0.703925 -0.018413 0.165644
0.684599 0.439453 0.000241
0.684599 0.531812 -0.136402
0.684599 -0.093176 -0.261437
0.684599 -0.433826 -0.350613
0.684599 -0.102472 0.043431
0.703925 -0.34981 0.270469
0.703925 -0.481232 0.050683
0.703925 -0.461092 -0.065918
0.703925 0.55602 0.133031
0.684599 0.402036 0.120936
0.684599 0.050506 0.15187
0.703925 -0.234442 -0.37451
0.703925 0.076151 -0.113346
0.684599 -0.08461 -0.114556
0.703925 -0.265013 -0.169662
0.703925 -0.056113 0.101786
0.703925 -0.119121 -0.094427
0.684599 -0.368866 -0.30829
0.684599 -0.338014 -0.339057
0.684599 -0.083204 -0.359044
0.703925 0.242823 0.147092
0.703925 -0.129968 -0.199907
0.684599 -0.291149 0.056405
0.684599 0.154625 -0.186616
0.684599 -0.063284 -0.136056
0.684599 -0.252921 0.288204
0.703925 -0.185109 -0.074267
0.684599 -0.406727 -0.253566
0.684599 -0.035197 -0.311824
0.703925 -0.253858 -0.087181
0.703925 -0.388245 0.251068
0.703925 -0.324788 0.2099
0.684599 0.61569 -0.057337
0.684599 -0.241825 -0.233335
0.684599 -0.453307 -0.123012
0.684599 -0.484266 -0.130977
0.684599 0.33209 0.023451
0.703925 0.021889 -0.28496
0.684599 -0.416874 0.227711
0.684599 0.163383 0.177568
0.703925 0.489714 -0.122005
0.684599 -0.330334 0.140672
0.684599 0.014659 -0.238086
0.684599 0.608464 0.181109
0.684599 -0.382542 -0.134855
0.703925 -0.003929 -0.223627
0.684599 0.342586 -0.154729
0.684599 0.058026 0.23347
0.703925 0.450601 0.238647
0.684599 -0.248554 -0.15096
0.684599 0.08645 0.152902
0.684599 -0.305332 0.215939
0.684599 0.535921 -0.332532
0.684599 -0.022628 -0.013843
0.684599 0.398444 -0.109501
0.703925 0.51005 -0.329422
0.703925 0.370173 0.065606
0.684599 -0.437211 0.056705
0.703925 -0.32231 -0.19966
0.684599 -0.481147 -0.248114
0.703925 0.048561 -0.048818
0.703925 0.104387 -0.009317
0.703925 -0.44456 -0.101645
0.703925 0.534307 -0.01609
0.703925 0.389255 0.027671
0.684599 -0.147343 0.107825
0.703925 0.447547 -0.336404
0.684599 0.1865 -0.331661
0.684599 -0.186456 -0.16379
0.703925 0.307174 -0.160444
0.684599 -0.200481 0.173792
0.684599 0.094316 0.261772
0.703925 -0.4327 -0.307785
0.703925 -0.064069 -0.082462
0.703925 -0.311811 -0.268988
0.703925 0.593489 -0.28307
0.703925 -0.236555 -0.002454
0.684599 -0.034048 0.090524
0.703925 -0.373364 -0.348623
0.703925 0.344463 -0.352846
0.703925 0.160916 -0.254017
0.684599 -0.070072 0.013999
0.703925 -0.257438 0.056738
0.684599 0.429695 -0.291379
0.703925 0.320684 -0.337018
0.684599 0.59321 -0.215098
0.703925 0.384005 0.133011
0.684599 0.109197 0.235169
0.703925 -0.248838 0.191582
0.684599 0.254391 0.024542
0.703925 -0.128717 0.145407
0.684599 0.186296 -0.170536
0.684599 0.119937 0.275323
0.684599 0.427632 0.270804
0.703925 0.109224 0.170669
0.684599 -0.379696 0.0712
0.703925 0.474383 0.249769
0.684599 0.336375 -0.302669
0.684599 -0.481614 -0.283434
0.684599 -0.163379 0.061452
0.684599 -0.238 0.123281
0.703925 0.242183 -0.235484
0.703925 -0.492285 -0.054591
0.684599 -0.497036 0.110614
0.703925 0.363843 -0.306533
0.703925 -0.073539 -0.340153
0.684599 0.517118 -0.074882
0.684599 0.45434 -0.17488
0.684599 -0.066527 0.145649
0.684599 -0.403262 -0.172664
0.703925 0.088892 0.02668
0.684599 0.493926 -0.012069
0.703925 -0.495488 -0.146073
0.684599 0.53785 0.189332
0.684599 0.293446 0.134542
0.703925 -0.252609 0.145043
0.703925 0.125474 -0.218725
0.684599 -0.119255 -0.178407
0.684599 0.547851 -0.042052
0.684599 0.056917 0.19044
0.703925 0.125964 0.232588
0.684599 0.400729 -0.367177
0.684599 0.257991 -0.122005
0.684599 0.040739 -0.080482
0.703925 0.19337 0.165296
0.684599 -0.416865 -0.301964
0.684599 -0.076533 -0.169912
0.684599 0.000238 0.224174
0.699537 0.37774 -0.375042
0.703925 -0.420943 0.263529
0.703925 -0.151763 0.172107
0.684599 0.113708 -0.182218
0.703925 -0.024 -0.115739
0.684599 0.46194 -0.131629
0.703925 -0.436164 -0.221215
0.684599 -0.527034 0.106135
0.703925 0.59331 0.136454
0.684599 -0.302478 0.083842
0.703925 -0.032799 0.254837
0.684599 0.472795 -0.305197
0.684599 0.265352 -0.262668
0.703925 0.117676 -0.146452
0.684599 -0.012051 -0.34306
0.703925 -0.535279 0.121541
0.684599 0.083896 -0.010089
0.703925 0.534763 -0.187993
0.684599 0.06358 0.03507
0.703925 0.407736 0.001744
0.684599 0.350697 -0.055846
0.703925 0.005531 0.020663
0.703925 -0.393328 0.060236
0.684599 0.523718 -0.003633
0.684599 -0.036021 0.166729
0.684599 0.243991 -0.354977
0.703925 0.377155 -0.071415
0.703925 0.152571 -0.362943
0.684599 0.075707 -0.069295
0.684599 -0.292414 0.188147
0.684599 0.332532 -0.363858
0.703925 0.370427 -0.170702
0.684599 0.180839 -0.240637
0.703925 -0.085074 -0.317021
0.703925 -0.208926 -0.006527
0.684599 -0.530502 -0.063669
0.703925 0.356724 0.026299
0.684599 -0.398362 -0.279931
0.703925 0.10203 0.132955
0.684599 0.524728 -0.227228
0.684599 -0.156107 -0.019259
0.684599 0.050122 0.060462
0.703925 -0.184987 0.047599
0.684599 -0.4641 0.182641
0.703925 -0.424298 -0.125474
0.703925 -0.288716 0.093877
0.684599 0.296985 -0.026315
0.684599 -0.252233 0.086893
0.684599 0.133371 -0.100902
0.684599 0.603138 -0.252046
0.684599 0.39225 -0.045479
0.703925 0.22975 0.046209
0.684599 -0.0591 0.212673
0.703925 -0.459087 0.216291
0.703925 0.301654 -0.047959
0.684599 -0.116997 0.081352
0.703925 -0.302492 -0.364351
0.684599 0.25619 -0.060067
0.684599 0.566736 -0.108761
0.703925 -0.501771 0.192462
0.684599 0.036174 0.112252
0.684599 0.598371 0.273674
0.703925 0.461603 0.128306
0.703925 -0.455567 0.051608
0.703925 0.135337 0.285604
0.703925 0.567361 -0.280474
0.703925 0.573798 0.22812
0.703925 -0.156931 -0.153129
0.684599 0.149553 0.08135
0.684599 -0.519219 0.072322
0.703925 0.160442 0.124306
0.684599 0.110988 -0.260523
0.684599 0.478758 0.233975
0.684599 -0.249644 0.256697
0.703925 0.286332 0.066494
0.703925 0.012588 -0.003613
0.703925 0.291694 -0.215939
0.684599 -0.150524 0.263637
0.684599 0.327038 0.050705
0.703925 -0.038116 0.0681
0.684599 0.062478 -0.160675
0.689666 0.617067 0.258467
0.703925 -0.512031 0.108663
0.684599 0.326006 0.087188
0.684599 -0.156634 -0.052499
0.684599 -0.134934 -0.249457
0.703925 0.361928 0.10516
0.703925 -0.357495 -0.152368
0.703925 0.058094 0.164832
0.684599 -0.493102 0.170898
0.703925 0.039204 -0.162599
0.684599 0.304218 0.041538
0.703925 -0.419015 0.212944
0.703925 0.320379 0.26987
0.703925 0.394175 -0.094579
0.703925 0.48777 -0.368783
0.703925 -0.096241 0.145546
0.684599 0.463219 -0.091392
0.684599 -0.089266 0.159557
0.703925 -0.531028 -0.213128
0.703925 -0.403016 -0.30697
0.703925 0.443463 -0.107178
0.703925 0.020452 -0.067611
0.703925 0.08052 -0.230545
0.684599 -0.541595 -0.248771
0.703925 0.445445 0.054031
0.703925 0.597092 0.234665
0.703925 -0.203821 0.260553
0.703925 0.153299 0.217278
0.703925 -0.376489 0.113703
0.684599 -0.497486 0.26851
0.703925 0.373148 0.229386
0.703925 0.346152 -0.069508
0.703925 0.268393 -0.22193
0.684599 0.322303 -0.188872
0.703925 0.232623 0.201499
0.684599 0.010635 0.08958
0.684599 0.522208 -0.031733
0.703925 -0.141394 -1.9e-05
0.703925 0.51743 0.187982
0.703925 0.279825 0.225573
0.703925 0.015209 0.221604
0.684599 0.523911 -0.196999
0.703925 -0.453215 -0.356363
0.684599 0.117203 -0.07552
0.703925 -0.19141 0.163119
0.703925 -0.305442 -0.095653
0.698897 0.540813 -0.375042
0.684599 0.565015 -0.160539
0.684599 -0.366456 -0.188393
0.684599 0.531743 0.260982
0.703925 0.10222 0.277333
0.684599 0.173519 0.11959
0.703925 -0.235607 -0.299959
0.684599 0.18823 -0.020244
0.684599 0.395508 -0.326
0.703925 0.318964 0.062124
0.684599 0.490442 -0.073594
0.684599 -0.347593 0.035363
0.703925 -0.436535 -0.023994
0.684599 -0.39401 -0.365741
0.684599 -0.072529 0.053435
0.684599 -0.312729 -0.020363
0.684599 0.209341 0.148083
0.684599 0.505196 -0.095292
0.703925 0.386679 -0.314175
0.684599 -0.048145 -0.003189
0.684599 0.125888 0.164443
0.684599 0.409323 -0.243144
0.684599 0.465119 0.208005
0.703925 0.303723 -0.100983
0.703925 0.131548 0.045846
0.684599 0.081071 -0.362757
0.703925 0.299063 -0.275852
0.684599 -0.348938 0.257117
0.684599 0.488351 -0.222106
0.703925 -0.515361 0.222802
0.703925 -0.079539 0.103022
0.684599 -0.101941 -0.224659
0.703925 -0.210999 -0.120093
0.684599 -0.168268 0.278938
0.684599 0.531679 0.128334
0.684599 -0.345144 -0.36136
0.684599 0.287923 0.094665
0.703925 0.300587 -0.00356
0.703925 0.45623 -0.366641
0.684599 -0.392405 -0.231608
0.703925 0.17059 -0.23215
0.684599 -0.235457 -0.131616
0.703925 -0.193532 -0.219006
