-0.341524 0.063995 -0.418414
-0.01097 0.448039 -0.392295
0.283235 -0.782475 -0.418414
-0.209065 0.507237 -0.392295
0.040784 0.627966 -0.392295
0.02375 0.510798 -0.418414
-0.130802 -0.373062 -0.392295
-0.160237 -0.190637 -0.418414
0.248238 -0.267662 -0.418414
-0.257997 0.084276 -0.392295
0.130496 -0.265198 -0.392295
-0.295494 -0.27144 -0.418414
0.285576 -0.102831 -0.418414
0.105233 0.732858 -0.418414
0.121278 -0.201465 -0.392295
-0.16311 -0.430653 -0.418414
-0.165968 0.312864 -0.392295
0.153162 -0.018365 -0.392295
0.268825 0.584624 -0.392295
0.188569 0.693449 -0.392295
0.009197 -0.471172 -0.392295
0.234511 0.461192 -0.418414
0.36255 -0.247736 -0.418414
-0.010425 0.551854 -0.392295
0.08946 -0.405353 -0.418414
-0.284984 0.449206 -0.418414
0.018379 -0.015056 -0.392295
0.266999 0.011938 -0.418414
0.092314 0.358139 -0.392295
-0.001317 0.675994 -0.418414
0.367774 0.652179 -0.418414
0.390008 -0.383913 -0.394652
-0.142916 0.545601 -0.418414
-0.021903 0.474513 -0.418414
0.157568 0.549377 -0.392295
-0.305578 0.485794 -0.418414
0.120334 -0.794643 -0.418414
0.362018 -0.141572 -0.392295
-0.225659 0.325345 -0.418414
-0.303063 0.768388 -0.392295
0.129938 -0.445791 -0.418414
-0.058618 -0.15759 -0.418414
0.154177 0.09003 -0.418414
0.152901 -0.752364 -0.392295
0.060869 -0.781355 -0.418414
0.341665 0.653998 -0.392295
0.102956 0.207808 -0.418414
0.141672 0.358735 -0.392295
-0.344678 -0.130192 -0.392295
-0.332359 -0.204871 -0.392295
0.152743 0.793251 -0.418414
-0.206747 0.120232 -0.418414
-0.283978 -0.745947 -0.392295
0.135152 0.49889 -0.392295
-0.041357 0.558067 -0.418414
0.161799 -0.312103 -0.418414
0.256916 -0.473172 -0.418414
0.316968 0.045909 -0.418414
-0.168098 -0.361266 -0.392295
0.376358 -0.57811 -0.392295
-0.287211 0.387845 -0.392295
-0.172575 -0.077872 -0.392295
-0.10501 -0.446346 -0.418414
0.305977 0.516956 -0.418414
-0.059457 -0.071081 -0.418414
0.286908 0.684596 -0.392295
0.141135 0.688112 -0.392295
0.379037 0.256855 -0.418414
-0.01927 0.372307 -0.418414
-0.107155 -0.378657 -0.418414
0.154921 -0.631803 -0.392295
0.336618 0.204427 -0.418414
0.032497 -0.280361 -0.392295
0.380387 0.567577 -0.392295
-0.356174 -0.423874 -0.418414
-0.321696 -0.444082 -0.392295
-0.157051 -0.500106 -0.392295
-0.180564 -0.313914 -0.392295
-0.142245 -0.465272 -0.392295
0.048233 -0.504492 -0.392295
-0.35829 0.537458 -0.392295
-0.225563 -0.376146 -0.392295
-0.350457 0.339587 -0.418414
0.363574 -0.532368 -0.392295
-0.261664 0.138131 -0.392295
-0.17555 -0.676838 -0.418414
0.157277 -0.519858 -0.418414
0.197729 -0.203486 -0.418414
-0.128329 0.187679 -0.392295
-0.074096 0.190959 -0.418414
0.183221 -0.08008 -0.418414
-0.000377 0.129389 -0.392295
-0.382587 -0.163209 -0.400726
0.186651 -0.294762 -0.392295
0.031845 -0.185981 -0.392295
-0.043986 -0.328826 -0.392295
0.386403 0.329255 -0.392295
-0.187146 -0.531287 -0.392295
-0.190647 -0.213511 -0.392295
-0.144448 -0.695901 -0.418414
-0.325217 -0.605337 -0.392295
0.168245 0.320858 -0.418414
-0.230577 -0.012222 -0.392295
0.349024 -0.728625 -0.392295
0.119352 -0.518266 -0.418414
0.210175 -0.535099 -0.392295
-0.283484 -0.153768 -0.392295
0.12049 0.458783 -0.392295
0.366964 -0.203822 -0.392295
-0.269953 -0.094453 -0.418414
0.018603 0.784741 -0.418414
-0.051429 -0.593363 -0.392295
0.064168 -0.100587 -0.392295
-0.152854 -0.650512 -0.418414
0.224323 0.591607 -0.392295
0.345755 -0.802133 -0.418414
0.109193 -0.035479 -0.392295
-0.280073 -0.288962 -0.392295
0.30483 -0.367071 -0.392295
-0.270066 0.282663 -0.392295
0.098623 -0.355838 -0.392295
0.189474 -0.258399 -0.418414
-0.336238 0.19924 -0.418414
-0.263335 -0.465643 -0.418414
0.158049 -0.199024 -0.418414
0.321366 -0.655583 -0.392295
-0.199398 -0.060855 -0.418414
-0.206593 0.472866 -0.392295
-0.366997 0.776835 -0.418414
-0.298514 -0.37627 -0.418414
-0.016195 0.41988 -0.418414
0.289149 -0.058166 -0.392295
-0.337713 -0.374047 -0.392295
-0.087102 0.013809 -0.392295
-0.026906 -0.569181 -0.418414
0.046559 0.173718 -0.392295
0.180778 -0.559746 -0.392295
0.054469 0.428339 -0.392295
-0.098189 -0.776568 -0.392295
-0.057193 -0.361231 -0.392295
0.076772 0.39578 -0.392295
-0.324799 0.146069 -0.418414
0.376663 -0.643913 -0.418414
0.229992 0.282064 -0.418414
0.016745 -0.726031 -0.418414
0.257989 -0.165012 -0.392295
-0.304808 0.401114 -0.418414
0.3693 0.150662 -0.392295
0.271687 -0.039072 -0.418414
0.307024 -0.414329 -0.392295
-0.336163 -0.068583 -0.392295
-0.108149 -0.080639 -0.418414
-0.197353 0.226005 -0.392295
-0.036004 0.496564 -0.392295
0.308167 0.084241 -0.392295
-0.28381 -0.118334 -0.392295
0.08151 -0.440716 -0.392295
0.214702 -0.739862 -0.392295
-0.065985 -0.771754 -0.418414
0.058885 -0.681294 -0.392295
-0.047616 0.305108 -0.392295
0.02924 -0.769982 -0.392295
-0.059076 -0.296262 -0.418414
0.141438 0.635768 -0.392295
0.089774 -0.5863 -0.392295
-0.186047 0.759796 -0.418414
-0.313588 0.712476 -0.392295
-0.113164 -0.674216 -0.418414
0.313259 0.382517 -0.392295
0.200427 -0.361656 -0.418414
0.255934 -0.009617 -0.392295
0.136407 -0.466009 -0.392295
-0.376745 0.443064 -0.392295
-0.369873 -0.357317 -0.392295
-0.062183 0.593769 -0.418414
0.278391 0.425342 -0.418414
-0.125927 -0.559202 -0.418414
-0.332897 0.007526 -0.392295
-0.100941 0.586895 -0.392295
0.168699 0.023049 -0.392295
-0.286711 -0.682382 -0.418414
-0.202411 0.810551 -0.392295
0.259116 0.744656 -0.418414
0.212382 0.082667 -0.418414
0.116088 -0.111389 -0.418414
0.354492 0.467075 -0.418414
0.226696 0.570891 -0.418414
-0.246391 -0.387794 -0.418414
0.000871 0.643033 -0.392295
0.086885 0.565555 -0.392295
0.256944 0.318948 -0.392295
-0.263903 0.423466 -0.418414
0.004531 0.090938 -0.418414
-0.23201 -0.141799 -0.418414
-0.261121 0.767928 -0.418414
0.245287 -0.643373 -0.392295
-0.371332 0.033116 -0.418414
-0.015452 -0.798182 -0.418414
-0.172091 -0.002428 -0.418414
0.092437 0.664049 -0.418414
0.018013 0.345706 -0.392295
0.306891 -0.561397 -0.418414
0.230076 -0.538898 -0.418414
-0.046592 0.024876 -0.392295
-0.28409 -0.339639 -0.418414
-0.210752 0.087494 -0.418414
-0.109661 0.53219 -0.392295
-0.119237 0.060813 -0.418414
0.215677 0.524109 -0.418414
0.084289 0.256915 -0.392295
0.171018 0.137476 -0.418414
-0.289822 0.786632 -0.418414
0.038203 -0.012465 -0.418414
-0.345223 0.731699 -0.418414
-0.099084 0.318511 -0.418414
0.073117 0.082854 -0.418414
0.368782 0.386982 -0.392295
0.209633 0.345281 -0.418414
-0.317561 0.334756 -0.418414
0.189343 0.792263 -0.418414
0.093327 0.12001 -0.418414
0.058365 0.332679 -0.418414
-0.101479 -0.319141 -0.392295
-0.194737 0.163661 -0.392295
-0.301911 0.459229 -0.392295
-0.195934 -0.426387 -0.418414
-0.00117 -0.016876 -0.418414
0.163913 0.268914 -0.392295
0.010754 0.190535 -0.392295
0.343228 0.010652 -0.418414
0.30815 -0.467057 -0.418414
-0.214927 -0.550231 -0.418414
-0.148094 -0.35579 -0.418414
0.243872 0.101892 -0.418414
0.215236 0.458511 -0.392295
-0.050678 0.757858 -0.418414
0.390008 -0.171623 -0.398626
-0.182651 0.678378 -0.392295
-0.160164 0.101268 -0.392295
0.084588 -0.315692 -0.392295
-0.132 0.493251 -0.418414
-0.159465 -0.095119 -0.418414
-0.159191 0.147947 -0.392295
0.359998 0.71499 -0.392295
0.034438 -0.245914 -0.418414
0.117643 -0.775439 -0.392295
-0.033875 0.00664 -0.418414
-0.134807 0.38478 -0.418414
0.155242 0.592817 -0.418414
0.117762 0.551476 -0.392295
0.303429 0.212427 -0.418414
0.233185 0.014956 -0.418414
0.079913 0.626819 -0.392295
0.272672 -0.624561 -0.392295
-0.267538 -0.007235 -0.418414
-0.356152 0.482584 -0.392295
-0.34635 -0.390881 -0.418414
0.012757 -0.181096 -0.418414
0.064714 -0.046493 -0.418414
0.234892 -0.556984 -0.392295
0.057702 -0.347657 -0.392295
0.069435 0.45671 -0.418414
-0.199988 0.727164 -0.418414
-0.206434 -0.775496 -0.392295
0.112029 -0.551801 -0.418414
0.002758 -0.641088 -0.392295
0.322671 -0.776517 -0.418414
0.295201 -0.240161 -0.418414
0.263717 0.058775 -0.392295
-0.224865 0.470685 -0.418414
-0.180308 0.192153 -0.392295
-0.145628 0.364152 -0.392295
0.290506 0.411334 -0.392295
0.159554 -0.481147 -0.418414
0.175272 -0.122744 -0.418414
-0.090927 -0.169402 -0.418414
0.06096 0.222432 -0.418414
0.345646 -0.343455 -0.392295
-0.271668 0.679829 -0.418414
-0.008145 0.695109 -0.392295
0.300676 -0.117552 -0.392295
0.275456 -0.514476 -0.392295
0.014358 0.140045 -0.418414
-0.038394 -0.042993 -0.392295
-0.327036 -0.56219 -0.392295
0.15332 -0.733274 -0.418414
-0.032694 0.147093 -0.392295
-0.336354 -0.235643 -0.418414
0.351442 0.694988 -0.418414
-0.360149 -0.018016 -0.392295
-0.222413 -0.515761 -0.418414
-0.163458 -0.57719 -0.418414
0.342081 -0.428917 -0.392295
-0.040679 -0.519526 -0.418414
-0.100266 -0.047337 -0.418414
0.320028 -0.004758 -0.392295
0.281692 0.650098 -0.392295
0.240372 0.421918 -0.418414
-0.317035 -0.083025 -0.418414
0.171966 0.071332 -0.392295
-0.355289 0.310771 -0.392295
-0.249247 -0.260627 -0.392295
-0.289065 -0.63128 -0.392295
0.333179 -0.641867 -0.418414
-0.022026 -0.446982 -0.418414
-0.13409 0.269469 -0.392295
-0.075652 0.271445 -0.418414
0.208092 -0.184174 -0.392295
-0.141304 0.56309 -0.392295
-0.17723 0.418631 -0.418414
0.050338 -0.363565 -0.418414
-0.054574 0.740277 -0.392295
-0.342987 -0.322398 -0.392295
0.178251 -0.35226 -0.392295
0.331363 0.253743 -0.392295
0.223815 0.413625 -0.392295
0.117644 0.245978 -0.418414
-0.057835 0.417003 -0.418414
-0.224637 0.261081 -0.418414
-0.193458 -0.462633 -0.418414
0.058886 0.704213 -0.392295
-0.227455 0.541238 -0.392295
0.358523 -0.56558 -0.418414
-0.372506 0.012172 -0.392295
0.313082 0.493922 -0.392295
-0.331506 0.621544 -0.392295
0.18098 0.386629 -0.392295
-0.032562 -0.390987 -0.392295
0.145335 0.297614 -0.418414
-0.086975 0.472332 -0.418414
0.319366 -0.101006 -0.418414
0.150446 -0.147338 -0.392295
0.390008 0.072199 -0.41772
0.384656 -0.41467 -0.392295
-0.351223 -0.737408 -0.392295
-0.200778 -0.031512 -0.392295
-0.300228 0.547556 -0.418414
0.094058 0.013143 -0.392295
-0.278642 0.136135 -0.418414
0.038951 0.48099 -0.392295
-0.202442 -0.161541 -0.418414
-0.034585 -0.109904 -0.418414
-0.115136 0.104777 -0.418414
-0.138475 -0.030458 -0.392295
0.312491 -0.288419 -0.392295
-0.359621 0.401077 -0.392295
0.236664 -0.78242 -0.418414
0.090841 -0.486364 -0.418414
-0.155328 0.452337 -0.418414
0.19131 -0.715921 -0.392295
0.015484 -0.683316 -0.392295
-0.258369 0.487349 -0.418414
0.316648 -0.547668 -0.392295
-0.258656 0.527226 -0.392295
-0.181575 -0.647407 -0.392295
-0.346746 0.10057 -0.418414
0.090147 0.164447 -0.392295
0.255802 -0.419007 -0.392295
0.271255 0.150386 -0.392295
0.270275 -0.532391 -0.418414
-0.14424 -0.306765 -0.392295
0.200283 -0.328296 -0.418414
-0.280322 -0.040578 -0.392295
0.383104 -0.746026 -0.392295
0.372401 -0.594293 -0.418414
0.174175 -0.582639 -0.418414
-0.098255 -0.493837 -0.392295
-0.097701 -0.11932 -0.418414
-0.204733 0.004791 -0.392295
0.287766 0.58226 -0.418414
0.068604 -0.319753 -0.418414
0.054986 -0.571663 -0.392295
-0.375241 0.646203 -0.392295
0.010586 0.014786 -0.392295
-0.079537 0.408301 -0.392295
-0.198003 0.641973 -0.392295
-0.321363 0.308944 -0.392295
0.206683 0.209315 -0.392295
0.10783 -0.188275 -0.418414
0.263393 -0.66826 -0.392295
0.283342 0.546407 -0.392295
-0.077177 -0.233598 -0.418414
-0.100858 -0.257566 -0.418414
-0.106244 0.816483 -0.412857
-0.138267 -0.730364 -0.418414
-0.203214 -0.561343 -0.392295
-0.3261 0.793899 -0.392295
-0.232335 -0.158571 -0.392295
-0.222726 0.723631 -0.392295
-0.169851 -0.732226 -0.392295
0.218149 -0.251611 -0.392295
0.001064 0.339615 -0.418414
-0.270184 0.370051 -0.418414
-0.364898 0.235014 -0.418414
0.165435 -0.048108 -0.418414
-0.019211 -0.619937 -0.392295
-0.265475 0.318652 -0.392295
-0.329109 0.815856 -0.418414
-0.266047 0.246112 -0.392295
-0.25939 -0.480745 -0.392295
0.265711 -0.401019 -0.418414
-0.289233 -0.481575 -0.418414
-0.049949 -0.418368 -0.418414
-0.183343 0.534919 -0.418414
0.122324 -0.639186 -0.392295
-0.000196 0.514052 -0.392295
-0.224191 -0.700231 -0.392295
-0.075696 0.689662 -0.418414
-0.239831 0.142987 -0.418414
-0.227214 0.227356 -0.418414
0.111626 -0.244294 -0.418414
-0.120276 -0.133278 -0.392295
-0.097863 0.668187 -0.418414
-0.188561 -0.78011 -0.418414
0.334864 -0.180207 -0.418414
-0.030815 0.410816 -0.392295
0.230843 -0.806174 -0.398998
0.273759 -0.202667 -0.392295
-0.027488 -0.353652 -0.418414
0.066241 -0.061647 -0.392295
-0.103977 -0.530287 -0.418414
-0.017866 0.816483 -0.396107
-0.31192 0.237357 -0.418414
0.115569 0.782303 -0.418414
-0.146587 0.039606 -0.418414
0.344258 -0.4141 -0.418414
0.290875 -0.088843 -0.392295
-0.236676 0.063626 -0.418414
0.272358 -0.364154 -0.392295
0.36901 0.06299 -0.392295
-0.066208 -0.705058 -0.392295
0.193871 0.106328 -0.418414
-0.191316 0.043361 -0.392295
0.289822 0.802649 -0.392295
0.129439 0.412853 -0.418414
-0.291591 -0.569629 -0.418414
0.013484 0.430697 -0.392295
0.252525 0.368465 -0.392295
0.304644 0.624639 -0.392295
-0.359462 -0.324011 -0.418414
-0.270431 -0.172868 -0.418414
0.047044 0.775479 -0.418414
0.169535 0.509333 -0.392295
0.021742 -0.423701 -0.418414
0.002052 -0.508157 -0.418414
0.279554 0.250425 -0.392295
-0.06076 -0.654758 -0.392295
0.388128 0.790187 -0.392295
-0.185391 -0.034524 -0.418414
0.040371 0.388988 -0.392295
-0.076186 0.05423 -0.418414
-0.233187 0.603941 -0.418414
-0.163332 0.733865 -0.418414
-0.279782 0.733957 -0.392295
-0.189904 0.366949 -0.392295
0.176836 -0.680333 -0.392295
-0.104505 -0.735818 -0.392295
0.057558 -0.608546 -0.418414
0.237189 -0.304726 -0.418414
-0.159579 -0.008963 -0.392295
-0.379461 0.091475 -0.392295
-0.064973 -0.542303 -0.418414
0.263003 0.689707 -0.418414
-0.111425 -0.290892 -0.392295
0.351458 0.545076 -0.418414
-0.045137 0.197225 -0.418414
0.099831 -0.143032 -0.392295
0.138432 0.267074 -0.418414
-0.219643 -0.363543 -0.418414
-0.073565 -0.121482 -0.392295
-0.04339 0.44848 -0.418414
-0.135188 -0.215432 -0.392295
0.300409 -0.443147 -0.392295
-0.293482 -0.065155 -0.418414
-0.305769 0.306277 -0.418414
-0.046015 0.135692 -0.418414
0.199803 -0.026922 -0.392295
-0.236141 0.315242 -0.392295
0.368718 0.221339 -0.418414
-0.019476 -0.750838 -0.392295
-0.18284 0.612262 -0.392295
-0.227707 -0.068972 -0.418414
-0.382587 -0.328857 -0.400871
0.250344 -0.062634 -0.392295
-0.382587 -0.695118 -0.395054
0.13422 -0.171971 -0.392295
0.001747 -0.374835 -0.418414
0.090527 0.816483 -0.416315
0.14756 0.006911 -0.418414
-0.024966 -0.402048 -0.418414
0.059378 0.281753 -0.392295
-0.230714 -0.448091 -0.418414
-0.048992 -0.276706 -0.392295
0.063682 0.58479 -0.392295
-0.215981 -0.396486 -0.418414
0.038296 0.816483 -0.39361
-0.343976 -0.26393 -0.418414
-0.130388 0.590272 -0.392295
0.247848 -0.445339 -0.418414
0.386829 0.384214 -0.418414
0.234273 0.177641 -0.418414
0.054604 0.004813 -0.392295
-0.214609 -0.29165 -0.418414
0.309575 0.533641 -0.392295
0.248614 0.752314 -0.392295
-0.1959 0.083107 -0.392295
-0.302101 0.051656 -0.418414
-0.299708 0.085063 -0.418414
0.052994 -0.416324 -0.392295
0.31744 0.215534 -0.392295
0.187571 0.471123 -0.392295
0.178565 -0.528894 -0.392295
0.111551 0.318146 -0.392295
0.070685 -0.174619 -0.418414
-0.315102 -0.024635 -0.392295
0.04702 -0.806174 -0.409622
0.254828 0.306431 -0.418414
0.151102 0.506853 -0.418414
-0.084895 -0.282358 -0.418414
-0.259977 -0.321035 -0.418414
-0.33588 0.488969 -0.418414
-0.118549 0.219981 -0.392295
-0.020075 -0.466034 -0.392295
-0.382587 0.376209 -0.40618
0.283111 -0.46998 -0.392295
-0.102872 0.093194 -0.392295
-0.13963 -0.07321 -0.392295
0.269557 0.530065 -0.418414
0.386929 0.266461 -0.392295
-0.053716 -0.580045 -0.418414
-0.274736 0.186756 -0.392295
-0.155198 -0.536484 -0.392295
0.102136 -0.519752 -0.392295
0.064367 0.13329 -0.418414
-0.238789 0.536493 -0.418414
-0.295847 -0.001674 -0.418414
0.190962 -0.493562 -0.418414
-0.113774 0.749541 -0.418414
-0.151076 0.769258 -0.392295
-0.278131 -0.324337 -0.392295
0.265069 -0.315925 -0.418414
-0.21037 -0.424244 -0.392295
-0.257053 -0.001071 -0.392295
0.307437 -0.656899 -0.418414
-0.038247 -0.728536 -0.392295
-0.218817 0.500467 -0.418414
0.329629 -0.496347 -0.418414
0.248694 -0.582113 -0.392295
0.173595 0.658227 -0.418414
-0.007959 0.037447 -0.392295
0.009098 -0.576972 -0.392295
0.082866 0.432122 -0.392295
-0.230335 0.62413 -0.392295
-0.272145 -0.201445 -0.418414
-0.121117 -0.408713 -0.418414
0.369476 -0.500427 -0.392295
0.037305 -0.476781 -0.392295
-0.139309 -0.251429 -0.418414
0.077677 -0.018567 -0.392295
-0.221257 -0.748914 -0.392295
-0.178534 0.126148 -0.418414
0.012862 -0.207351 -0.392295
0.227162 0.522529 -0.392295
-0.004103 0.612934 -0.418414
0.00646 -0.779884 -0.418414
-0.076654 0.299947 -0.418414
0.205482 -0.060881 -0.418414
0.348509 -0.332463 -0.418414
-0.370704 0.514054 -0.418414
-0.076724 -0.00964 -0.418414
-0.046023 0.084445 -0.392295
0.365874 -0.692169 -0.392295
-0.18099 0.628102 -0.418414
-0.36422 0.705315 -0.392295
0.060788 -0.728703 -0.392295
-0.297907 -0.183631 -0.392295
-0.139703 -0.405393 -0.392295
-0.0793 0.345313 -0.392295
0.199584 -0.610691 -0.418414
0.321899 -0.720364 -0.392295
-0.115151 0.310825 -0.392295
0.031854 0.114817 -0.418414
-0.309966 0.361544 -0.392295
0.390008 -0.477945 -0.413776
0.277683 0.227049 -0.418414
-0.348938 -0.521125 -0.418414
-0.128802 -0.501596 -0.392295
0.344723 0.794212 -0.392295
0.127837 0.21405 -0.392295
0.071083 0.339472 -0.392295
0.289502 -0.657377 -0.392295
-0.345966 0.265914 -0.418414
-0.109904 -0.72433 -0.418414
0.328203 -0.162418 -0.392295
0.279838 -0.542982 -0.392295
-0.374369 -0.077747 -0.392295
0.197977 -0.414138 -0.392295
-0.007105 -0.65196 -0.418414
-0.087613 -0.638241 -0.392295
-0.295386 0.688758 -0.392295
-0.045805 0.163796 -0.418414
-0.374448 0.586751 -0.418414
0.281428 0.472378 -0.392295
0.379803 -0.689727 -0.418414
-0.198409 -0.241757 -0.392295
-0.150486 0.410181 -0.418414
0.221517 -0.120301 -0.392295
-0.07263 -0.566797 -0.392295
-0.053937 0.667966 -0.392295
0.15677 -0.096686 -0.392295
0.299154 0.348308 -0.392295
0.05323 0.53111 -0.418414
-0.337914 -0.101655 -0.418414
-0.111316 0.514106 -0.418414
0.049721 -0.659516 -0.418414
-0.082982 -0.748942 -0.418414
0.380946 -0.039581 -0.392295
0.147398 -0.324938 -0.392295
0.228842 -0.493592 -0.392295
0.074269 -0.126629 -0.392295
0.350816 -0.66177 -0.392295
0.310217 -0.598666 -0.392295
0.284642 0.11662 -0.418414
-0.354412 -0.17085 -0.418414
0.145481 -0.576512 -0.392295
0.181299 0.437024 -0.418414
-0.117824 -0.449746 -0.392295
-0.152075 0.512473 -0.418414
0.024569 0.757618 -0.418414
-0.121151 0.7741 -0.392295
0.068051 -0.620883 -0.392295
-0.382587 -0.644026 -0.411941
-0.062168 -0.416013 -0.392295
-0.183489 -0.207638 -0.418414
-0.236886 -0.235186 -0.418414
0.151068 0.46924 -0.392295
0.106015 -0.479738 -0.392295
0.080775 0.523474 -0.418414
-0.159224 -0.20178 -0.392295
-0.252994 -0.565917 -0.392295
0.093513 0.571632 -0.418414
0.261844 0.615739 -0.392295
-0.322948 -0.800115 -0.418414
0.078178 -0.398587 -0.392295
-0.284526 -0.78138 -0.418414
-0.048786 0.517984 -0.418414
0.291613 0.030534 -0.418414
-0.261707 -0.627829 -0.392295
0.233058 -0.77447 -0.392295
-0.098371 -0.327258 -0.418414
-0.200275 0.114463 -0.392295
-0.265446 0.553895 -0.392295
-0.300406 -0.404429 -0.418414
-0.043019 0.220773 -0.392295
-0.055404 -0.493854 -0.418414
0.137922 -0.333522 -0.418414
0.316793 0.141957 -0.392295
-0.206789 -0.190109 -0.418414
0.362057 -0.460741 -0.418414
-0.18455 0.493864 -0.392295
0.381065 0.429471 -0.392295
-0.382587 -0.490018 -0.401169
-0.263304 -0.405337 -0.392295
-0.13782 0.328229 -0.418414
-0.306526 -0.516669 -0.418414
0.054665 -0.157642 -0.392295
-0.133379 -0.170752 -0.418414
0.015239 0.538779 -0.392295
-0.13273 0.017043 -0.392295
-0.179252 -0.554872 -0.418414
0.04308 -0.08485 -0.418414
0.082439 0.042104 -0.418414
-0.07641 -0.188681 -0.392295
-0.312894 -0.477173 -0.392295
0.156615 -0.545144 -0.392295
0.111139 -0.569307 -0.392295
0.139308 0.389522 -0.392295
-0.317296 -0.35631 -0.418414
0.149114 0.444309 -0.418414
0.359339 0.326099 -0.392295
0.115582 0.372293 -0.392295
-0.147605 0.803375 -0.392295
0.170824 0.179938 -0.392295
-0.097713 0.124881 -0.392295
-0.350096 0.128549 -0.418414
0.014598 -0.466022 -0.418414
-0.088686 -0.056569 -0.392295
-0.059407 0.075869 -0.418414
-0.301369 0.593956 -0.392295
0.212527 0.028101 -0.392295
-0.077903 0.039459 -0.392295
-0.217706 -0.591709 -0.392295
-0.288753 -0.421577 -0.392295
-0.068211 0.139558 -0.392295
0.11609 -0.395297 -0.392295
0.198997 -0.094277 -0.392295
-0.208401 0.31682 -0.392295
0.334967 0.361224 -0.418414
-0.268349 0.2589 -0.418414
0.122532 -0.693516 -0.392295
0.05157 0.58608 -0.418414
-0.076537 0.816483 -0.395695
0.2782 -0.360517 -0.418414
0.081284 -0.285488 -0.392295
0.070356 -0.38169 -0.418414
0.112264 0.799868 -0.392295
0.209187 -0.030218 -0.418414
-0.128365 0.427486 -0.392295
0.145627 -0.404716 -0.392295
0.317396 0.589358 -0.392295
-0.073292 -0.046579 -0.418414
0.015501 0.573832 -0.418414
0.114311 -0.138289 -0.418414
-0.103419 0.038984 -0.418414
0.211597 -0.584461 -0.392295
0.175247 -0.174853 -0.418414
-0.368789 -0.184729 -0.392295
-0.067688 0.192101 -0.392295
0.250113 -0.477098 -0.392295
-0.01575 -0.081463 -0.418414
0.050193 0.74877 -0.418414
-0.242902 0.785639 -0.392295
0.208305 0.237018 -0.392295
0.177771 0.073853 -0.418414
-0.378477 0.619524 -0.392295
0.357177 -0.022754 -0.392295
-0.039099 -0.683276 -0.392295
-0.044964 0.249075 -0.418414
-0.323676 0.034997 -0.392295
0.200007 -0.233693 -0.418414
-0.096933 0.235919 -0.392295
-0.032081 0.728155 -0.418414
0.145154 0.158458 -0.418414
-0.315743 0.660768 -0.392295
-0.00359 0.222165 -0.418414
0.096019 -0.210772 -0.392295
0.01768 0.237517 -0.392295
-0.214606 0.295316 -0.418414
-0.37331 -0.389042 -0.418414
0.215431 -0.266681 -0.418414
-0.347322 0.654509 -0.418414
-0.359904 -0.464098 -0.392295
0.220976 0.8157 -0.418414
0.158805 -0.435035 -0.418414
-0.217438 0.752412 -0.418414
-0.357148 -0.656154 -0.392295
0.188924 -0.755296 -0.418414
-0.269703 -0.544172 -0.418414
-0.382587 0.688405 -0.409039
0.371182 -0.4405 -0.392295
-0.053076 0.593429 -0.392295
0.386156 0.707062 -0.392295
0.285998 0.013849 -0.392295
0.00346 -0.09496 -0.392295
0.360475 0.45558 -0.392295
-0.038874 0.050282 -0.392295
-0.015606 0.176967 -0.392295
0.115349 -0.293729 -0.418414
-0.133544 -0.052548 -0.418414
-0.081959 -0.140637 -0.418414
0.022816 -0.143592 -0.418414
-0.260244 -0.518965 -0.392295
0.220813 0.139138 -0.392295
0.390008 0.371341 -0.394328
0.275959 -0.757054 -0.418414
-0.23448 0.200453 -0.418414
-0.058764 0.630514 -0.418414
0.275312 -0.492151 -0.418414
0.390008 0.763901 -0.394239
-0.375838 0.15792 -0.392295
0.084787 -0.539167 -0.418414
-0.204985 0.453308 -0.418414
-0.164219 -0.434276 -0.392295
0.168542 0.363358 -0.392295
-0.204687 0.587476 -0.418414
-0.193719 0.22661 -0.418414
-0.118084 0.616878 -0.418414
0.318637 0.049142 -0.392295
0.203652 -0.274603 -0.392295
-0.114845 0.402005 -0.418414
0.31865 0.114288 -0.418414
0.036097 -0.058065 -0.392295
-0.079533 -0.456255 -0.418414
0.241445 -0.202986 -0.418414
0.079647 0.787886 -0.418414
-0.171609 -0.288701 -0.392295
0.15589 0.048636 -0.392295
-0.291007 0.164902 -0.418414
0.0375 -0.49326 -0.418414
0.250832 -0.71477 -0.392295
0.052354 -0.127513 -0.418414
0.373842 -0.353405 -0.392295
0.239686 0.249539 -0.418414
-0.102342 0.163869 -0.392295
-0.062987 0.114554 -0.418414
0.181433 0.610064 -0.418414
0.387256 0.283177 -0.418414
0.30612 0.756386 -0.392295
-0.002245 -0.744124 -0.418414
-0.363707 0.112417 -0.392295
-0.103876 -0.231552 -0.418414
-0.238732 -0.495301 -0.418414
0.269672 0.76859 -0.418414
0.248786 0.221984 -0.392295
0.215534 -0.209229 -0.392295
-0.173285 0.566011 -0.418414
0.221283 0.498593 -0.418414
-0.136478 -0.107452 -0.418414
0.23843 -0.438554 -0.392295
0.128955 0.376744 -0.418414
-0.003723 0.273238 -0.418414
0.187381 -0.795189 -0.392295
0.037833 0.653816 -0.392295
-0.243966 0.668392 -0.392295
0.334126 0.710469 -0.392295
-0.371345 -0.535426 -0.392295
-0.192202 0.771402 -0.392295
-0.072142 0.243562 -0.392295
-0.233424 -0.589899 -0.418414
-0.379338 -0.137065 -0.392295
0.320318 -0.24632 -0.418414
0.311578 0.263279 -0.418414
-0.154134 0.295469 -0.418414
0.00636 0.668289 -0.392295
0.126516 0.186448 -0.418414
0.045827 -0.281298 -0.418414
0.084437 0.675517 -0.392295
0.168354 0.409131 -0.392295
-0.205812 0.392572 -0.418414
0.246366 0.099766 -0.392295
0.221783 -0.347246 -0.418414
-0.062147 -0.538348 -0.392295
-0.100034 -0.660793 -0.392295
0.340989 0.670191 -0.418414
0.245814 0.486817 -0.418414
-0.247813 0.312294 -0.418414
0.049249 -0.562773 -0.418414
0.000244 0.163148 -0.418414
-0.331049 -0.418594 -0.418414
0.114728 -0.016605 -0.418414
-0.347347 -0.009576 -0.418414
-0.380052 0.225017 -0.392295
0.086356 0.607662 -0.418414
0.389293 -0.509098 -0.418414
-0.382587 -0.445267 -0.418281
0.168495 -0.65611 -0.392295
0.144252 -0.806174 -0.41755
0.190027 0.628962 -0.392295
-0.12215 -0.683429 -0.392295
0.136427 0.14628 -0.392295
-0.214428 -0.724396 -0.418414
-0.077124 0.48999 -0.392295
0.220673 0.085382 -0.392295
0.024339 0.265696 -0.418414
0.302487 -0.518296 -0.392295
0.281726 -0.13468 -0.392295
-0.315449 0.150326 -0.392295
0.248413 -0.115458 -0.418414
-0.16487 -0.502357 -0.418414
0.256396 0.441735 -0.418414
0.273686 -0.267327 -0.418414
-0.033198 -0.608656 -0.418414
0.019033 0.153052 -0.392295
0.228274 0.37612 -0.392295
0.05966 0.430042 -0.418414
-0.084401 0.529379 -0.392295
0.172853 0.450438 -0.392295
-0.382587 0.300121 -0.407471
0.207759 -0.177185 -0.418414
0.216195 0.748385 -0.392295
0.109722 -0.242914 -0.392295
0.281069 -0.015538 -0.418414
0.002991 0.387171 -0.418414
0.095891 -0.666783 -0.418414
-0.334336 -0.528388 -0.392295
-0.245375 0.060664 -0.392295
-0.260671 -0.056524 -0.392295
0.269581 -0.308819 -0.392295
-0.012062 -0.329045 -0.418414
-0.09868 0.752396 -0.392295
-0.133148 -0.507385 -0.418414
-0.339101 0.31406 -0.418414
-0.349497 0.397624 -0.418414
0.232675 -0.019426 -0.392295
-0.066869 -0.478229 -0.392295
-0.244966 0.178943 -0.392295
-0.019191 0.54604 -0.418414
0.220493 -0.515335 -0.418414
-0.29962 0.122161 -0.418414
0.066467 -0.214792 -0.392295
0.324945 -0.751437 -0.418414
-0.117499 -0.760405 -0.392295
0.334934 -0.800639 -0.392295
-0.041242 -0.706391 -0.418414
0.095319 0.646932 -0.392295
-0.131518 0.645039 -0.392295
-0.043642 -0.625847 -0.392295
-0.135116 -0.781938 -0.418414
0.131844 0.026491 -0.418414
-0.049806 0.794029 -0.392295
-0.382587 0.135607 -0.404352
-0.151033 -0.21549 -0.418414
0.099518 0.077364 -0.392295
-0.234248 -0.744836 -0.418414
-0.227512 0.812268 -0.418414
0.193794 0.539691 -0.418414
-0.355344 -0.214756 -0.392295
-0.313302 0.201441 -0.392295
0.089519 -0.266641 -0.418414
-0.133104 0.081616 -0.418414
0.019635 -0.408715 -0.392295
0.191349 0.750813 -0.392295
-0.349696 0.560888 -0.392295
-0.34797 -0.595105 -0.392295
0.263851 -0.78288 -0.392295
0.158024 -0.073171 -0.418414
0.386146 -0.259855 -0.418414
-0.134841 -0.582426 -0.418414
-0.279164 0.565682 -0.418414
0.068888 -0.225382 -0.418414
-0.088972 -0.414162 -0.392295
0.091174 -0.590843 -0.418414
0.119614 -0.407173 -0.418414
0.128482 -0.019949 -0.392295
-0.183267 0.178678 -0.418414
0.212389 -0.124397 -0.418414
-0.280942 0.394692 -0.418414
-0.382587 -0.047338 -0.411839
0.148567 0.659394 -0.392295
0.367614 -0.63533 -0.392295
0.230967 0.663454 -0.418414
0.225806 0.724866 -0.392295
-0.033143 0.436313 -0.392295
-0.036427 0.384938 -0.392295
0.259969 0.396131 -0.392295
-0.275737 0.017457 -0.418414
0.151286 -0.491794 -0.392295
-0.253157 0.387758 -0.418414
0.290725 0.063876 -0.392295
-0.089715 0.062979 -0.392295
0.112299 0.464793 -0.418414
0.164971 -0.708092 -0.418414
0.219754 0.106249 -0.418414
-0.365349 -0.757674 -0.392295
0.306294 0.473719 -0.418414
0.061526 0.560393 -0.392295
-0.00951 -0.54524 -0.392295
0.297357 0.200064 -0.392295
-0.026201 0.31823 -0.392295
0.324391 0.423913 -0.418414
0.030055 0.173208 -0.418414
0.314115 0.27096 -0.392295
0.314876 -0.124955 -0.418414
0.097475 -0.095668 -0.418414
-0.103375 0.144179 -0.418414
-0.235915 -0.806174 0.298897
0.348488 -0.806174 -0.213498
-0.06557 -0.780054 -0.095586
0.206701 -0.806174 0.209624
-0.359273 -0.806174 -0.10764
-0.045055 -0.780054 0.152758
0.16767 -0.806174 -0.055031
-0.215858 -0.780054 -0.266001
0.092046 -0.806174 -0.245269
-0.22383 -0.780054 0.059328
-0.067446 -0.806174 0.327958
0.137822 -0.806174 0.355511
0.108618 -0.806174 0.088438
0.266997 -0.806174 0.062395
-0.063452 -0.806174 -0.244701
-0.207556 -0.780054 -0.110449
0.22485 -0.780054 -0.276511
0.282519 -0.806174 0.322758
0.2989 -0.806174 -0.08917
-0.015756 -0.806174 0.024938
0.06136 -0.806174 0.247701
-0.286815 -0.780054 0.179728
-0.162258 -0.780054 0.199646
0.062901 -0.806174 -0.112168
0.075972 -0.804018 -0.392295
0.187423 -0.806174 -0.169437
-0.322517 -0.806174 -0.216831
-0.335181 -0.806174 0.051929
-0.114167 -0.780054 0.067557
0.355844 -0.806174 0.125488
-0.140379 -0.780054 -0.34136
0.316202 -0.780054 -0.331644
-0.268904 -0.806174 -0.353577
0.309693 -0.780054 0.213221
-0.172426 -0.806174 -0.02028
-0.272965 -0.780054 -0.037353
-0.135837 -0.780054 -0.176856
0.14873 -0.780054 -0.334853
0.088392 -0.780054 -0.000324
-0.32019 -0.780054 0.265061
-0.352416 -0.806174 -0.316108
0.006983 -0.780054 -0.178227
-0.083435 -0.780054 0.240884
0.042244 -0.806174 0.160876
0.360247 -0.806174 0.281559
0.183481 -0.780054 0.026298
0.050614 -0.780054 0.329617
0.031648 -0.806174 -0.306567
0.182655 -0.780054 0.121593
0.318849 -0.780054 -0.011732
-0.151899 -0.806174 0.357605
0.139353 -0.780054 0.261071
-0.242076 -0.806174 -0.192559
0.268816 -0.806174 -0.193737
0.011077 -0.780054 -0.044135
-0.14068 -0.806174 -0.255458
-0.176501 -0.780054 0.123836
-0.095366 -0.806174 -0.021351
0.197611 -0.780054 0.315394
0.114836 -0.806174 0.182911
0.354304 -0.806174 0.358003
0.261322 -0.806174 0.157602
-0.333759 -0.806174 0.334386
0.23603 -0.780054 -0.040366
0.01427 -0.780054 0.087496
-0.229947 -0.780054 0.368
-0.007027 -0.780054 0.258453
0.29636 -0.780054 -0.2593
-0.328572 -0.780054 0.119749
0.249088 -0.780054 -0.367977
0.164366 -0.806174 -0.242432
-0.292737 -0.780054 -0.116851
-0.043588 -0.780054 -0.331625
-0.140511 -0.780054 -0.084789
-0.224952 -0.806174 0.228411
-0.365606 -0.806174 0.185032
0.344156 -0.806174 0.055738
-0.29585 -0.780054 -0.28382
-0.128519 -0.806174 0.291515
0.084323 -0.780054 -0.173407
0.33999 -0.780054 -0.139335
0.13592 -0.780054 -0.111347
0.24433 -0.780054 0.261247
0.367117 -0.780054 -0.061177
-0.354111 -0.780054 -0.045391
-0.242126 -0.806174 0.136319
0.0066 -0.780054 -0.250131
-0.108216 -0.806174 0.128864
-0.050043 -0.806174 -0.157963
0.382976 -0.806174 -0.26962
-0.002613 -0.806174 -0.114002
0.091802 -0.806174 -0.325508
0.232977 -0.780054 -0.135316
0.045163 -0.806174 0.038764
-0.047683 -0.806174 0.096315
-0.196331 -0.806174 -0.31885
-0.005406 -0.806174 0.314416
-0.026826 -0.806174 0.207282
0.374743 -0.806174 0.219133
-0.095013 -0.780054 -0.300679
-0.335588 -0.780054 -0.158608
-0.182182 -0.780054 0.294114
0.098612 -0.806174 0.305562
-0.268628 -0.806174 0.030223
-0.099723 -0.780054 0.184171
0.269657 -0.794326 0.378239
-0.196244 -0.780054 -0.168317
0.025955 -0.780054 0.209716
0.142077 -0.780054 -0.196068
-0.046393 -0.780054 -0.041549
-0.214915 -0.780054 -0.047394
0.13862 -0.806174 -0.004268
0.232818 -0.806174 0.016693
-0.220157 -0.780054 -0.363695
-0.080459 -0.780054 -0.197188
0.260234 -0.806174 -0.310914
-0.271948 -0.806174 -0.239005
-0.104831 -0.806174 -0.374461
-0.071279 -0.780054 0.033058
0.166497 -0.806174 0.071663
0.288799 -0.780054 0.105562
0.19178 -0.806174 -0.312963
0.091065 -0.806174 -0.048544
-0.163658 -0.806174 0.033849
0.311945 -0.780054 0.267875
-0.107164 -0.806174 -0.119048
-0.034361 -0.780054 0.36226
-0.16995 -0.806174 0.248148
-0.244947 -0.780054 -0.311765
0.125621 -0.780054 0.137507
-0.256465 -0.806174 -0.088054
-0.292429 -0.806174 0.228437
0.289387 -0.806174 -0.140938
0.335567 -0.806174 0.174042
-0.289875 -0.780054 0.346817
-0.310295 -0.806174 -0.063087
-0.324206 -0.780054 -0.351589
0.044887 -0.806174 -0.223032
-0.293918 -0.780054 0.070143
0.214437 -0.806174 -0.227962
-0.351321 -0.780054 0.006646
0.170378 -0.806174 0.164919
0.378312 -0.806174 -0.16267
0.182949 -0.806174 0.270578
0.111899 -0.780054 -0.284973
-0.031618 -0.806174 -0.284749
0.242351 -0.806174 -0.083839
0.223078 -0.780054 0.062732
0.005635 -0.806174 -0.350439
0.366511 -0.780054 0.006354
0.203674 -0.806174 0.367378
0.048494 -0.780054 -0.35676
0.340791 -0.806174 -0.367236
-0.352579 -0.780054 -0.27309
-0.289172 -0.806174 0.294678
0.072577 -0.780054 0.19113
0.224933 -0.806174 0.1202
-0.206475 -0.806174 0.170853
0.042066 -0.806174 -0.015522
0.182773 -0.780054 -0.094236
-0.293962 -0.806174 -0.163187
0.111789 -0.806174 0.036862
-0.006098 -0.806174 0.138364
-0.215764 -0.806174 0.00259
0.296708 -0.806174 0.023492
0.05202 -0.780698 0.378239
0.069397 -0.780054 0.07676
-0.186526 -0.780054 -0.227664
-0.082724 -0.780054 0.3753
0.244872 -0.780054 0.197581
-0.191371 -0.806174 0.082513
0.122325 -0.806174 -0.161431
-0.156096 -0.806174 0.158003
0.362016 -0.806174 -0.312118
-0.124267 -0.806174 0.2362
-0.252357 -0.780054 0.263166
0.168874 -0.780054 0.224769
-0.026843 -0.780054 0.06185
0.344991 -0.780054 -0.263819
-0.364794 -0.780054 0.302107
-0.266721 -0.806174 0.097312
0.266315 -0.806174 0.228708
-0.14939 -0.806174 -0.137093
-0.367789 -0.806174 -0.210603
-0.031327 -0.806174 -0.078488
0.141186 -0.780054 0.318436
0.245425 -0.780054 0.325212
0.33211 -0.806174 -0.048861
0.084787 -0.806174 0.145387
-0.064863 -0.780054 0.282091
0.303816 -0.780054 -0.204143
0.027103 -0.780054 0.287617
-0.36525 -0.780054 0.093077
-0.246397 -0.780054 -0.132814
0.064109 -0.780054 -0.290196
0.03143 -0.806174 -0.080581
0.309383 -0.780054 0.364309
-0.139406 -0.806174 0.092936
-0.092078 -0.780054 -0.056873
0.319323 -0.780054 0.137534
0.156172 -0.806174 -0.286851
-0.328612 -0.806174 0.161147
0.28363 -0.806174 -0.360294
0.200904 -0.806174 -0.372635
-0.188896 -0.806174 -0.08053
-0.133099 -0.806174 -0.043607
0.261109 -0.806174 -0.267177
-0.382022 -0.806174 -0.150267
-0.343694 -0.806174 0.239155
0.093989 -0.780054 0.36661
0.018743 -0.780054 0.010115
0.092322 -0.780054 -0.13016
0.103211 -0.780054 -0.363622
0.038749 -0.780054 0.122989
0.269821 -0.806174 -0.035324
0.108331 -0.806174 0.246768
0.010353 -0.806174 0.354411
-0.173214 -0.780054 -0.270966
0.14196 -0.780054 0.097867
0.309352 -0.806174 -0.298385
-0.134524 -0.806174 -0.213115
0.059067 -0.780054 -0.059308
-0.249769 -0.806174 0.339266
0.11745 -0.806174 -0.081949
-0.059409 -0.780054 0.199161
0.104585 -0.806174 -0.20463
-0.124852 -0.780054 -0.005661
-0.006952 -0.780054 -0.384895
-0.185339 -0.806174 0.327149
0.378116 -0.780054 0.186248
0.312095 -0.780054 0.063617
0.138326 -0.780054 -0.040336
0.039744 -0.806174 -0.180112
-0.319662 -0.780054 -0.020813
0.201271 -0.806174 -0.030492
-0.176606 -0.806174 -0.196858
0.23698 -0.780054 -0.199277
-0.037327 -0.780054 -0.187666
-0.085089 -0.806174 -0.33136
0.390008 -0.782163 -0.377339
0.040055 -0.780054 -0.134397
0.067834 -0.780054 0.282192
0.260843 -0.780054 -0.00528
-0.359646 -0.780054 0.146045
0.206264 -0.806174 -0.1194
-0.111462 -0.780054 -0.245157
-0.318757 -0.780054 0.21212
0.347344 -0.780054 -0.182568
-0.109875 -0.806174 0.327399
0.269308 -0.780054 -0.068843
0.354801 -0.780054 0.084477
-0.092811 -0.780054 0.102402
0.327616 -0.780054 -0.099455
-0.205239 -0.780054 0.205175
-0.021666 -0.780054 -0.146864
0.004954 -0.806174 -0.219259
-0.080376 -0.780054 -0.156998
0.329203 -0.780054 0.026901
-0.078432 -0.806174 0.162759
0.390008 -0.780522 -0.299889
0.206956 -0.780054 -0.343172
-0.323157 -0.806174 -0.267349
0.222625 -0.806174 0.166342
-0.001664 -0.780054 -0.081892
-0.182674 -0.806174 -0.355968
-0.001557 -0.780054 -0.288693
-0.330011 -0.806174 0.292878
-0.287123 -0.780054 0.007348
0.260438 -0.806174 0.290221
-0.284221 -0.780054 -0.212335
0.000529 -0.780054 0.179946
0.105614 -0.780054 0.212076
-0.105177 -0.806174 0.016129
-0.200903 -0.806174 0.272481
-0.024512 -0.780054 0.116718
-0.314736 -0.806174 0.019194
0.14836 -0.806174 0.202006
-0.129674 -0.780054 0.147769
-0.169202 -0.780054 -0.311136
0.312607 -0.806174 -0.236283
-0.037796 -0.806174 0.274335
0.252741 -0.806174 -0.228965
0.287642 -0.780054 -0.16943
0.170611 -0.806174 0.308273
-0.284693 -0.780054 -0.074221
-0.29412 -0.806174 -0.324947
-0.27955 -0.806174 0.143695
-0.111425 -0.780054 0.26678
0.186731 -0.780054 -0.27606
0.365694 -0.780054 -0.100315
-0.382587 -0.787122 -0.330761
0.075297 -0.780054 0.035382
-0.207693 -0.806174 0.120191
0.127221 -0.780054 0.059753
0.302572 -0.780054 0.171478
-0.256825 -0.780054 -0.261788
0.217717 -0.806174 0.296871
0.205507 -0.806174 0.083653
-0.346212 -0.780054 -0.230373
-0.169916 -0.780054 -0.112715
-0.120511 -0.806174 -0.318774
0.308671 -0.806174 0.240198
-0.026783 -0.780054 0.000529
-0.292751 -0.780054 -0.3717
-0.226814 -0.780054 0.325787
-0.068795 -0.806174 -0.296928
0.366148 -0.780054 0.247618
0.150999 -0.806174 -0.132821
-0.098032 -0.780054 0.304064
-0.059613 -0.806174 0.230107
0.018429 -0.806174 0.252526
0.257819 -0.780054 -0.108006
-0.121872 -0.780054 -0.140521
-0.245002 -0.780054 -0.013323
0.356714 -0.780054 0.156269
-0.027078 -0.806174 -0.240603
-0.18681 -0.780054 0.044791
-0.066179 -0.780054 -0.360376
-0.377739 -0.806174 0.253527
-0.05142 -0.780054 -0.222366
-0.326065 -0.780054 -0.304113
-0.10223 -0.806174 -0.184222
-0.260999 -0.780054 -0.175777
0.067045 -0.780054 -0.247584
0.120634 -0.780054 -0.225268
0.284596 -0.780054 -0.293556
0.328938 -0.806174 -0.165654
0.026546 -0.806174 -0.270783
-0.31685 -0.806174 -0.123154
-0.224713 -0.806174 -0.070917
-0.075781 -0.806174 0.073808
-0.139333 -0.806174 0.190287
-0.185298 -0.806174 -0.138627
-0.054988 -0.780054 -0.131569
0.219825 -0.806174 0.258957
-0.321389 -0.806174 0.096263
-0.191974 -0.780054 -0.003323
0.19416 -0.780054 0.17055
0.334073 -0.806174 0.211827
0.260209 -0.780054 0.126954
-0.232504 -0.806174 -0.290962
0.19172 -0.780054 -0.053664
0.077423 -0.806174 -0.150339
-0.355626 -0.780054 0.265435
-0.103969 -0.806174 -0.26782
-0.263759 -0.780054 0.120992
-0.006887 -0.780054 -0.330171
0.004101 -0.780832 0.378239
0.131542 -0.806174 0.292876
0.285104 -0.780054 0.244982
0.006584 -0.806174 -0.148047
0.192807 -0.806174 0.047738
-0.364084 -0.806174 -0.370566
-0.272775 -0.806174 -0.010942
-0.008515 -0.806174 0.091819
-0.359762 -0.780054 -0.184554
0.082912 -0.806174 0.216113
-0.221076 -0.806174 -0.164769
-0.085429 -0.806174 -0.083961
-0.382587 -0.793784 -0.030894
0.12215 -0.806174 -0.342491
0.148366 -0.806174 0.119852
0.207718 -0.806174 -0.08163
-0.132268 -0.783817 0.378239
0.325679 -0.780054 0.103245
-0.372467 -0.806174 -0.284103
0.023351 -0.806174 0.065652
0.129936 -0.780054 0.023279
0.069606 -0.806174 0.341974
0.198052 -0.780054 0.253385
0.031369 -0.806174 0.318159
0.101402 -0.780054 0.11307
0.223631 -0.780054 0.224604
0.320199 -0.780054 0.30112
-0.252547 -0.806174 0.208182
0.158719 -0.806174 0.244377
-0.101885 -0.780054 -0.345519
0.170442 -0.780054 0.336035
-0.092179 -0.780054 0.342589
0.276126 -0.780054 -0.339946
0.050534 -0.806174 0.104821
-0.107205 -0.780054 -0.091094
0.135147 -0.780054 0.175568
-0.276536 -0.806174 -0.13417
-0.198893 -0.806174 -0.279235
-0.327452 -0.780054 0.074689
-0.31096 -0.780054 0.148641
0.231243 -0.806174 0.341212
0.193637 -0.780054 -0.189838
0.142197 -0.780054 -0.078264
0.044917 -0.806174 0.200163
-0.032546 -0.780054 0.236743
-0.054594 -0.806174 -0.02226
-0.201727 -0.780054 0.145808
-0.303128 -0.806174 0.368647
0.001529 -0.780054 0.335521
0.02348 -0.780054 -0.209723
-0.198125 -0.780054 0.251894
-0.370352 -0.806174 -0.00152
-0.146825 -0.806174 0.324681
0.29426 -0.780054 -0.120885
0.241917 -0.806174 0.091574
-0.254143 -0.780054 -0.377899
0.091359 -0.806174 -0.286036
-0.022941 -0.780054 -0.112466
-0.135295 -0.780054 0.218776
-0.080775 -0.780054 -0.270887
-0.052169 -0.806174 -0.201219
-0.358671 -0.806174 -0.253973
-0.159761 -0.806174 -0.168615
0.237948 -0.80257 0.378239
0.322464 -0.780054 -0.375628
0.220397 -0.780054 0.001332
-0.043593 -0.780054 0.306985
-0.185812 -0.806174 0.208696
-0.302578 -0.806174 0.049939
0.251827 -0.806174 -0.140724
0.283684 -0.780054 0.047506
0.371692 -0.806174 -0.081734
0.103717 -0.780054 -0.099647
0.063957 -0.780054 -0.092741
-0.350941 -0.806174 -0.140556
-0.331716 -0.806174 -0.177654
0.048811 -0.806174 0.286053
0.075026 -0.806174 -0.19043
-0.336456 -0.806174 -0.011188
0.272045 -0.780054 -0.237738
0.063344 -0.806174 -0.266522
-0.022242 -0.806174 -0.174742
-0.285536 -0.780054 0.246455
0.241872 -0.806174 -0.337606
0.300699 -0.806174 0.14201
0.171044 -0.806174 -0.360162
0.142443 -0.806174 -0.218644
-0.13603 -0.806174 -0.359907
0.328155 -0.780054 0.239611
-0.265678 -0.806174 -0.057347
-0.235994 -0.806174 -0.117409
-0.32023 -0.780054 0.180109
0.086003 -0.806174 0.065738
-0.129814 -0.780054 0.108738
-0.357375 -0.780054 0.214812
0.114229 -0.806174 -0.024968
-0.338394 -0.806174 -0.083416
0.344191 -0.806174 -0.121408
-0.303898 -0.806174 0.122992
0.361465 -0.780054 0.04507
0.347864 -0.806174 0.247108
0.390008 -0.797887 -0.128388
0.032114 -0.805603 0.378239
0.376604 -0.806174 0.074637
0.165599 -0.806174 0.029623
0.334255 -0.806174 -0.329785
0.328706 -0.806174 0.277734
0.071926 -0.780054 -0.320989
0.184868 -0.780054 -0.151557
0.188468 -0.806174 0.336363
-0.183895 -0.780054 0.176434
0.345639 -0.806174 0.019632
0.164838 -0.806174 -0.094856
0.272662 -0.780054 0.30332
-0.34471 -0.780054 0.348508
-0.022834 -0.806174 0.348611
0.222467 -0.780054 0.36238
-0.092673 -0.780054 0.003513
0.121679 -0.780054 -0.318649
0.223196 -0.780054 0.148729
0.139698 -0.780054 -0.164344
0.340188 -0.806174 -0.280726
-0.151989 -0.780054 -0.211204
0.17025 -0.780054 0.19338
0.026444 -0.806174 -0.377326
0.338937 -0.806174 0.091146
0.344888 -0.780054 -0.310511
0.281571 -0.806174 0.26179
-0.181947 -0.806174 -0.244217
0.303064 -0.806174 0.348417
0.166526 -0.806174 -0.192619
-0.28015 -0.806174 0.324538
-0.052782 -0.806174 0.180486
-0.352161 -0.780054 -0.337806
-0.372511 -0.780054 -0.07051
-0.139356 -0.780054 0.304543
0.015874 -0.806174 0.187075
-0.16471 -0.780054 -0.144274
-0.359508 -0.804818 0.378239
-0.249271 -0.780054 0.041456
-0.169121 -0.780054 0.093657
-0.338065 -0.806174 0.199297
-0.371221 -0.806174 0.108648
-0.15664 -0.780054 0.051815
-0.130785 -0.780054 -0.30572
0.350491 -0.806174 0.327284
-0.082711 -0.806174 -0.22047
-0.230875 -0.806174 -0.258988
-0.077466 -0.806174 -0.388884
-0.066772 -0.806174 0.371091
-0.357828 -0.780054 -0.385719
0.014771 -0.806174 0.029133
0.212544 -0.780054 0.109654
-0.039674 -0.806174 -0.108104
-0.198388 -0.780054 0.35706
0.076778 -0.780054 0.252778
-0.147254 -0.79251 -0.392295
-0.154001 -0.780054 0.339156
-0.365506 -0.806174 0.345449
0.227257 -0.780054 -0.078186
-0.010356 -0.806174 0.241878
-0.313333 -0.780054 -0.085209
-0.157434 -0.780054 0.01905
0.030155 -0.780054 0.044256
0.160029 -0.806174 -0.323642
0.15242 -0.780054 0.361781
-0.098267 -0.806174 0.372077
-0.041952 -0.806174 0.12631
-0.02665 -0.780054 -0.256363
-0.311636 -0.780054 -0.198954
-0.058597 -0.780054 0.107609
0.10789 -0.780054 -0.040506
-0.240321 -0.780054 -0.071379
-0.045873 -0.806174 0.02866
0.125749 -0.780054 -0.25511
0.165382 -0.780054 -0.387363
0.281818 -0.780054 0.337976
0.369658 -0.806174 -0.358345
-0.169052 -0.780054 0.266935
-0.271314 -0.806174 0.067498
0.03401 -0.780054 -0.291452
0.088371 -0.806174 -0.361613
-0.170642 -0.806174 -0.056607
-0.348236 -0.806174 0.021265
-0.375757 -0.780054 -0.127219
-0.06121 -0.780054 0.076811
0.370287 -0.780054 -0.330778
-0.280931 -0.780054 0.20911
0.272527 -0.780054 0.215558
0.309579 -0.780054 -0.146518
-0.118094 -0.806174 -0.081591
-0.10727 -0.806174 0.099047
-0.302238 -0.806174 -0.034381
-0.031127 -0.806174 -0.32446
-0.168459 -0.780054 -0.357401
0.015523 -0.780054 -0.106124
-0.080157 -0.806174 0.254643
-0.337384 -0.806174 -0.356495
-0.07157 -0.806174 0.002035
0.155575 -0.780054 0.133617
-0.22778 -0.780054 0.242097
-0.238894 -0.780054 0.21094
-0.330683 -0.780054 0.320906
0.182615 -0.806174 -0.219202
0.33549 -0.806174 -0.088151
0.262267 -0.806174 0.018035
-0.286742 -0.806174 -0.273703
-0.019616 -0.780054 -0.053785
0.382442 -0.806174 0.033808
0.253936 -0.780054 -0.280438
0.072932 -0.780054 0.151506
-0.107373 -0.780054 -0.208845
0.274491 -0.806174 -0.115678
-0.196845 -0.806174 0.053541
-0.273584 -0.806174 0.179632
0.375875 -0.806174 0.256513
0.311997 -0.806174 -0.383503
-0.189682 -0.806174 0.020614
-0.33259 -0.806174 0.132138
0.361045 -0.780054 -0.210061
0.163086 -0.780054 0.297682
-0.258467 -0.780054 0.172887
0.057808 -0.780054 -0.384377
0.240943 -0.806174 0.21438
-0.221728 -0.806174 -0.036494
-0.1331 -0.780054 0.179066
0.199673 -0.780054 -0.302116
0.358518 -0.780054 0.20773
0.056 -0.780054 -0.216755
-0.080002 -0.780054 -0.232925
-0.189187 -0.780054 -0.332218
0.312963 -0.806174 0.076268
0.051386 -0.780054 -0.185079
-0.248062 -0.780054 -0.103889
-0.012532 -0.806174 0.063126
-0.126634 -0.806174 -0.285847
0.042466 -0.780054 -0.035609
0.303309 -0.806174 -0.179059
0.338204 -0.780054 0.36643
0.312794 -0.806174 -0.265179
-0.262789 -0.780054 0.085654
0.194593 -0.780054 -0.123132
-0.149442 -0.806174 -0.002856
-0.293243 -0.806174 -0.204369
0.11087 -0.806174 0.008122
0.366409 -0.806174 -0.235981
-0.235792 -0.806174 0.058458
0.236333 -0.806174 0.063392
-0.009918 -0.780054 0.303489
-0.095841 -0.780054 -0.128541
-0.167109 -0.780054 0.150865
0.097594 -0.780054 0.064372
-0.163475 -0.780054 0.238539
0.138707 -0.806174 0.060776
-0.196659 -0.780054 -0.303378
0.307483 -0.806174 0.201509
-0.058713 -0.780054 0.007471
0.383293 -0.780054 -0.172941
-0.382587 -0.785753 -0.233398
0.007559 -0.806174 -0.033436
-0.21297 -0.780054 0.085577
0.047226 -0.780054 -0.005621
0.146446 -0.780054 -0.281383
0.214406 -0.780054 0.197748
0.122393 -0.806174 -0.053997
-0.050861 -0.806174 -0.051674
0.068228 -0.806174 0.022298
-0.144378 -0.780054 -0.05672
-0.040405 -0.780054 -0.290843
0.206915 -0.780054 -0.384134
0.147785 -0.806174 0.326702
-0.211432 -0.780054 -0.082568
-0.374164 -0.780054 -0.302657
0.116464 -0.806174 -0.259444
-0.228803 -0.780054 0.27836
0.220381 -0.780054 -0.248856
0.386018 -0.780054 -0.039006
-0.304389 -0.806174 -0.090418
0.350312 -0.780054 0.281495
0.093635 -0.780054 -0.256139
-0.017146 -0.780054 0.153547
0.209198 -0.806174 0.001859
0.099009 -0.780054 0.295834
0.32197 -0.780054 -0.233707
-0.234149 -0.806174 0.173905
0.215573 -0.780054 0.028712
-0.222051 -0.806174 0.362773
-0.373368 -0.806174 0.062473
-0.115229 -0.780054 0.23851
0.109953 -0.806174 0.116573
0.380378 -0.780054 0.095099
0.237878 -0.806174 -0.031357
0.2722 -0.780054 0.187878
0.115526 -0.780054 0.349227
0.390008 -0.787118 0.339781
0.142156 -0.780054 0.217652
-0.296479 -0.780054 0.299752
-0.021384 -0.806174 -0.379215
0.390008 -0.783354 -0.255801
0.339658 -0.780054 -0.063741
0.355955 -0.806174 -0.180726
-0.192707 -0.780054 -0.031228
0.215096 -0.806174 -0.055185
-0.31874 -0.806174 -0.150529
0.136815 -0.806174 0.227898
0.252032 -0.780054 -0.311864
-0.137492 -0.780054 0.258447
0.268155 -0.806174 0.128435
-0.290248 -0.780054 -0.156201
-0.356797 -0.806174 0.297929
-0.034348 -0.806174 -0.001263
-0.243499 -0.780054 0.301309
-0.080499 -0.780054 -0.032236
0.09701 -0.780054 -0.205231
0.151112 -0.780054 0.040302
0.183081 -0.806174 -0.282528
-0.30382 -0.780054 -0.333658
-0.337265 -0.806174 0.362762
0.113046 -0.780054 0.267672
0.070612 -0.780054 -0.147718
-0.305676 -0.806174 0.341665
-0.103732 -0.806174 0.043191
0.355917 -0.806174 -0.03593
0.011795 -0.780054 0.125585
0.349651 -0.780054 0.122193
0.309636 -0.806174 -0.064391
-0.351075 -0.806174 -0.039303
-0.112882 -0.806174 0.195583
0.19347 -0.780054 0.054309
0.330113 -0.780054 0.170324
-0.321981 -0.780054 -0.119108
0.250305 -0.806174 -0.376073
0.055696 -0.806174 -0.068976
0.30294 -0.780054 0.009948
0.089741 -0.806174 0.173312
0.322855 -0.806174 0.376675
0.011816 -0.780054 -0.151274
0.075209 -0.806174 0.281356
-0.24715 -0.806174 -0.337966
-0.313981 -0.806174 0.183536
-0.172531 -0.780054 0.363885
-0.160447 -0.806174 -0.228411
-0.36637 -0.806174 0.158362
0.151605 -0.780054 -0.307556
0.185309 -0.780054 0.368043
0.054302 -0.806174 0.13711
-0.087095 -0.806174 0.228926
-0.271332 -0.806174 0.274923
-0.382587 -0.795971 -0.190979
-0.241318 -0.806174 -0.016703
0.288154 -0.806174 -0.27516
-0.049788 -0.806174 0.153321
0.314311 -0.806174 -0.131924
0.244621 -0.780054 -0.341139
-0.009471 -0.780054 -0.229146
-0.023281 -0.780054 0.206901
0.196864 -0.806174 0.172284
0.289159 -0.806174 -0.248207
-0.193282 -0.806174 -0.169234
-0.369621 -0.780054 -0.012172
-0.357701 -0.806174 -0.183684
-0.261899 -0.780054 -0.226059
0.208714 -0.806174 -0.154194
-0.148095 -0.806174 0.214928
