-0.559461 0.649632 -0.120986
-0.559461 -0.537294 -0.210146
-0.559461 -0.139778 0.189097
-0.538756 -0.291463 -0.154898
-0.559461 -0.0686 0.187554
-0.538756 -0.476764 -0.216412
-0.559461 0.245889 0.115154
-0.538756 -0.315655 0.052793
-0.538756 -0.51867 -0.132584
-0.538756 0.519923 0.102197
-0.538756 -0.14751 -0.011277
-0.559461 0.109126 -0.238444
-0.538756 0.072028 0.284448
-0.559461 -0.38299 -0.202424
-0.559461 0.669564 0.02894
-0.538756 0.08552 0.112691
-0.538756 -0.542168 0.137699
-0.538756 -0.354823 -0.382799
-0.559461 0.211865 -0.345446
-0.538756 0.558483 0.226638
-0.559461 0.627624 -0.02157
-0.538756 0.531872 0.296035
-0.538756 -0.200568 0.260474
-0.538756 -0.287122 0.008483
-0.559461 0.377229 -0.153121
-0.538756 -0.113763 0.078116
-0.538756 -0.01761 0.059829
-0.538756 0.560824 0.167661
-0.538756 0.012145 0.158246
-0.559461 0.055119 -0.362954
-0.559461 0.487786 -0.147698
-0.538756 -0.142585 0.275295
-0.559461 0.222138 0.209415
-0.538756 -0.089078 -0.272041
-0.538756 0.616877 -0.28904
-0.538756 -0.185588 0.061554
-0.538756 -0.380637 0.013771
-0.538756 -0.005276 -0.11771
-0.559461 0.607179 -0.10467
-0.559461 -0.506371 -0.013537
-0.538756 0.286221 -0.297596
-0.559461 0.124868 0.006722
-0.538756 0.470561 0.175483
-0.559461 -0.145339 -0.385287
-0.538756 -0.300396 0.292515
-0.559461 -0.547113 0.187634
-0.538756 -0.214579 -0.188158
-0.538756 -0.21297 0.195214
-0.538756 0.255393 0.177855
-0.538756 -0.121023 -0.140237
-0.559461 0.310664 -0.038398
-0.538756 0.44762 -0.293244
-0.559461 0.670933 0.106593
-0.538756 -0.448526 0.31416
-0.559461 0.266771 0.056157
-0.538756 0.140466 -0.158534
-0.559461 0.483375 -0.230126
-0.557594 -0.52512 -0.392816
-0.538756 -0.124614 -0.080751
-0.538756 0.379703 0.050277
-0.559461 -0.185669 -0.320291
-0.538756 0.551535 -0.141194
-0.559461 -0.541769 0.270741
-0.559461 -0.480302 0.187667
-0.559461 -0.505143 0.143613
-0.538756 0.303685 -0.255004
-0.559461 0.570725 0.31772
-0.538756 0.167597 -0.082581
-0.559461 -0.314163 0.194784
-0.538756 0.203409 0.019228
-0.538756 0.608969 0.148722
-0.538756 0.078705 -0.167874
-0.559461 0.670814 -0.3574
-0.559461 0.1041 0.17489
-0.538756 0.236471 -0.055877
-0.538756 0.520645 -0.293661
-0.538756 0.388723 0.226679
-0.559461 -0.288839 -0.192422
-0.538756 -0.088585 0.112699
-0.559461 0.361407 -0.200433
-0.559461 -0.002807 -0.358168
-0.538756 0.417213 -0.039263
-0.559461 -0.542787 -0.048015
-0.538756 0.057494 -0.009163
-0.559461 0.210802 -0.290777
-0.540537 0.672662 0.314228
-0.538756 -0.025539 -0.318373
-0.559461 -0.207677 -0.084281
-0.538756 0.467633 0.013717
-0.559461 0.34658 0.295769
-0.538756 0.319164 0.224623
-0.559461 0.354269 -0.334078
-0.538756 0.140561 0.212659
-0.538756 -0.119957 0.24109
-0.559461 -0.407297 0.187834
-0.538756 0.228582 0.283955
-0.538756 0.162503 -0.216857
-0.538756 0.556268 0.023707
-0.559461 -0.037912 -0.105342
-0.538756 -0.547877 -0.361472
-0.538756 -0.526087 -0.177262
-0.538756 0.162175 0.078348
-0.559461 0.022242 -0.078157
-0.559461 -0.401324 -0.319402
-0.559461 -0.042617 0.222734
-0.538756 -0.360107 -0.240159
-0.559461 0.644449 -0.218614
-0.559461 0.086275 0.056042
-0.538756 -0.187161 0.124282
-0.559461 -0.388353 -0.142581
-0.559461 -0.505858 0.07055
-0.559461 -0.233365 -0.354635
-0.538756 0.44576 -0.067204
-0.559461 0.020385 0.058996
-0.559461 -0.221523 -0.144798
-0.538756 0.516634 -0.16536
-0.559461 -0.020474 0.142021
-0.538756 -0.281939 0.257605
-0.559461 -0.065114 -0.336045
-0.538756 0.251379 -0.359942
-0.538756 0.383069 0.098334
-0.559461 0.620061 0.059606
-0.559461 -0.445838 0.156415
-0.538756 0.129124 0.051601
-0.559461 -0.248028 0.160847
-0.559461 0.551191 -0.019834
-0.559461 -0.370739 0.267717
-0.559461 0.579256 -0.217382
-0.538756 0.093205 -0.097596
-0.538756 0.22609 -0.218591
-0.559461 0.390818 -0.361099
-0.550656 -0.049635 -0.392816
-0.559461 0.215364 -0.164005
-0.559461 -0.508167 -0.241149
-0.559461 0.526828 -0.057038
-0.538756 -0.081584 -0.201895
-0.559461 -0.493018 -0.107661
-0.538756 -0.076134 0.052564
-0.559461 0.319796 -0.093646
-0.559461 -0.365727 -0.075686
-0.538756 -0.260568 -0.022674
-0.538756 0.403968 0.27469
-0.559461 -0.422474 0.057335
-0.538756 0.474497 0.213571
-0.538756 -0.341223 -0.052155
-0.538756 -0.026828 -0.235877
-0.538756 0.592105 -0.140652
-0.538756 0.616998 0.275263
-0.538756 0.034525 -0.16455
-0.538756 -0.070766 0.147477
-0.538756 0.495326 0.280128
-0.538756 -0.076653 0.266704
-0.559461 -0.001761 0.216168
-0.538756 0.532177 0.143067
-0.538756 0.502464 0.028306
-0.559461 -0.245183 -0.080735
-0.559461 0.401577 -0.268814
-0.538756 -0.487106 -0.304679
-0.559461 0.009623 -0.204258
-0.559461 0.637684 -0.176459
-0.559461 -0.216342 0.321333
-0.559461 0.344592 0.172272
-0.559461 -0.148935 -0.153819
-0.538756 0.411801 0.158062
-0.538756 0.342691 -0.046744
-0.538756 -0.552948 -0.314644
-0.538756 0.306995 0.05151
-0.538756 -0.451711 -0.066073
-0.538756 -0.149278 -0.227389
-0.559461 -0.219179 0.126546
-0.538756 -0.512245 0.113777
-0.559461 -0.074638 -0.144752
-0.559461 -0.172971 0.274359
-0.559461 -0.028643 -0.043687
-0.538756 0.161798 -0.005816
-0.559461 0.59271 -0.034823
-0.559461 -0.364731 -0.31969
-0.538756 0.592081 -0.335517
-0.559461 0.281262 0.235485
-0.559461 -0.358785 0.051076
-0.559461 -0.002466 -0.261569
-0.538756 0.328696 -0.372801
-0.538756 0.051972 0.030155
-0.559461 -0.251116 0.109122
-0.559461 0.376524 0.153626
-0.559461 0.307036 0.309719
-0.538756 0.277649 -0.006641
-0.538756 -0.095303 -0.008351
-0.538756 -0.446748 -0.382206
-0.559461 -0.444607 -0.162714
-0.538756 -0.559686 -0.229671
-0.559461 0.316371 0.120712
-0.559461 -0.383689 -0.261063
-0.559461 0.171959 -0.154731
-0.559461 0.435394 -0.179991
-0.538756 0.558965 0.0826
-0.559461 0.06201 -0.05404
-0.559461 -0.141811 0.062003
-0.538756 0.563149 -0.090797
-0.538756 -0.227935 0.001403
-0.559461 0.050149 -0.235958
-0.538756 -0.484147 0.005407
-0.559461 0.438412 -0.095424
-0.559461 0.093432 0.25003
-0.538756 -0.204249 -0.355463
-0.559461 -0.280985 -0.257189
-0.538756 -0.293421 -0.086041
-0.538756 -0.280336 0.192089
-0.538756 -0.380332 0.109259
-0.538756 0.347777 0.251007
-0.559461 -0.220993 -0.316676
-0.538756 -0.536722 0.009527
-0.559461 -0.403947 -0.032629
-0.538756 -0.14173 0.157755
-0.559461 0.616807 -0.317819
-0.559461 -0.080004 -0.074361
-0.538756 0.194225 0.130032
-0.559461 -0.028296 -0.145695
-0.538756 0.057438 0.185777
-0.538756 0.105497 -0.191751
-0.559461 0.409073 -0.007933
-0.538756 0.640079 -0.147899
-0.559461 0.196064 -0.081947
-0.538756 0.574216 -0.386047
-0.538756 0.129244 -0.060531
-0.538756 0.511347 -0.089684
-0.538756 -0.481356 -0.047643
-0.538756 0.139675 0.272077
-0.538756 0.020544 0.315545
-0.559461 0.543541 -0.231178
-0.559461 -0.43199 -0.111878
-0.559461 -0.243166 0.058301
-0.538756 0.502907 -0.386844
-0.559461 -0.166609 -0.35789
-0.559461 -0.528055 -0.269523
-0.559461 -0.321761 -0.18191
-0.538756 0.465352 -0.031763
-0.538756 -0.431159 -0.198973
-0.559461 0.225387 0.250366
-0.538756 -0.448019 -0.30241
-0.538756 0.181021 -0.282523
-0.559461 0.283762 -0.343132
-0.538756 0.448383 -0.221306
-0.538756 0.036934 -0.201232
-0.559461 -0.049183 0.282226
-0.538756 -0.322936 -0.120108
-0.559461 0.102966 0.133867
-0.559461 0.03552 0.095269
-0.538756 0.26612 0.083552
-0.538756 -0.015565 -0.382407
-0.559461 0.39207 -0.103966
-0.559461 0.151039 0.30022
-0.538756 -0.102632 0.317559
-0.538756 0.326258 -0.130965
-0.538756 0.018709 0.124548
-0.559461 -0.202559 -0.26219
-0.547727 0.672662 0.172758
-0.559461 0.510808 0.061068
-0.559461 -0.308131 0.11435
-0.538756 0.654889 -0.273245
-0.559461 0.111899 0.207977
-0.559461 -0.039876 0.01912
-0.538756 0.374235 -0.31602
-0.538756 -0.27049 -0.361857
-0.559461 -0.064512 -0.254878
-0.559461 -0.125434 -0.357069
-0.538756 -0.414869 0.285564
-0.559461 0.092511 -0.014048
-0.538756 0.408864 -0.227541
-0.559461 0.528781 -0.338058
-0.538756 -0.026052 -0.200116
-0.559461 -0.469711 0.073558
-0.559461 -0.346812 0.243865
-0.538756 0.029348 -0.285136
-0.538756 -0.151058 0.213075
-0.538756 -0.23897 -0.212827
-0.538756 0.668725 -0.099915
-0.559461 0.255974 -0.291791
-0.559461 0.634735 -0.251931
-0.559461 0.064488 -0.111374
-0.559461 0.636438 0.020756
-0.538756 -0.312555 0.153117
-0.559461 0.088009 0.305087
-0.538756 0.186386 0.053805
-0.559461 0.57562 -0.115266
-0.559461 -0.510599 0.282236
-0.538756 -0.31256 -0.282956
-0.559461 0.192391 0.085296
-0.559461 0.22819 0.318777
-0.559461 -0.543662 -0.1165
-0.538756 0.645167 -0.358946
-0.538756 0.146248 0.107221
-0.559461 0.253715 -0.036912
-0.559461 -0.281462 0.033418
-0.559461 0.583185 0.070179
-0.538756 -0.55188 -0.024182
-0.559461 0.375047 -0.072586
-0.538756 -0.531275 0.069589
-0.559461 0.053698 -0.29243
-0.559461 -0.172544 -0.007997
-0.559461 0.495176 -0.179463
-0.538756 -0.476233 0.255217
-0.538756 0.168459 -0.334093
-0.559461 -0.314532 0.027609
-0.538756 0.390344 0.132792
-0.559461 -0.539164 0.232885
-0.538756 -0.384468 -0.177585
-0.559461 0.221248 -0.11762
-0.559461 -0.148587 0.013658
-0.559461 0.250464 0.27245
-0.559461 0.005241 -0.01211
-0.559461 0.124741 -0.124165
-0.538756 0.196802 -0.138
-0.538756 -0.010618 0.024672
-0.559461 0.455853 0.035347
-0.559461 0.633296 0.207171
-0.559461 0.574524 -0.302265
-0.538756 -0.246998 -0.249381
-0.538756 -0.321351 -0.02725
-0.559461 0.255441 -0.070902
-0.538756 -0.557026 -0.196271
-0.559461 -0.32789 0.276491
-0.538756 -0.347541 0.138685
-0.559461 0.140619 -0.234436
-0.538756 0.240698 -0.273203
-0.559461 0.532668 0.171361
-0.559461 0.639647 0.085998
-0.559461 -0.422305 0.243095
-0.559461 -0.309745 -0.34242
-0.559461 0.195475 -0.208587
-0.559461 -0.041261 0.058936
-0.559461 0.102963 -0.338767
-0.559461 -0.529685 -0.153476
-0.559461 -0.092952 0.035994
-0.559461 0.089024 -0.281603
-0.538756 0.592234 -0.059597
-0.559461 -0.351611 0.108272
-0.538756 -0.563028 0.168033
-0.538756 -0.150096 -0.303636
-0.559461 0.455035 0.194516
-0.559461 -0.193621 -0.126217
-0.559461 -0.467036 0.215828
-0.559461 -0.093162 -0.349538
-0.538756 0.131206 -0.311664
-0.559461 0.219721 -0.240915
-0.538756 0.170775 0.272217
-0.559461 0.644213 0.243975
-0.538756 0.505407 0.216673
-0.559461 -0.449423 0.097775
-0.559461 -0.140172 -0.20613
-0.538756 0.553212 -0.205111
-0.538756 -0.240375 0.226588
-0.538756 0.249929 0.308983
-0.559461 0.484378 -0.013862
-0.538756 -0.044961 0.164604
-0.559461 -0.192751 0.09317
-0.559461 -0.468948 -0.350415
-0.559461 0.631993 0.29255
-0.538756 0.466195 0.291091
-0.559461 -0.263633 0.286494
-0.538756 0.020882 -0.101401
-0.538756 -0.36436 0.321096
-0.559461 0.542725 0.10155
-0.559461 -0.432916 -0.364076
-0.559461 0.272183 -0.229867
-0.559461 -0.37574 0.139961
-0.559461 0.362034 -0.276323
-0.538756 0.12213 -0.381446
-0.559461 0.3233 -0.266268
-0.538756 0.628455 0.123691
-0.559461 0.638621 -0.380537
-0.538756 0.475898 -0.072467
-0.538756 0.464527 -0.267791
-0.538756 0.66135 0.003513
-0.538756 0.586963 -0.282969
-0.538756 0.545565 -0.041488
-0.559461 0.156086 -0.063443
-0.538756 -0.540476 0.208932
-0.559461 -0.075974 0.074807
-0.559461 0.477355 0.154467
-0.559461 0.163405 -0.19131
-0.538756 -0.063863 0.217025
-0.559461 -0.122416 0.145496
-0.538756 0.483442 0.242404
-0.559461 0.432793 -0.325158
-0.559461 0.074401 0.093856
-0.559461 -0.10879 0.099395
-0.559461 0.068895 -0.318348
-0.559461 0.394064 0.1947
-0.559461 0.336882 -0.149746
-0.559461 -0.358311 0.021306
-0.538756 0.529361 0.008978
-0.559461 0.41085 -0.061019
-0.538756 -0.424809 -0.320942
-0.559461 -0.091906 -0.223497
-0.538756 0.293356 0.174488
-0.538756 0.331314 0.084511
-0.559461 -0.073862 -0.375199
-0.538756 0.488138 -0.294712
-0.559461 0.189802 -0.365126
-0.538756 -0.52401 -0.057639
-0.538756 -0.147867 -0.122761
-0.559461 0.450347 0.111759
-0.538756 0.070847 -0.241249
-0.538756 0.618148 0.009459
-0.538756 -0.001836 -0.036438
-0.538756 -0.314153 0.216675
-0.559461 -0.202072 0.046625
-0.559461 -0.205578 -0.048403
-0.538756 0.338615 -0.002724
-0.559461 0.30199 -0.010383
-0.538756 -0.342233 -0.325825
-0.559461 0.357879 -0.22952
-0.538756 0.408148 -0.126681
-0.538756 0.326631 0.3033
-0.559461 -0.086817 0.134605
-0.538756 -0.160644 -0.261164
-0.538756 -0.269028 -0.304152
-0.538756 0.369416 -0.019207
-0.538756 0.249253 -0.013166
-0.538756 0.286576 -0.088869
-0.559461 0.410967 0.022752
-0.538756 -0.445901 0.28519
-0.538756 0.044894 0.273998
-0.559461 -0.433101 -0.025557
-0.559461 0.449935 -0.047257
-0.559461 -0.014666 0.080806
-0.538756 -0.188928 -0.247182
-0.538756 0.068425 0.319776
-0.559461 0.406765 0.106714
-0.538756 0.013482 -0.139699
-0.559461 0.602528 -0.007275
-0.559461 -0.172856 0.04599
-0.538756 -0.199655 -0.102626
-0.559461 -0.345675 -0.226355
-0.559461 0.534021 -0.150776
-0.538756 0.027633 -0.058947
-0.538756 -0.355689 -0.137394
-0.538756 0.566782 0.262432
-0.559461 0.174715 0.246789
-0.559461 0.25338 -0.391532
-0.538756 -0.108809 -0.293048
-0.538756 -0.40512 -0.114788
-0.559461 0.242867 -0.34206
-0.538756 -0.412363 0.096832
-0.559461 0.28048 0.02247
-0.538756 -0.527833 -0.239535
-0.538756 0.536073 0.208913
-0.538756 0.144763 -0.107294
-0.538756 -0.080824 -0.173348
-0.559461 0.272058 -0.180941
-0.559461 -0.477692 -0.323262
-0.559461 -0.364621 -0.164925
-0.559461 -0.414758 -0.18384
-0.538756 0.491636 0.132274
-0.558815 0.197942 -0.392816
-0.559461 0.606316 0.309214
-0.55837 0.672662 -0.215017
-0.538756 -0.464402 -0.241994
-0.559461 -0.152903 0.314948
-0.538756 0.221704 0.122863
-0.538756 0.485567 0.098561
-0.559461 -0.16536 -0.238278
-0.538756 -0.082192 -0.244531
-0.538756 -0.473274 -0.18343
-0.559461 -0.346171 -0.117003
-0.538756 0.334426 0.044856
-0.538756 0.196637 -0.333022
-0.559461 0.570379 -0.244144
-0.559461 0.193774 0.15485
-0.559461 -0.448245 0.045918
-0.559461 0.52203 -0.251878
-0.538756 -0.403447 -0.071619
-0.538756 -0.501564 -0.090618
-0.559461 -0.205149 -0.204725
-0.538756 0.220719 0.190438
-0.538756 -0.096185 -0.054172
-0.559461 -0.29268 0.17449
-0.538756 -0.062121 -0.080619
-0.538756 0.520322 -0.124184
-0.559461 -0.545642 0.045181
-0.559461 -0.106609 -0.127997
-0.538756 -0.251407 -0.049153
-0.538756 -0.118605 -0.384003
-0.559461 0.09558 -0.078989
-0.538756 -0.547427 0.252873
-0.538756 -0.154244 0.076972
-0.559461 0.525602 0.123445
-0.538756 0.441201 0.18218
-0.559461 0.135792 -0.292741
-0.559461 0.444367 -0.372873
-0.559461 0.645353 -0.06866
-0.559461 0.249209 -0.214352
-0.538756 0.435335 -0.121338
-0.538756 -0.521763 0.267523
-0.559461 -0.033292 -0.253033
-0.559461 -0.295464 0.274863
-0.559461 -0.28522 0.315855
-0.538756 0.364649 0.167564
-0.538756 0.587591 -0.237445
-0.559461 -0.421016 0.215504
-0.559461 -0.05488 -0.058981
-0.559461 0.180526 0.029993
-0.538756 -0.309663 -0.195544
-0.538756 -0.499515 0.053571
-0.559461 -0.489352 0.022754
-0.538756 0.28843 -0.392633
-0.538756 0.372068 -0.170444
-0.53993 -0.163137 -0.392816
-0.559461 0.538059 -0.298448
-0.559461 -0.395794 0.050788
-0.559461 0.305635 -0.158128
-0.538756 0.277605 -0.266829
-0.559461 -0.006216 0.046026
-0.538756 0.31107 -0.286163
-0.538756 -0.079703 0.293882
-0.559461 0.47803 0.071788
-0.538756 -0.344063 0.010635
-0.538756 -0.219792 0.279808
-0.559461 0.061156 -0.165502
-0.538756 -0.012755 0.290526
-0.559461 0.284619 0.126753
-0.538756 -0.348191 0.180203
-0.559461 0.071644 0.029406
-0.538756 -0.080534 -0.391529
-0.538756 0.054696 0.100992
-0.538756 -0.330725 0.250698
-0.538756 0.470645 -0.150986
-0.559461 -0.128729 -0.015349
-0.538756 0.215057 0.227181
-0.559461 -0.376458 0.294163
-0.559461 0.342876 0.029727
-0.538756 0.189797 0.189816
-0.538756 0.432066 0.211657
-0.559461 0.288782 0.280473
-0.559461 -0.535764 -0.01796
-0.538756 -0.498998 0.207945
-0.559461 0.338255 0.207235
-0.559461 0.04564 -0.337786
-0.538756 -0.075583 -0.295302
-0.538756 0.332877 -0.210711
-0.538756 0.336902 -0.094087
-0.559461 0.471334 -0.319781
-0.559461 -0.23098 0.183553
-0.538756 0.592569 0.037469
-0.559461 -0.374096 0.21435
-0.559461 -0.062549 -0.175777
-0.559461 -0.482453 -0.069232
-0.559461 0.24984 0.088768
-0.538756 0.443063 0.277832
-0.559461 0.006422 -0.30398
-0.538756 0.113475 -0.136537
-0.559461 -0.438837 -0.274554
-0.559461 0.502246 0.097387
-0.538756 0.421097 0.089793
-0.559461 -0.140757 -0.077029
-0.538756 -0.485458 0.078641
-0.559461 -0.480832 -0.243892
-0.559461 0.610973 0.238625
-0.559461 0.153615 0.064262
-0.538756 0.605495 0.206019
-0.559461 -0.166237 0.189457
-0.559461 -0.22717 -0.251372
-0.538756 0.560515 -0.282911
-0.559461 0.307011 -0.330545
-0.559461 -0.522404 -0.095179
-0.538756 0.584508 0.222534
-0.559461 -0.234156 0.083046
-0.538756 0.364732 0.278374
-0.538756 0.496275 -0.258899
-0.559461 0.614796 -0.04903
-0.538756 0.401434 -0.391674
-0.559461 0.441017 -0.235674
-0.559461 -0.28357 -0.31112
-0.559461 0.239323 0.179007
-0.559461 -0.394257 0.022375
-0.538756 0.509398 0.247947
-0.559461 0.286487 0.160071
-0.559461 0.376149 0.083966
-0.559461 -0.078794 -0.034809
-0.559461 0.631233 -0.282169
-0.538756 0.385819 0.301712
-0.559461 0.223425 0.040331
-0.559461 0.540512 0.025588
-0.559461 -0.489545 -0.034062
-0.559461 0.646588 -0.039417
-0.538756 -0.468195 -0.285953
-0.559461 0.017579 0.26177
-0.538756 0.224617 -0.176773
-0.559461 0.493616 0.041344
-0.559461 -0.540639 -0.183274
-0.538756 0.000872 0.188041
-0.538756 0.033689 0.223433
-0.559461 -0.290138 -0.223325
-0.538756 0.550508 0.122373
-0.538756 0.361224 -0.37483
-0.559461 -0.484853 0.125814
-0.538756 -0.099762 0.185604
-0.559461 0.241688 -0.13355
-0.538756 -0.441336 -0.230195
-0.541799 -0.326406 -0.392816
-0.559461 -0.465206 0.241662
-0.559461 -0.225457 -0.013949
-0.538756 0.386438 -0.21464
-0.559461 0.43464 0.012375
-0.559461 -0.345605 0.199354
-0.559461 -0.306321 -0.161228
-0.538756 -0.391931 0.188957
-0.559461 0.296094 -0.241677
-0.538756 0.178117 -0.379809
-0.559461 -0.383131 -0.351242
-0.559461 0.504889 -0.128496
-0.559461 -0.533533 -0.321089
-0.559461 -0.383835 -0.048598
-0.559461 -0.442048 0.004487
-0.559461 -0.103987 -0.274805
-0.559461 0.503728 -0.07658
-0.538756 0.634768 0.055296
-0.538756 -0.405137 -0.195523
-0.559461 0.286034 -0.047611
-0.538756 -0.166387 -0.073008
-0.559461 0.091032 -0.176605
-0.559461 -0.534976 0.312329
-0.559461 -0.275646 -0.02256
-0.559461 0.153828 -0.27456
-0.538756 0.500564 -0.039771
-0.538756 0.100772 -0.29102
-0.538756 -0.550579 -0.129821
-0.538756 -0.167254 0.159053
-0.538756 0.420793 -0.176671
-0.538756 0.289937 -0.143259
-0.538756 -0.288499 0.046595
-0.559461 -0.300304 -0.072787
-0.538756 -0.36133 0.240376
-0.538756 -0.310504 -0.250877
-0.538756 0.076232 -0.043833
-0.538756 -0.006776 -0.343851
-0.538756 -0.42953 0.044282
-0.538756 0.100485 0.051943
-0.559461 0.563885 0.278962
-0.538756 -0.128008 0.179137
-0.538756 0.409473 0.00812
-0.538756 -0.20892 0.170144
-0.538756 -0.087856 -0.138504
-0.559461 0.365572 -0.004957
-0.538756 -0.149241 -0.036516
-0.538756 -0.323231 -0.347776
-0.559461 -0.241168 0.316776
-0.538756 0.498163 -0.009584
-0.559461 0.253556 0.233348
-0.538756 -0.222037 -0.083253
-0.538756 -0.176385 0.089032
-0.538756 -0.488929 0.231965
-0.538756 0.169144 0.132062
-0.559461 0.124257 -0.367388
-0.559461 0.66164 0.301937
-0.559461 -0.109316 0.055043
-0.559461 -0.49796 0.249817
-0.559461 0.337418 -0.033591
-0.559461 -0.490883 -0.215359
-0.559461 0.328989 -0.17968
-0.538756 0.500802 -0.228817
-0.538756 -0.398666 -0.003616
-0.559461 -0.113251 -0.334627
-0.538756 0.474802 -0.212276
-0.559461 0.429054 -0.300431
-0.559461 -0.109666 -0.062473
-0.538756 -0.135759 -0.347603
-0.538756 0.199325 -0.014169
-0.538756 -0.558452 0.275256
-0.559461 0.584978 0.296299
-0.538756 0.099935 0.262276
-0.538756 0.346465 -0.354822
-0.559461 0.306133 0.220195
-0.538756 -0.318206 -0.084172
-0.559461 0.394682 -0.170804
-0.538756 -0.014657 -0.147278
-0.538756 0.602435 -0.263567
-0.559461 0.253305 -0.099515
-0.538756 -0.186019 -0.299063
-0.559461 -0.559996 -0.250223
-0.559461 -0.397232 -0.240357
-0.538756 0.63219 0.15997
-0.538756 -0.215758 -0.163499
-0.538756 0.228509 -0.130977
-0.559461 -0.138 0.287885
-0.538756 0.300135 -0.18248
-0.538756 0.567718 -0.362264
-0.559461 0.39538 0.057739
-0.559461 0.052609 0.060517
-0.538756 0.561346 0.047811
-0.538756 -0.412385 -0.042959
-0.538756 0.031483 -0.01951
-0.538756 0.068641 -0.145439
-0.538756 -0.170368 0.247022
-0.559461 0.011048 0.145033
-0.538756 0.266895 -0.038103
-0.559461 0.463286 0.001222
-0.538756 0.372345 0.250997
-0.559461 0.668803 -0.178394
-0.559461 0.610705 0.263719
-0.559461 0.15262 0.039562
-0.559461 -0.205976 0.184203
-0.559461 0.420581 -0.221909
-0.559461 -0.370385 -0.232214
-0.559461 0.514289 -0.19469
-0.538756 -0.202837 0.319633
-0.538756 -0.278267 -0.199922
-0.128402 -0.157319 -0.346229
0.123109 0.254757 -0.361758
0.275103 -0.361686 -0.346229
-0.173508 -0.492086 -0.361758
-0.474561 -0.094097 -0.346229
0.208779 -0.051234 -0.361758
0.117896 0.570841 -0.361758
-0.254056 0.070527 -0.361758
0.356644 0.160079 -0.361758
-0.07028 0.416287 -0.361758
-0.390144 0.375944 -0.346229
0.317834 0.374858 -0.361758
0.391988 -0.162968 -0.346229
0.067924 -0.238813 -0.361758
-0.304199 -0.237631 -0.361758
-0.104748 0.194177 -0.361758
0.025923 -0.013229 -0.361758
-0.237109 0.483217 -0.361758
-0.070035 -0.352587 -0.361758
-0.386649 0.198084 -0.361758
0.299324 0.544914 -0.346229
-0.399614 -0.378667 -0.346229
0.203262 0.10788 -0.361758
0.38991 -0.002049 -0.361758
-0.316743 -0.072885 -0.361758
0.241105 -0.203124 -0.346229
0.386739 -0.480727 -0.361758
-0.415987 0.046869 -0.361758
0.462661 -0.354991 -0.361758
-0.127612 -0.003969 -0.361758
0.091687 0.427174 -0.361758
0.05267 0.130093 -0.346229
-0.262002 0.282033 -0.361758
0.126585 -0.368444 -0.361758
-0.24239 -0.373878 -0.361758
0.420761 0.463552 -0.346229
-0.448658 -0.237706 -0.361758
0.427129 0.301221 -0.361758
0.001344 0.304792 -0.361758
0.258644 0.245921 -0.361758
-0.41892 0.500254 -0.361758
0.195431 0.357507 -0.361758
-0.004683 -0.139995 -0.346229
-0.167845 -0.273809 -0.346229
-0.137156 0.30834 -0.346229
-0.491796 -0.522692 -0.361758
0.107636 -0.117901 -0.361758
0.340156 -0.267613 -0.346229
0.194592 0.472609 -0.361758
-0.491376 0.136205 -0.346229
-0.219845 0.178581 -0.361758
-0.131663 0.523096 -0.361758
0.019647 -0.420792 -0.361758
-0.465364 0.296251 -0.361758
0.289158 0.039102 -0.346229
0.311909 -0.089519 -0.361758
-0.281692 -0.475099 -0.361758
0.1249 0.034781 -0.346229
-0.049728 -0.247989 -0.346229
-0.063029 0.07789 -0.346229
-0.235227 -0.139612 -0.361758
-0.277595 0.383559 -0.346229
-0.224043 -0.03516 -0.346229
0.172475 -0.27996 -0.346229
-0.486497 0.405833 -0.361758
-0.27878 0.573227 -0.361758
-0.167553 0.409919 -0.346229
-0.159435 0.098025 -0.346229
0.020936 -0.323411 -0.346229
0.435158 -0.246539 -0.361758
0.007836 0.464864 -0.346229
-0.359283 -0.162787 -0.361758
0.213335 0.577025 -0.346229
0.439809 0.072666 -0.346229
0.379741 -0.388313 -0.346229
-0.331689 0.482067 -0.346229
0.3383 0.285062 -0.346229
-0.085356 -0.442628 -0.346229
-0.466362 -0.436343 -0.361758
-0.403391 -0.042407 -0.361758
-0.307864 0.140008 -0.346229
0.01602 0.21867 -0.346229
-0.329212 -0.320025 -0.346229
0.091465 0.334824 -0.346229
0.212805 -0.42704 -0.346229
0.034 0.593992 -0.346229
0.429056 -0.085945 -0.361758
0.442027 0.175079 -0.361758
0.295853 0.458283 -0.361758
-0.344947 0.303162 -0.361758
0.457677 0.379239 -0.346229
-0.099308 0.600111 -0.346229
0.304111 -0.453129 -0.346229
0.381332 0.562425 -0.346229
-0.332563 0.048101 -0.346229
-0.369067 -0.454351 -0.361758
-0.073222 -0.093354 -0.346229
0.194458 -0.132704 -0.361758
0.277768 0.143667 -0.346229
-0.149545 -0.36273 -0.346229
-0.482283 0.002544 -0.361758
0.479183 -0.015235 -0.361758
0.117418 0.173265 -0.361758
-0.171586 -0.092915 -0.361758
-0.033605 0.151015 -0.346229
-0.384228 0.118541 -0.361758
0.200335 0.185985 -0.361758
-0.218645 -0.214359 -0.346229
-0.310877 0.221127 -0.361758
0.314199 -0.168362 -0.346229
-0.483369 -0.33465 -0.346229
-0.462779 0.208489 -0.346229
0.164069 -0.201938 -0.346229
0.015193 0.389787 -0.361758
-0.427845 0.576614 -0.361758
0.119613 -0.443402 -0.346229
-0.055053 0.251961 -0.361758
0.216601 0.024417 -0.361758
-0.053775 -0.021929 -0.361758
-0.174299 0.238764 -0.361758
0.131715 -0.048381 -0.346229
-0.494247 0.503801 -0.361758
-0.401937 -0.302139 -0.346229
0.356968 0.070412 -0.346229
0.395875 -0.31461 -0.361758
-0.490721 -0.178572 -0.346229
-0.065362 0.494556 -0.346229
-0.206768 0.576098 -0.346229
0.199506 -0.354801 -0.346229
0.474715 -0.437525 -0.346229
0.262179 -0.2895 -0.346229
0.071348 0.498001 -0.361758
-0.3495 0.550834 -0.361758
-0.316609 -0.404135 -0.361758
0.015395 0.068191 -0.346229
0.25738 0.32546 -0.346229
0.461074 -0.153653 -0.361758
-0.238522 -0.304277 -0.346229
0.383993 0.40159 -0.361758
-0.201455 0.339163 -0.346229
0.482547 0.497775 -0.346229
0.193215 0.287324 -0.361758
-0.373267 -0.238131 -0.346229
0.354718 0.497539 -0.346229
-0.401578 0.265168 -0.346229
0.4684 0.239816 -0.361758
-0.428847 -0.144332 -0.361758
0.049813 -0.079419 -0.361758
0.325786 -0.023648 -0.346229
-0.048913 0.353669 -0.346229
0.253395 0.394499 -0.361758
-0.499748 0.06985 -0.346229
0.395683 0.220312 -0.346229
0.31376 0.208511 -0.346229
-0.190338 -0.414587 -0.361758
0.011927 0.532202 -0.346229
0.158573 0.409042 -0.346229
-0.11588 0.369752 -0.346229
0.140299 0.109936 -0.346229
0.16268 0.526872 -0.346229
-0.426302 0.437989 -0.346229
-0.102404 -0.281669 -0.361758
-0.034395 0.604472 -0.346229
-0.18727 0.01931 -0.361758
0.243283 0.513813 -0.361758
0.371081 0.339337 -0.361758
0.057096 -0.15612 -0.361758
0.515099 0.121224 -0.361758
0.486648 0.432913 -0.361758
-0.104323 -0.215405 -0.346229
-0.509219 -0.242749 -0.346229
-0.342454 0.420489 -0.346229
0.505634 0.337817 -0.361758
0.017097 -0.206853 -0.346229
-0.17486 0.479162 -0.361758
0.266619 -0.016737 -0.361758
0.494788 -0.264878 -0.361758
0.155443 -0.504671 -0.346229
0.418868 -0.530573 -0.346229
0.065234 0.03365 -0.361758
-0.311728 -0.013971 -0.346229
0.058056 -0.46766 -0.346229
-0.508937 0.346625 -0.361758
-0.534287 -0.384786 -0.346229
-0.349306 -0.50923 -0.346229
0.379935 -0.22233 -0.361758
0.275439 -0.511648 -0.361758
0.340507 -0.346113 -0.361758
0.076254 -0.308256 -0.361758
-0.025878 -0.472374 -0.346229
-0.271272 -0.187396 -0.346229
0.10546 -0.195484 -0.346229
-0.259357 0.009279 -0.361758
-0.017398 -0.075243 -0.346229
-0.321991 0.609457 -0.346229
0.273399 0.609582 -0.346229
-0.386577 -0.104201 -0.361758
-0.330735 0.365875 -0.361758
-0.377079 0.006389 -0.346229
0.136472 0.475658 -0.346229
-0.312957 -0.132784 -0.346229
0.370369 -0.055918 -0.361758
-0.499404 0.250554 -0.361758
0.393925 0.110762 -0.361758
0.069872 0.201294 -0.346229
-0.081025 0.301357 -0.346229
-0.166341 0.616266 -0.346229
-0.13894 0.149381 -0.361758
-0.225135 -0.475933 -0.346229
0.053774 0.291572 -0.346229
0.423383 0.528769 -0.361758
0.14846 0.327033 -0.361758
0.045962 -0.371425 -0.361758
0.175927 0.233849 -0.346229
-0.429465 0.151292 -0.361758
-0.436589 0.344009 -0.361758
0.169915 -0.007793 -0.346229
0.476434 -0.204756 -0.346229
0.24597 -0.111878 -0.361758
-0.517122 -0.132252 -0.361758
0.457402 0.61131 -0.361758
-0.045213 -0.195158 -0.361758
-0.26195 -0.526614 -0.361758
-0.046662 -0.407036 -0.361758
-0.255082 -0.42979 -0.346229
-0.191627 -0.327946 -0.361758
0.174099 0.064447 -0.346229
0.49938 -0.11809 -0.346229
-0.411373 -0.198169 -0.361758
-0.453786 -0.382485 -0.346229
-0.225325 0.116434 -0.361758
0.355421 -0.123408 -0.346229
-0.243009 0.534297 -0.346229
-0.515172 0.199267 -0.361758
-0.084547 0.027614 -0.361758
0.282618 -0.242711 -0.361758
0.253065 -0.45839 -0.361758
-0.105742 0.246392 -0.346229
-0.177518 -0.170614 -0.361758
0.495737 0.05102 -0.361758
-0.038483 -0.299759 -0.346229
0.337135 0.429039 -0.346229
0.510044 0.178469 -0.346229
-0.028234 0.04148 -0.361758
0.486838 0.291512 -0.346229
-0.141091 0.044108 -0.346229
0.087187 -0.405497 -0.361758
-0.453107 -0.03898 -0.346229
0.455081 -0.488687 -0.346229
0.431497 -0.393855 -0.346229
-0.292293 -0.360907 -0.346229
0.498754 0.568376 -0.346229
-0.099931 -0.045083 -0.346229
-0.41405 -0.428909 -0.361758
0.515293 -0.488547 -0.346229
0.369789 -0.530634 -0.361758
-0.485561 0.590051 -0.346229
-0.017171 -0.365125 -0.361758
-0.297758 0.323096 -0.361758
0.174378 -0.085812 -0.346229
-0.356608 0.159741 -0.346229
-0.126599 0.472935 -0.346229
-0.065189 0.562256 -0.346229
-0.491764 0.45535 -0.346229
-0.357898 0.238976 -0.346229
-0.168783 -0.033932 -0.361758
-0.2897 0.510648 -0.346229
0.024695 0.16941 -0.361758
-0.272618 0.176377 -0.346229
-0.44983 -0.299718 -0.361758
-0.27925 0.433927 -0.346229
-0.25725 -0.25545 -0.361758
0.03793 0.34782 -0.346229
0.107525 -0.272311 -0.346229
-0.49522 -0.473983 -0.346229
0.215458 0.42237 -0.346229
0.015767 -0.274233 -0.346229
0.078842 0.078544 -0.346229
0.082496 -0.009684 -0.346229
-0.137997 -0.461897 -0.346229
-0.356946 -0.045691 -0.346229
-0.11089 0.09192 -0.346229
0.319377 -0.409349 -0.361758
-0.095319 -0.397397 -0.361758
0.216208 -0.245108 -0.346229
-0.021406 0.421932 -0.361758
-0.381726 0.608573 -0.346229
-0.168646 0.18787 -0.361758
0.427011 -0.192836 -0.361758
0.454462 -0.291888 -0.361758
-0.290049 -0.295972 -0.361758
-0.157966 0.56057 -0.346229
0.260074 0.197599 -0.361758
-0.231945 -0.080223 -0.361758
-0.44948 0.107343 -0.361758
-0.078989 0.146529 -0.361758
0.327266 -0.514347 -0.346229
-0.250184 0.215959 -0.361758
0.33011 0.12004 -0.361758
0.181041 -0.467189 -0.361758
0.115573 0.516502 -0.361758
-0.519462 -0.082779 -0.361758
-0.277059 -0.046867 -0.346229
-0.214725 0.258399 -0.346229
0.452717 0.021027 -0.346229
-0.150906 -0.207187 -0.346229
0.13786 0.610764 -0.346229
0.350536 0.026242 -0.361758
-0.33513 -0.205704 -0.346229
0.21651 -0.300599 -0.346229
-0.392546 -0.494958 -0.361758
0.271824 -0.415547 -0.361758
0.123734 0.378247 -0.346229
-0.398621 0.308877 -0.361758
0.30171 0.256419 -0.346229
-0.21376 0.406368 -0.346229
0.16115 0.158043 -0.361758
0.387648 -0.434452 -0.361758
0.231789 0.068133 -0.361758
0.431625 0.13265 -0.346229
-0.288239 0.097404 -0.346229
0.266486 -0.167944 -0.361758
-0.184759 -0.53394 -0.346229
-0.366782 0.074558 -0.361758
-0.061289 0.187673 -0.346229
-0.320455 0.265558 -0.346229
0.426434 -0.025134 -0.346229
-0.265277 0.620899 -0.347094
0.503364 0.383477 -0.346229
-0.365225 -0.343762 -0.361758
0.001499 0.111778 -0.346229
-0.53665 0.128871 -0.346229
-0.100299 -0.500516 -0.346229
0.310549 0.081808 -0.346229
0.080378 0.37621 -0.361758
0.291172 0.297927 -0.361758
-0.378084 0.487769 -0.346229
0.37987 0.451794 -0.361758
0.446446 0.570271 -0.346229
-0.445473 -0.476432 -0.361758
0.061243 0.539182 -0.346229
-0.446616 0.614553 -0.346229
-0.519878 0.551307 -0.361758
-0.197723 0.532182 -0.346229
0.202347 -0.17393 -0.346229
0.087153 -0.060463 -0.346229
-0.315723 -0.450879 -0.346229
-0.305815 -0.518922 -0.346229
0.228703 0.155537 -0.346229
0.307312 -0.321031 -0.346229
-0.437138 0.243741 -0.361758
0.078868 0.256223 -0.361758
-0.381959 0.443687 -0.346229
-0.495881 -0.400284 -0.361758
0.237689 -0.385134 -0.346229
0.464564 0.107694 -0.361758
0.378984 0.291622 -0.361758
0.151685 -0.122608 -0.361758
0.254375 0.442771 -0.346229
0.328455 0.335376 -0.346229
-0.370628 -0.407404 -0.361758
0.513709 0.467223 -0.346229
-0.457129 0.520664 -0.346229
0.147578 -0.409988 -0.346229
0.098558 -0.478213 -0.361758
0.00641 0.260982 -0.346229
0.335371 -0.22742 -0.361758
-0.364555 -0.286935 -0.361758
-0.513867 0.303729 -0.361758
-0.04267 0.528941 -0.361758
-0.466429 0.047452 -0.361758
0.412586 -0.1224 -0.346229
0.095464 0.128581 -0.346229
-0.101951 -0.120928 -0.361758
-0.426594 -0.078252 -0.361758
-0.271936 -0.121225 -0.346229
-0.52911 0.410008 -0.346229
0.123069 -0.235952 -0.361758
-0.041185 0.292086 -0.361758
-0.092727 -0.319839 -0.346229
0.21464 0.25101 -0.361758
-0.181324 0.37278 -0.361758
0.415753 0.376969 -0.346229
-0.212326 0.075069 -0.361758
0.232063 0.288561 -0.346229
-0.226992 0.309882 -0.361758
0.243221 -0.332728 -0.346229
-0.455352 0.468584 -0.361758
0.411851 0.255439 -0.361758
-0.139098 -0.248009 -0.361758
0.456723 -0.054855 -0.361758
-0.082466 -0.176713 -0.361758
-0.116075 0.435847 -0.361758
-0.53192 0.465265 -0.346229
-0.337426 -0.371945 -0.346229
0.134651 0.291303 -0.346229
-0.141199 -0.531946 -0.361758
-0.417122 -0.003295 -0.346229
0.515404 -0.191222 -0.361758
-0.454014 -0.200031 -0.346229
0.511806 0.01655 -0.346229
-0.03026 -0.111869 -0.361758
-0.196136 -0.244985 -0.361758
0.422244 0.425619 -0.361758
0.144231 0.207883 -0.346229
-0.291071 0.035222 -0.361758
-0.120273 0.564652 -0.361758
-0.52156 0.014073 -0.361758
0.131797 -0.305203 -0.346229
0.399887 -0.352099 -0.346229
-0.016065 -0.432615 -0.346229
-0.473041 0.334901 -0.346229
0.043392 0.452749 -0.361758
-0.008865 0.501149 -0.361758
-0.171585 -0.133724 -0.346229
0.166962 -0.373074 -0.361758
-0.475038 -0.141327 -0.346229
-0.199985 0.447562 -0.361758
-0.172746 0.279098 -0.361758
0.082776 -0.365716 -0.346229
-0.190344 -0.45549 -0.346229
0.287037 0.494429 -0.346229
0.246278 -0.065872 -0.361758
-0.451753 0.392797 -0.346229
0.177524 -0.325004 -0.361758
0.026734 -0.115129 -0.346229
0.436833 0.346643 -0.361758
0.34404 -0.455462 -0.346229
0.296864 -0.123164 -0.346229
-0.427329 0.198475 -0.361758
-0.235267 -0.180075 -0.361758
0.383015 -0.276892 -0.361758
0.160274 0.565676 -0.361758
-0.193678 -0.060842 -0.346229
0.395922 0.15404 -0.361758
0.338758 0.601925 -0.361758
0.24586 0.554297 -0.346229
-0.173916 0.06007 -0.361758
-0.091264 -0.535868 -0.361758
-0.144898 0.215501 -0.346229
0.130057 -0.001177 -0.361758
0.471353 -0.524679 -0.346229
-0.112861 -0.079002 -0.361758
-0.14942 -0.32331 -0.346229
0.357945 0.231356 -0.346229
-0.510913 -0.282012 -0.346229
-0.424573 -0.269622 -0.361758
0.335308 0.546861 -0.361758
0.468219 -0.092363 -0.361758
-0.447974 -0.340379 -0.361758
-0.361029 0.335132 -0.346229
-0.116961 -0.348033 -0.361758
-0.032683 0.096612 -0.361758
0.107628 -0.335864 -0.346229
0.395024 0.033123 -0.346229
0.080548 0.572756 -0.346229
-0.417127 0.400027 -0.361758
0.139179 -0.082973 -0.361758
0.199547 -0.209101 -0.361758
-0.083958 0.524538 -0.361758
-0.187881 -0.365161 -0.346229
-0.490837 -0.031869 -0.346229
-0.387069 0.533048 -0.361758
-0.019768 -0.02974 -0.346229
-0.252304 0.143438 -0.361758
-0.01968 -0.270422 -0.361758
0.235923 0.620899 -0.353696
-0.403129 0.079206 -0.346229
0.034745 -0.046867 -0.346229
0.464856 0.464009 -0.361758
0.472746 -0.391585 -0.361758
0.471983 0.541477 -0.346229
0.488584 -0.332108 -0.346229
0.337947 -0.305105 -0.361758
0.299021 -0.273054 -0.346229
0.502406 -0.15579 -0.361758
0.372638 0.529165 -0.361758
0.30462 -0.212286 -0.346229
0.000182 0.613765 -0.361758
0.43886 -0.448811 -0.346229
0.100718 0.474545 -0.361758
0.350584 -0.177758 -0.346229
0.377441 0.19136 -0.361758
0.139675 0.44163 -0.361758
-0.530016 -0.493658 -0.346229
-0.242259 0.587985 -0.346229
0.015632 0.019154 -0.346229
0.094952 0.297649 -0.346229
0.288875 0.421644 -0.361758
0.299859 -0.054307 -0.361758
0.227233 -0.007661 -0.346229
0.282179 0.110197 -0.361758
0.058861 -0.53754 -0.361758
0.221276 0.379154 -0.346229
0.199707 0.525455 -0.346229
-0.07718 0.371908 -0.361758
0.464426 0.145647 -0.361758
0.259079 0.017638 -0.346229
0.29499 0.337288 -0.361758
0.454978 0.277022 -0.361758
0.14264 0.07657 -0.361758
0.26859 0.065947 -0.361758
-0.483135 -0.216458 -0.361758
-0.324729 0.521956 -0.346229
-0.360597 0.391392 -0.361758
-0.503519 -0.441701 -0.361758
0.082895 -0.438335 -0.346229
-0.024798 0.18658 -0.346229
-0.012462 0.35196 -0.346229
-0.254735 0.411818 -0.361758
0.392901 -0.090497 -0.361758
0.176083 0.031578 -0.361758
-0.435898 0.310891 -0.346229
-0.461263 0.172144 -0.346229
0.45337 -0.121694 -0.346229
0.147086 -0.467189 -0.346229
-0.137771 -0.115092 -0.361758
-0.11734 -0.425599 -0.346229
0.028273 0.490434 -0.361758
-0.527265 0.097604 -0.361758
0.107157 -0.531191 -0.361758
-0.013236 0.558381 -0.361758
-0.021585 0.238723 -0.361758
-0.40609 -0.528229 -0.361758
-0.138867 -0.054244 -0.361758
-0.111885 0.278139 -0.361758
-0.526643 0.500709 -0.346229
-0.270204 -0.390266 -0.346229
-0.290329 -0.423466 -0.346229
0.406129 -0.056485 -0.361758
-0.279609 0.469627 -0.346229
-0.169514 0.516805 -0.361758
0.186351 -0.398689 -0.346229
-0.231222 -0.517493 -0.346229
-0.444586 0.019313 -0.346229
0.323775 0.04964 -0.361758
-0.098657 0.401565 -0.346229
-0.329093 -0.284933 -0.361758
-0.394755 0.158434 -0.361758
-0.152318 0.359839 -0.346229
0.2438 0.123611 -0.346229
0.409197 0.061495 -0.361758
-0.219861 -0.271087 -0.361758
-0.394716 0.234341 -0.361758
0.311293 -0.358071 -0.346229
0.350732 -0.092199 -0.361758
-0.314954 0.575059 -0.346229
0.370117 -0.332678 -0.346229
0.339302 -0.38503 -0.346229
0.409208 0.182502 -0.346229
0.074972 0.608885 -0.346229
-0.024168 -0.169053 -0.346229
0.277681 0.578531 -0.361758
-0.170224 0.149389 -0.346229
0.075989 -0.131231 -0.346229
0.480702 0.080993 -0.346229
0.299935 0.176532 -0.346229
0.502327 -0.423077 -0.361758
-0.209723 0.211876 -0.361758
-0.227863 -0.401388 -0.346229
-0.355281 -0.089066 -0.361758
-0.054313 -0.156381 -0.361758
-0.359556 0.273639 -0.346229
-0.42534 -0.499977 -0.346229
0.223094 0.460519 -0.346229
-0.398724 -0.464624 -0.346229
-0.026071 0.471099 -0.361758
0.465938 -0.244351 -0.346229
-0.504707 -0.367011 -0.346229
0.497332 -0.082255 -0.346229
0.226004 0.339757 -0.346229
0.328838 -0.48205 -0.361758
-0.174224 0.325271 -0.361758
-0.131203 -0.291894 -0.346229
-0.226119 -0.348064 -0.346229
-0.343566 -0.477164 -0.361758
0.046473 -0.289285 -0.346229
-0.341555 -0.007986 -0.361758
-0.220248 -0.005042 -0.361758
0.309089 0.608236 -0.346229
0.05753 -0.411739 -0.346229
-0.071272 0.226383 -0.346229
0.161045 -0.251916 -0.361758
-0.355494 0.593488 -0.361758
-0.501558 0.379849 -0.346229
-0.251683 0.102044 -0.346229
0.109588 -0.165743 -0.361758
0.231149 0.225952 -0.346229
0.428214 0.229365 -0.346229
0.325235 0.502887 -0.361758
0.044642 0.263104 -0.361758
-0.134691 0.407779 -0.361758
0.336739 -0.054864 -0.361758
0.441204 0.500351 -0.361758
0.278465 -0.328075 -0.361758
-0.407076 0.468945 -0.361758
0.05459 -0.499754 -0.361758
0.182878 0.607393 -0.361758
0.005648 -0.242428 -0.346229
0.497749 0.149694 -0.361758
0.464505 0.31075 -0.361758
0.271175 0.366379 -0.361758
0.340707 0.255151 -0.361758
0.035649 0.415954 -0.361758
-0.027225 0.381699 -0.346229
0.098687 0.021594 -0.361758
0.514805 0.258202 -0.346229
-0.51985 -0.175143 -0.361758
-0.436754 -0.105754 -0.346229
-0.319311 0.396749 -0.346229
0.36158 0.103643 -0.361758
0.286752 0.219734 -0.361758
-0.373289 0.56782 -0.346229
0.064871 0.41539 -0.346229
-0.040679 0.321723 -0.346229
0.009953 -0.085134 -0.361758
-0.29648 0.282008 -0.361758
-0.482781 -0.298851 -0.361758
0.406285 0.500616 -0.361758
0.010939 -0.357839 -0.346229
-0.208252 0.486366 -0.346229
-0.073649 -0.277736 -0.346229
-0.46715 0.257244 -0.361758
0.429544 0.593714 -0.361758
0.273511 -0.100124 -0.346229
0.089221 0.167603 -0.346229
0.223154 -0.47153 -0.361758
-0.107348 0.151182 -0.346229
0.369841 0.134578 -0.346229
0.299898 -0.003779 -0.346229
0.093783 0.540457 -0.346229
0.185085 0.419708 -0.361758
0.483801 0.60037 -0.346229
-0.486748 0.54161 -0.346229
0.420715 -0.220637 -0.346229
-0.122876 -0.381165 -0.346229
0.19778 -0.013423 -0.361758
0.351414 0.467216 -0.361758
0.342797 0.397246 -0.346229
-0.072881 -0.208038 -0.346229
0.426 -0.273323 -0.346229
-0.314212 -0.490503 -0.361758
-0.11265 -0.187921 -0.361758
-0.483377 0.105094 -0.346229
-0.187262 -0.207804 -0.346229
0.041644 -0.255349 -0.346229
-0.002223 -0.307641 -0.361758
-0.13953 0.072082 -0.361758
-0.184598 0.110289 -0.361758
0.01346 -0.161284 -0.361758
-0.524294 0.05648 -0.361758
-0.304498 -0.163607 -0.346229
0.067568 -0.040587 -0.361758
0.179484 0.380401 -0.346229
-0.254123 -0.491193 -0.361758
0.509941 0.210372 -0.346229
-0.34466 -0.129253 -0.346229
0.172504 -0.175382 -0.361758
-0.409224 0.338877 -0.346229
-0.125546 0.333641 -0.361758
0.192592 -0.498887 -0.346229
0.061972 0.156306 -0.361758
-0.523997 -0.306812 -0.361758
-0.004761 -0.38989 -0.346229
-0.096212 0.482092 -0.346229
0.131811 -0.490279 -0.361758
-0.230555 0.049153 -0.361758
-0.316476 0.302861 -0.346229
0.181363 -0.439731 -0.346229
-0.329005 -0.257492 -0.346229
-0.387401 0.051879 -0.346229
0.260972 0.469378 -0.361758
-0.341933 -0.433436 -0.346229
-0.414094 0.10865 -0.361758
-0.088695 -0.475809 -0.361758
-0.434804 -0.175159 -0.361758
0.177741 -0.525984 -0.361758
-0.051029 -0.077522 -0.361758
-0.50086 -0.05719 -0.361758
-0.095154 0.052674 -0.346229
0.076295 -0.274814 -0.346229
-0.075871 -0.128688 -0.346229
0.248729 -0.485239 -0.346229
-0.241321 -0.45409 -0.361758
-0.13758 0.184122 -0.361758
-0.375072 -0.532094 -0.361758
0.163449 0.470184 -0.361758
-0.359603 0.199644 -0.346229
-0.075257 0.269963 -0.346229
-0.221481 0.517482 -0.361758
0.045865 0.322036 -0.361758
-0.045137 0.015357 -0.361758
-0.402669 -0.161059 -0.361758
0.255086 0.160481 -0.361758
-0.309082 -0.098611 -0.346229
0.21798 -0.098583 -0.361758
-0.365523 -0.199827 -0.346229
-0.322087 0.11257 -0.346229
-0.266208 -0.283925 -0.346229
-0.24432 0.387223 -0.346229
0.257988 -0.252974 -0.346229
-0.291019 0.596904 -0.346229
0.174399 0.091085 -0.361758
0.238826 -0.421363 -0.361758
-0.322067 0.457255 -0.361758
-0.392633 -0.256354 -0.361758
0.167309 0.308304 -0.346229
0.372735 0.620899 -0.350216
0.153857 0.254154 -0.361758
-0.163078 -0.003774 -0.361758
-0.078634 -0.060778 -0.361758
0.327709 -0.14084 -0.346229
0.302882 -0.383509 -0.361758
-0.146085 -0.079645 -0.346229
0.232574 0.181643 -0.361758
0.119796 0.313072 -0.361758
0.426746 0.025494 -0.361758
-0.045306 -0.536684 -0.346229
-0.391398 -0.074056 -0.361758
0.225905 0.490908 -0.346229
0.120812 0.147221 -0.346229
0.327351 0.00953 -0.346229
-0.396185 -0.225311 -0.361758
-0.468248 -0.534705 -0.346229
-0.424167 -0.316057 -0.361758
-0.114675 0.117803 -0.361758
0.400377 -0.457289 -0.346229
-0.475782 0.375557 -0.361758
0.250794 0.046925 -0.346229
-0.457809 -0.009036 -0.346229
-0.352713 0.510313 -0.346229
0.002166 -0.451074 -0.361758
0.492869 -0.374542 -0.346229
0.112316 0.057395 -0.361758
-0.493066 -0.262949 -0.361758
0.316741 0.473452 -0.346229
0.365793 0.583004 -0.361758
0.406915 0.559225 -0.361758
-0.208136 0.376865 -0.346229
-0.016131 -0.202551 -0.361758
0.25075 0.591642 -0.361758
0.044965 -0.219608 -0.361758
0.173282 0.198792 -0.361758
-0.206112 -0.512578 -0.361758
0.180604 0.581194 -0.346229
0.234127 0.314869 -0.361758
0.273444 0.541495 -0.361758
0.356351 -0.428236 -0.346229
-0.309641 -0.20706 -0.361758
-0.329248 -0.157461 -0.361758
0.133101 0.409647 -0.361758
-0.492562 0.030537 -0.361758
0.22442 -0.35999 -0.361758
-0.444954 -0.406338 -0.361758
0.445813 -0.008674 -0.361758
0.424342 -0.305869 -0.361758
0.000381 -0.528269 -0.346229
0.506468 0.518784 -0.361758
-0.229004 0.350311 -0.346229
-0.142429 0.124294 -0.346229
0.08781 -0.085748 -0.361758
0.288278 -0.188078 -0.361758
-0.445729 0.548053 -0.346229
0.102897 0.239783 -0.346229
-0.308486 -0.049205 -0.346229
-0.480364 -0.373042 -0.361758
0.275376 0.278461 -0.346229
0.27498 -0.05128 -0.346229
-0.480456 0.23421 -0.346229
-0.199217 -0.299507 -0.361758
0.307166 0.129874 -0.346229
0.113323 -0.418936 -0.361758
0.115494 0.112102 -0.361758
0.395172 0.333134 -0.346229
-0.151887 0.499254 -0.346229
0.066434 0.109399 -0.361758
-0.045574 0.129234 -0.361758
0.188235 -0.037257 -0.346229
0.377431 0.246751 -0.361758
-0.342276 -0.400793 -0.346229
0.398617 0.528947 -0.346229
-0.349748 0.459088 -0.346229
-0.006505 -0.05059 -0.361758
-0.145109 0.240189 -0.361758
-0.097161 0.325646 -0.346229
-0.356864 0.027402 -0.346229
0.336289 0.146187 -0.346229
-0.162598 -0.515069 -0.346229
0.159978 0.284828 -0.361758
0.091871 0.212251 -0.361758
0.033531 -0.468845 -0.361758
-0.091935 0.552464 -0.361758
0.351579 -0.010315 -0.346229
-0.250241 0.034525 -0.346229
-0.528807 -0.408627 -0.361758
0.18519 0.153521 -0.346229
0.072984 0.466161 -0.361758
-0.345301 -0.53791 -0.346229
0.431402 -0.482787 -0.361758
-0.210836 -0.138859 -0.346229
-0.154679 0.465501 -0.346229
0.033513 -0.147437 -0.346229
-0.289787 0.123678 -0.361758
-0.513038 -0.215802 -0.361758
-0.040957 -0.055419 -0.346229
0.480238 -0.474634 -0.346229
-0.271789 0.535182 -0.346229
-0.057093 -0.447956 -0.346229
0.363093 -0.304798 -0.346229
0.465643 -0.324495 -0.361758
-0.386671 -0.425443 -0.346229
0.335481 0.095993 -0.346229
0.495686 -0.051863 -0.346229
-0.085739 0.434711 -0.346229
0.105769 0.606438 -0.361758
-0.268968 0.309797 -0.361758
-0.42773 -0.215695 -0.346229
0.155518 -0.059545 -0.361758
0.048857 -0.32943 -0.346229
-0.371249 -0.47822 -0.346229
-0.495305 0.568166 -0.361758
-0.318456 0.027194 -0.361758
-0.404286 0.572374 -0.346229
-0.454191 -0.067486 -0.346229
0.212242 -0.329281 -0.346229
-0.014082 0.129893 -0.361758
0.230911 0.10107 -0.361758
-0.152894 -0.148555 -0.361758
-0.455002 0.592254 -0.361758
0.415234 -0.157778 -0.361758
0.310524 -0.240096 -0.346229
-0.032885 -0.495343 -0.361758
-0.299846 0.184528 -0.346229
0.513067 -0.387136 -0.361758
0.12008 0.209195 -0.361758
-0.435621 0.067328 -0.361758
-0.068251 -0.380878 -0.361758
0.197635 0.067272 -0.361758
-0.488603 0.300551 -0.346229
-0.494836 0.187226 -0.346229
-0.421218 0.364467 -0.346229
0.484874 0.119712 -0.346229
0.098898 0.391625 -0.346229
-0.032119 -0.23235 -0.361758
-0.097444 -0.15854 -0.346229
0.007277 0.191857 -0.346229
-0.268793 -0.454412 -0.346229
0.037967 0.522527 -0.361758
0.318557 0.30452 -0.361758
0.345151 0.358061 -0.346229
-0.522781 -0.345224 -0.361758
0.143181 0.549664 -0.346229
0.516149 0.552598 -0.361758
0.100525 -0.229728 -0.346229
-0.52849 -0.462999 -0.361758
-0.494259 -0.106643 -0.361758
-0.361284 0.358428 -0.361758
-0.078078 -0.415614 -0.346229
0.200207 -0.284011 -0.361758
0.04258 0.190885 -0.361758
0.464482 0.350688 -0.361758
-0.30757 0.350338 -0.361758
0.295291 -0.426684 -0.346229
-0.378555 -0.317311 -0.346229
-0.291433 -0.323808 -0.361758
-0.44737 0.269216 -0.346229
-0.198832 -0.480519 -0.361758
-0.340018 -0.071725 -0.346229
-0.320619 0.159251 -0.361758
0.06407 0.228488 -0.346229
0.482267 0.177464 -0.346229
0.329152 0.231613 -0.346229
0.436689 -0.416236 -0.361758
0.159838 -0.028402 -0.361758
0.032631 -0.396339 -0.361758
-0.356687 0.115749 -0.361758
0.145364 0.024605 -0.361758
-0.101252 0.352234 -0.361758
-0.51571 -0.024707 -0.361758
-0.396352 -0.012597 -0.361758
0.162369 0.442954 -0.346229
-0.058394 -0.114193 -0.361758
-0.146767 -0.028404 -0.346229
0.137612 0.582077 -0.346229
-0.18949 0.169004 -0.346229
0.316892 0.406437 -0.346229
-0.471481 0.484521 -0.346229
0.379226 0.485122 -0.346229
-0.296133 -0.269185 -0.361758
-0.282921 -0.230044 -0.346229
0.207422 0.137499 -0.346229
-0.334373 -0.045923 -0.361758
-0.217686 0.28077 -0.361758
0.058624 0.57785 -0.361758
-0.465095 0.149965 -0.361758
-0.339131 0.329934 -0.361758
0.155695 0.597058 -0.361758
-0.394399 0.419358 -0.346229
-0.169224 -0.463164 -0.361758
-0.197388 -0.385489 -0.361758
-0.025606 -0.321702 -0.361758
0.162776 -0.341899 -0.346229
-0.065831 -0.493235 -0.346229
-0.528239 0.149619 -0.361758
-0.172653 -0.339754 -0.346229
-0.314568 -0.359406 -0.361758
0.149612 -0.227257 -0.361758
0.004646 -0.119775 -0.361758
-0.257856 0.25521 -0.361758
-0.116882 -0.246754 -0.346229
0.194222 -0.110455 -0.346229
-0.530946 0.27345 -0.346229
-0.080443 0.588319 -0.361758
-0.249937 0.508073 -0.346229
-0.42914 0.480553 -0.346229
-0.457898 -0.25782 -0.346229
-0.41464 -0.121278 -0.346229
-0.2305 0.462127 -0.346229
-0.535139 0.223455 -0.346229
-0.35141 -0.2354 -0.361758
-0.205851 0.620399 -0.346229
-0.099244 0.220266 -0.346229
0.283939 -0.154678 -0.346229
-0.383714 -0.130878 -0.361758
-0.505651 0.598696 -0.361758
-0.435049 -0.445542 -0.361758
0.002062 0.326589 -0.346229
-0.0556 0.599453 -0.361758
-0.407765 0.021414 -0.361758
0.408911 -0.482597 -0.346229
0.159686 0.351239 -0.361758
0.364743 0.412414 -0.346229
0.435726 -0.134268 -0.361758
0.238907 -0.137572 -0.361758
0.330965 0.576474 -0.361758
-0.144467 -0.487704 -0.346229
-0.142533 0.620899 -0.35714
-0.505972 0.120324 -0.361758
0.475931 0.562682 -0.361758
0.011292 0.040272 -0.361758
0.33399 0.17392 -0.361758
0.081603 0.047637 -0.346229
-0.405744 0.128496 -0.346229
0.096172 -0.254051 -0.361758
0.430237 0.111228 -0.361758
-0.43226 0.177602 -0.346229
0.131379 -0.200877 -0.346229
0.022259 -0.443588 -0.346229
-0.300433 0.248243 -0.346229
0.150592 0.139416 -0.346229
0.140697 0.228986 -0.361758
0.170216 0.177631 -0.346229
0.266289 0.225689 -0.346229
-0.167513 -0.064009 -0.346229
0.50472 0.303071 -0.361758
0.393125 -0.410884 -0.346229
-0.137731 0.445479 -0.346229
-0.53462 -0.233736 -0.346229
0.00114 0.444825 -0.361758
0.381089 -0.026732 -0.361758
