0.657715 -0.40442 0.187471
0.671431 0.179157 -0.10581
0.671431 0.463277 -0.440865
0.671431 0.2196 0.34434
0.671431 -0.277419 0.180745
0.657715 0.656767 0.351404
0.671431 0.668642 -0.080788
0.671431 -0.100643 -0.232
0.657715 0.418316 0.118268
0.671431 -0.074908 -0.322157
0.657715 0.690379 0.207319
0.657715 0.284827 0.193437
0.671431 0.527782 -0.26658
0.657715 -0.028925 -0.082538
0.657715 0.06377 0.319176
0.671431 -0.27539 -0.316103
0.671431 -0.3931 -0.288108
0.671431 0.09394 -0.410659
0.671431 0.051053 0.165686
0.657715 0.502624 -0.420151
0.657715 -0.241269 0.314759
0.671431 0.027333 -0.291439
0.657715 -0.27468 -0.181498
0.657715 0.330993 0.118312
0.657715 0.050149 0.034172
0.671431 -0.106926 0.168849
0.657715 0.233082 0.037769
0.657715 0.223418 -0.085774
0.657715 0.390509 -0.196221
0.671431 0.505286 -0.16364
0.657715 0.120016 0.08069
0.657715 0.202415 -0.40715
0.657715 0.246241 -0.450074
0.671431 0.533854 -0.36797
0.657715 -0.342233 0.237961
0.657715 -0.113298 0.065412
0.657715 0.128933 -0.295834
0.657715 0.178607 0.026067
0.657715 0.620966 0.002171
0.671431 0.606767 0.250283
0.671431 -0.173192 -0.096545
0.657715 0.257714 0.127879
0.657715 0.413957 0.013958
0.657715 -0.308916 -0.264878
0.671431 0.658613 -0.220161
0.671431 0.042566 -0.448483
0.657715 0.372042 0.083829
0.671431 0.177998 -0.024462
0.671431 0.558594 -0.199453
0.657715 -0.010703 0.289633
0.671431 0.204021 0.184652
0.657715 -0.236148 0.368556
0.657715 -0.057657 0.002649
0.671431 0.300199 0.317042
0.671431 -0.063523 0.229242
0.657715 0.011054 0.11238
0.671431 0.142806 -0.353677
0.657715 0.449444 0.257333
0.671431 0.319449 -0.13904
0.671431 -0.045651 -0.209921
0.671431 0.387817 -0.417346
0.657715 0.385248 -0.291952
0.671431 -0.261907 0.265213
0.671431 0.570321 -0.279801
0.657715 0.425769 -0.251721
0.657715 0.248425 -0.126641
0.671431 -0.133381 -0.102807
0.671431 -0.357481 -0.01307
0.671431 0.377903 -0.070697
0.671431 -0.047636 -0.283595
0.671431 0.179103 0.137309
0.657715 -0.290948 0.363522
0.657715 0.34588 -0.214082
0.657715 -0.224347 -0.434007
0.657715 0.500638 0.326968
0.671431 -0.308916 -0.073085
0.671431 0.686448 -0.271013
0.671431 0.49773 0.117053
0.671431 -0.188406 0.07744
0.657715 0.258492 0.235978
0.657715 0.452346 -0.40366
0.657715 0.280494 0.056591
0.662272 -0.05496 -0.456861
0.671431 0.089867 0.008834
0.671431 0.6386 0.386289
0.671431 -0.353851 -0.2856
0.657715 0.105086 -0.37188
0.671431 -0.196354 0.176195
0.671431 0.180999 -0.161974
0.657715 -0.116893 -0.17896
0.671431 0.382142 -0.361615
0.671431 -0.26634 -0.010094
0.657715 0.066952 -0.304126
0.657715 0.413493 0.22116
0.657715 -0.155183 -0.412913
0.657715 0.301758 -0.205434
0.657715 0.61949 -0.232617
0.657715 0.639732 -0.103525
0.671431 -0.26662 -0.088609
0.671431 -0.184518 0.374008
0.657715 -0.050711 -0.157511
0.671431 0.653003 -0.329199
0.657715 0.32199 0.040016
0.671431 0.251991 -0.017605
0.671431 0.551086 -0.032685
0.671431 0.499307 -0.05786
0.657715 0.364098 -0.14693
0.671431 -0.34057 0.109805
0.657715 0.357263 0.17128
0.657715 -0.15666 0.223248
0.657715 0.43339 0.18249
0.657715 0.028095 -0.04352
0.661952 0.692002 0.27454
0.671431 0.336266 -0.079507
0.671431 -0.344778 0.333812
0.657715 0.258938 0.298348
0.657715 0.591763 -0.160685
0.671431 -0.347192 -0.446217
0.671431 0.655297 0.071027
0.671431 0.065732 -0.340675
0.657715 -0.124642 0.303966
0.657715 -0.030116 0.179381
0.671431 -0.120876 0.373823
0.671431 -0.173716 0.3096
0.671431 0.618374 0.307349
0.657715 0.659511 -0.17505
0.671431 0.143201 -0.091443
0.671431 0.597617 -0.084514
0.671431 -0.045244 0.345755
0.657715 0.00345 -0.142128
0.657715 0.570039 0.112721
0.671431 -0.152196 -0.17634
0.657715 -0.023592 -0.016414
0.657715 0.289445 0.363367
0.671431 0.369243 0.268594
0.657715 -0.405173 0.359282
0.671431 0.392529 -0.116822
0.657715 0.079706 0.354222
0.657715 0.021691 0.380502
0.657715 0.21306 -0.219067
0.671431 0.216954 0.380911
0.657715 0.609153 -0.382578
0.671431 -0.339226 0.170474
0.657715 -0.228642 0.016232
0.671431 0.222232 0.103932
0.671431 -0.198669 -0.210265
0.657715 -0.153812 -0.305016
0.671431 -0.401934 0.229794
0.657715 0.294236 -0.069415
0.657715 -0.136097 -0.443805
0.671431 -0.003275 -0.225447
0.657715 -0.015568 -0.348924
0.657715 -0.208047 0.134623
0.671431 0.260859 0.161123
0.671431 0.534143 0.275467
0.671431 0.440745 -0.117415
0.657715 0.069494 0.088083
0.657715 -0.276992 0.330279
0.671431 0.277484 -0.424958
0.657715 0.655614 0.12843
0.657715 0.175877 -0.43541
0.671431 0.431093 -0.014364
0.657715 0.637957 0.239303
0.657715 0.282121 -0.272563
0.657715 -0.391482 -0.410354
0.657715 -0.269551 0.061743
0.657715 0.535668 -0.234686
0.657715 -0.067586 0.09596
0.657715 0.591886 0.142061
0.657715 -0.39478 -0.214644
0.657715 -0.123222 -0.071156
0.671431 0.071141 -0.11298
0.671431 0.417659 -0.348838
0.657715 0.155001 0.349331
0.657715 0.479626 0.232639
0.671431 0.593456 0.375676
0.657715 -0.193182 0.002636
0.657715 0.486866 0.043392
0.657715 0.318936 -0.004238
0.657715 0.514878 -0.341784
0.657715 0.389499 -0.326787
0.671431 -0.128737 -0.363155
0.671431 0.606739 -0.262174
0.671431 0.138263 -0.264689
0.657715 0.462801 0.3667
0.671431 0.135769 -0.050378
0.657715 0.459778 0.115054
0.657715 -0.302421 -0.146236
0.671431 -0.124632 0.137926
0.671431 0.52628 0.054149
0.671431 0.491712 0.081773
0.671431 -0.222083 -0.252038
0.657715 0.350431 0.326249
0.657715 -0.337619 -0.052479
0.671431 -0.086018 -0.012348
0.671431 0.155719 0.089212
0.657715 -0.34471 -0.158678
0.671431 0.465118 -0.30845
0.671431 0.358274 0.381509
0.671431 0.534209 0.381812
0.657715 0.257557 -0.087099
0.671431 0.654735 0.317256
0.657715 0.525699 0.183297
0.657715 0.355615 0.048518
0.671431 0.110959 0.318884
0.657715 -0.074857 -0.392791
0.657715 0.585852 0.336874
0.671431 -0.022957 0.063667
0.671431 0.111751 -0.174633
0.657715 0.453058 0.045509
0.671431 -0.010972 -0.286149
0.657715 0.014483 -0.074449
0.657715 -0.38632 -0.024076
0.671431 -0.053252 0.270495
0.671431 0.126336 0.251149
0.671431 -0.098243 0.093185
0.671431 0.350233 0.240849
0.657715 -0.064682 0.15092
0.671431 -0.365505 -0.394014
0.657715 0.341878 -0.403893
0.657715 -0.294796 0.019118
0.671431 -0.094745 -0.357925
0.657715 0.491696 -0.27035
0.657715 -0.219607 -0.054217
0.671431 0.406986 -0.051978
0.671431 -0.283213 0.298483
0.657715 0.222432 -0.047606
0.671431 -0.153663 -0.24801
0.657715 0.11755 0.171412
0.671431 -0.003794 -0.098401
0.657715 0.568072 -0.087452
0.671431 -0.30978 -0.206441
0.671431 -0.16728 -0.130017
0.657715 -0.329295 0.287004
0.671431 0.508061 -0.114885
0.671431 -0.11761 -0.299315
0.671431 0.347819 0.142407
0.671431 0.606821 0.168535
0.671431 0.333267 -0.34318
0.671431 -0.383244 0.114612
0.671431 -0.213787 0.203264
0.671431 0.385263 0.018375
0.671431 0.017663 0.319978
0.671431 0.263142 -0.346051
0.671431 0.103351 0.106415
0.657715 0.145908 -0.324904
0.671431 0.049413 0.197656
0.657715 0.607719 0.063236
0.657715 0.17839 0.327719
0.671431 -0.218909 0.067883
0.671431 -0.385166 0.328232
0.657715 0.586676 -0.193964
0.657715 -0.254474 -0.3938
0.657715 -0.061803 0.370522
0.671431 0.588549 -0.346524
0.657715 0.241321 -0.237952
0.657715 -0.265524 -0.25663
0.671431 -0.032439 -0.379542
0.671431 0.621279 -0.291922
0.671431 0.284133 0.117654
0.671431 0.190785 0.104711
0.657715 -0.168244 -0.27511
0.671431 -0.28766 0.242686
0.671431 0.576669 -0.125148
0.671431 0.250064 0.015301
0.671431 0.50059 0.018833
0.671431 -0.063577 -0.235482
0.657715 0.470959 -0.216427
0.671431 -0.295998 -0.371012
0.657715 -0.118781 0.256518
0.657715 0.43034 -0.179787
0.671431 0.221865 -0.387154
0.657715 0.116187 0.380485
0.671431 -0.378583 -0.435432
0.657715 -0.221617 -0.194483
0.657715 -0.004858 0.197396
0.671431 0.660377 -0.35931
0.671431 0.658236 -0.428336
0.671431 0.646683 -0.010891
0.657715 0.003738 -0.309591
0.671431 0.257097 0.364439
0.671431 -0.180722 0.028625
0.671431 -0.367933 -0.361436
0.657715 0.298619 0.086205
0.671431 0.311323 -0.179655
0.671431 0.600043 0.019995
0.671431 0.173063 -0.285648
0.657715 0.400567 0.159246
0.671431 0.212934 0.224789
0.671431 0.520466 -0.194314
0.657715 -0.071768 0.315046
0.657715 -0.00183 0.259915
0.657715 -0.05398 -0.121629
0.671431 0.555968 0.01321
0.671431 0.346179 -0.312577
0.671431 -0.135221 0.206452
0.657715 0.678774 -0.151428
0.671431 0.196554 -0.341861
0.671431 0.056195 -0.276559
0.657715 0.685192 -0.22574
0.657715 0.224988 0.167447
0.657715 -0.095416 -0.058956
0.657715 -0.272746 0.131198
0.671431 0.081894 0.275502
0.657715 0.557514 0.220704
0.671431 0.584198 -0.415763
0.657715 -0.177619 0.280505
0.657715 -0.099884 -0.119697
0.671431 0.303291 0.170186
0.671431 0.155948 -0.225086
0.657715 0.658349 0.044514
0.657715 0.217526 0.311413
0.657715 -0.051174 -0.310076
0.657715 -0.176481 -0.037485
0.657715 -0.239343 0.251144
0.671431 0.163808 0.05399
0.671431 -0.379719 -0.055891
0.657715 0.218916 0.077709
0.657715 0.653324 0.179269
0.657715 0.491274 -0.323686
0.657715 0.334907 -0.2578
0.657715 0.536297 -0.009647
0.671431 0.282219 -0.185381
0.657715 0.459757 -0.369219
0.671431 0.50731 -0.245299
0.657715 0.102747 -0.435282
0.671431 0.614159 -0.147313
0.657715 0.016311 -0.360611
0.671431 0.119914 -0.141132
0.671431 -0.264131 -0.205314
0.657715 0.430823 0.069792
0.657715 -0.206735 -0.347841
0.671431 0.388587 0.292336
0.657715 0.173665 -0.393478
0.657715 -0.171355 -0.220721
0.657715 -0.099203 0.039715
0.657715 0.622729 0.270685
0.657715 -0.209983 0.308247
0.657715 0.583776 0.238464
0.671431 -0.202676 -0.419973
0.657715 0.204922 -0.181262
0.671431 0.064948 -0.183019
0.657715 -0.137297 -0.013749
0.671431 -0.014721 -0.416081
0.671431 0.207907 0.052757
0.671431 0.554675 0.091069
0.671431 0.405861 -0.171843
0.671431 -0.190696 -0.390531
0.671431 0.56405 0.17451
0.657715 -0.234642 0.047553
0.671431 0.417763 -0.290202
0.657715 0.432815 0.31829
0.671431 -0.238507 0.139854
0.671431 0.369149 -0.033839
0.657715 0.315084 -0.10748
0.657715 -0.317768 0.381584
0.657715 0.381334 0.205907
0.671431 0.05987 -0.139525
0.671431 0.307552 -0.269509
0.657715 -0.298114 0.0578
0.657715 -0.050065 0.03046
0.671431 0.422714 0.037693
0.671431 0.441682 -0.06544
0.657715 0.046632 0.295167
0.671431 -0.177971 0.104164
0.657715 0.688127 -0.060331
0.671431 -0.111013 -0.146377
0.671431 -0.196236 -0.063403
0.671431 0.680429 0.343158
0.657715 -0.24902 -0.037291
0.671431 -0.110875 -0.203272
0.657715 0.685815 0.078215
0.671431 0.507933 0.245058
0.657715 0.083289 -0.026895
0.657715 0.056654 -0.22865
0.657715 -0.366208 -0.257588
0.657715 0.008684 -0.270745
0.657715 -0.023823 0.121906
0.657715 0.442636 0.007757
0.657715 0.522979 0.297767
0.671431 0.066462 0.063351
0.671431 -0.254428 0.292643
0.671431 0.62395 0.12247
0.657715 0.67834 -0.400906
0.671431 -0.362967 0.033641
0.671431 0.460949 -0.015011
0.657715 -0.100249 -0.258247
0.671431 -0.268193 -0.285861
0.671431 0.65437 -0.300955
0.657715 -0.323337 -0.093147
0.657715 -0.273646 -0.153293
0.671431 -0.28467 -0.448922
0.671431 0.45416 -0.234469
0.671431 0.153955 -0.169999
0.671431 0.234751 -0.362087
0.671431 0.289373 -0.135051
0.671431 0.421469 -0.423326
0.657715 0.461476 0.180524
0.671431 0.115366 -0.347407
0.671431 0.367769 -0.259218
0.671431 -0.015963 0.229904
0.657715 -0.14857 0.361833
0.657715 0.623054 -0.317842
0.657715 0.298158 -0.299116
0.657715 -0.007955 0.366852
0.657715 0.032689 0.132227
0.657715 -0.187331 0.253619
0.671431 -0.044502 -0.063759
0.671431 -0.344348 0.267156
0.657715 -0.208227 0.364686
0.657715 0.067746 0.144453
0.657715 0.480114 -0.072882
0.657715 0.305167 0.293184
0.671431 -0.198386 -0.455694
0.657715 0.101662 -0.208602
0.671431 -0.146518 -0.33004
0.657715 -0.242279 -0.074941
0.665167 0.485202 -0.456861
0.657715 0.48198 -0.24426
0.671431 0.13871 0.368513
0.671431 -0.004503 0.138149
0.671431 0.091534 0.220952
0.657715 0.585366 0.308824
0.657715 0.608535 0.212039
0.657715 0.437103 0.282096
0.657715 -0.074512 0.345956
0.657715 0.636147 0.099221
0.657715 0.357059 -0.341084
0.657715 0.469353 0.32219
0.657715 -0.051543 0.126747
0.657715 -0.219404 -0.301892
0.657715 -0.310599 0.235774
0.657715 0.193695 -0.245908
0.657715 -0.177131 -0.366481
0.657715 0.476788 0.136625
0.671431 -0.245073 -0.362056
0.671431 0.666718 0.20553
0.657715 -0.153745 0.293944
0.657715 0.24383 -0.272896
0.657715 0.165648 0.235265
0.657715 -0.202041 -0.103561
0.657715 -0.290329 -0.348073
0.671431 0.472758 0.264713
0.657715 -0.262586 0.1624
0.671431 -0.313319 0.110851
0.657715 -0.33664 0.137628
0.671431 0.529842 -0.142596
0.671431 -0.086016 0.293415
0.657715 0.153577 -0.419835
0.671431 0.280077 -0.249183
0.657715 0.10278 -0.280021
0.671431 -0.033391 0.014068
0.657715 0.028283 0.158967
0.657715 -0.157062 0.015064
0.657715 0.483203 -0.192294
0.671431 0.272982 0.030051
0.657715 0.195676 0.258078
0.657715 0.188501 -0.127112
0.671431 -0.143687 -0.385636
0.671431 -0.071152 -0.261383
0.671431 -0.342935 -0.329258
0.657715 0.091528 0.1645
0.657715 0.144674 0.150099
0.657715 0.247008 0.274293
0.671431 0.11066 0.202114
0.671431 0.115903 -0.394156
0.657715 -0.000342 0.053242
0.671431 -0.387951 -0.236668
0.657715 0.319984 0.33871
0.657715 0.249306 -0.153404
0.657715 0.659948 -0.123024
0.657715 0.158198 -0.045838
0.671431 0.554467 -0.248273
0.671431 0.336059 -0.022751
0.671431 -0.25355 -0.416638
0.671431 0.332343 0.260607
0.671431 -0.338743 0.307882
0.671431 0.423306 0.161128
0.671431 -0.391538 0.294074
0.671431 0.47962 0.296607
0.657715 0.487573 0.172681
0.671431 0.559114 -0.06256
0.657715 0.039503 0.233415
0.657715 0.517102 -0.04373
0.671431 0.27383 0.090178
0.671431 0.645709 0.023138
0.671431 -0.278854 -0.118884
0.671431 0.066464 -0.414444
0.671431 0.439719 -0.334225
0.657715 -0.237507 0.087198
0.657715 0.036247 0.081764
0.671431 0.301 0.031951
0.657715 0.105981 -0.006845
0.671431 -0.338649 -0.189539
0.671431 0.655986 -0.053347
0.671431 0.036833 -0.064158
0.657715 0.197381 -0.013283
0.671431 0.170507 0.287167
0.657715 0.668631 -0.015105
0.657715 -0.344705 0.200087
0.671431 -0.179838 -0.318821
0.657715 -0.331953 -0.281401
0.657715 -0.287832 -0.080287
0.657715 0.198874 -0.278698
0.671431 0.155239 -0.376903
0.671431 0.346876 0.08915
0.671431 -0.009108 0.100532
0.657715 0.550752 0.339277
0.671431 0.44379 -0.290842
0.657715 -0.253552 -0.31925
0.657715 0.3339 -0.445688
0.663378 0.11873 -0.456861
0.657715 -0.026323 -0.199386
0.657715 0.54832 -0.280388
0.657715 0.412159 0.087794
0.657715 0.28934 -0.323472
0.671431 0.378219 0.164788
0.657715 0.230725 -0.011464
0.657715 0.021127 0.19503
0.657715 0.358612 0.353175
0.671431 0.08916 -0.089044
0.657715 -0.227203 -0.113732
0.671431 0.438544 -0.363931
0.657715 0.238218 0.385776
0.671431 0.325789 -0.205604
0.671431 0.008926 -0.121032
0.657715 -0.337902 0.003588
0.657715 -0.202261 -0.266085
0.657715 0.028852 -0.232076
0.657715 0.35362 -0.23859
0.671431 0.197068 0.155672
0.657715 -0.287365 -0.015532
0.671431 0.281384 -0.018048
0.671431 0.09036 -0.297787
0.671431 0.102601 0.0311
0.657715 0.541649 0.158339
0.657715 0.36717 -0.424136
0.671431 -0.224111 0.226734
0.657715 0.489082 -0.298153
0.671431 0.473493 -0.110642
0.671431 -0.200789 -0.155515
0.671431 0.032116 -0.38048
0.657715 -0.000854 -0.247039
0.657715 0.257505 -0.413457
0.671431 0.396817 0.23469
0.657715 0.384793 -0.382916
0.671431 -0.171426 0.167022
0.657715 0.632899 0.066887
0.657715 0.241927 0.339185
0.657715 -0.402988 0.087099
0.671431 0.439568 0.369382
0.671431 0.521617 0.340882
0.671431 0.043837 -0.353444
0.657715 0.669816 0.155678
0.671431 0.110181 -0.048336
0.671431 -0.322942 0.055383
0.657715 0.03429 0.338476
0.671431 0.193022 0.388902
0.671431 0.061463 0.016273
0.671431 -0.329768 -0.12466
0.671431 -0.329977 0.220738
0.657715 -0.040579 0.2873
0.671431 0.08162 0.330313
0.671431 -0.154458 -0.031539
0.657715 -0.032696 -0.175009
0.671431 -0.034534 -0.034342
0.671431 -0.11567 -0.438993
0.671431 0.376588 0.049208
0.657715 0.152814 -0.280373
0.671431 -0.021678 -0.440107
0.671431 0.285009 -0.21795
0.657715 0.658522 0.261078
0.657715 0.308874 0.061987
0.657715 0.367865 0.308363
0.671431 -0.232262 0.348052
0.671431 0.227027 -0.308604
0.657715 0.314268 -0.05096
0.657715 -0.169668 0.388589
0.671431 -0.12715 0.233753
0.657715 -0.082655 0.076158
0.671431 -0.131349 0.346045
0.671431 0.180211 0.177498
0.671431 0.047214 0.252778
0.657715 0.080438 -0.131477
0.657715 0.514584 -0.398388
0.657715 0.120316 0.145422
0.657715 0.228289 -0.110061
0.657715 0.616269 -0.095624
0.671431 0.527756 -0.426511
0.657715 0.196698 -0.04493
0.657715 0.352204 0.202717
0.670994 0.692002 -0.447976
0.657715 0.574412 -0.215418
0.671431 0.156587 -0.307329
0.671431 -0.184339 0.341303
0.671431 0.070006 -0.042481
0.671431 -0.356724 0.082268
0.671431 0.385047 -0.158695
0.657715 -0.331932 -0.208828
0.671431 0.680057 -0.334274
0.671431 0.535884 0.138316
0.671431 -0.065838 -0.17911
0.671431 0.128132 0.022993
0.657715 0.632977 0.321472
0.671431 0.075105 0.251955
0.657715 -0.316303 0.338591
0.657715 -0.334383 -0.420937
0.666868 0.692002 0.229943
0.657715 0.013833 -0.417129
0.657715 0.036949 -0.270423
0.671431 -0.381795 -0.148461
0.671431 0.663761 0.390021
0.671431 0.171426 -0.137785
0.657715 -0.292025 -0.427345
0.657715 0.536355 0.07178
0.657715 0.079298 0.300465
0.657715 -0.148295 0.146955
0.657715 0.690972 0.001154
0.657715 0.198201 -0.151685
0.671431 0.391515 0.088413
0.671431 -0.233548 0.388969
0.671431 0.369469 -0.124319
0.657715 0.223826 0.202133
0.671431 -0.254676 -0.183007
0.657715 0.323137 -0.376808
0.671431 0.255341 0.105822
0.671431 0.292633 -0.395617
0.657715 0.51565 0.125821
0.657715 0.576543 0.261568
0.657715 -0.066 -0.2157
0.657715 -0.168516 0.07691
0.657715 -0.054783 0.249844
0.671431 0.086169 -0.35353
0.671431 0.637818 -0.193053
0.671431 0.629066 -0.372603
0.657715 0.025402 0.252958
0.671431 0.538581 -0.313298
0.671431 -0.255022 -0.339427
0.671431 -0.385294 -0.263634
0.657715 0.413611 0.301902
0.657715 -0.117769 0.119401
0.657715 0.517425 0.265011
0.657715 0.231032 -0.203251
0.671431 0.20076 -0.095498
0.657715 -0.055004 0.075613
0.657715 -0.111133 0.356845
0.657715 0.177916 0.089638
0.657715 0.559351 -0.134258
0.657715 0.113602 -0.41355
0.671431 -0.168306 0.249236
0.657715 0.47974 -0.020223
0.671431 0.147964 -0.114801
0.671431 0.168166 -0.330595
0.671431 0.267145 0.185339
0.657715 -0.372934 0.18492
0.671431 -0.110052 -0.098276
0.657715 0.510558 -0.144676
0.671431 0.13441 0.202393
0.657715 0.077905 0.377903
0.657715 -0.299926 0.183762
0.671431 -0.131364 0.081126
0.671431 -0.03317 0.367557
0.657715 0.162487 -0.012944
0.657715 0.239731 0.143277
0.657715 0.421343 -0.039101
0.671431 0.463568 -0.055545
0.657715 -0.152291 -0.106445
0.657715 0.28411 0.16865
0.671431 -0.0893 -0.176339
0.671431 0.588494 0.107302
0.671431 0.32931 -0.293265
0.671431 -0.162678 -0.153167
0.671431 -0.315677 0.171917
0.671431 -0.106737 0.281303
0.671431 0.261914 0.254847
0.671431 -0.007483 -0.070644
0.671431 0.352552 -0.06139
0.657715 0.207694 0.033619
0.671431 0.576234 -0.030209
0.657715 -0.262102 0.010337
0.671431 0.492531 -0.403196
0.671431 0.405496 -0.235983
0.657715 0.271142 -0.140602
0.671431 -0.274795 0.084749
0.657715 0.581019 0.019017
0.671431 0.179523 0.350968
0.671431 -0.192002 0.122926
0.671431 -0.349054 -0.037324
0.657715 0.074051 -0.244316
0.658498 0.692002 -0.101907
0.671431 0.486924 -0.43074
0.657715 -0.134115 -0.045019
0.671431 0.35577 0.06735
0.671431 0.664535 -0.278843
0.671431 -0.09585 -0.307524
0.671431 0.206722 -0.060806
0.671431 0.393051 -0.256503
0.657715 0.422238 0.252064
0.671431 0.119524 0.061961
0.671431 0.542947 0.298704
0.671431 0.671452 0.365105
0.657715 0.014242 0.350162
0.657715 0.317206 0.182692
0.657715 0.598539 0.185301
0.657715 -0.229229 0.291904
0.671431 0.404161 0.341335
0.671431 -0.046051 0.196277
0.657715 0.210392 -0.368795
0.657715 -0.018558 0.153713
0.671431 0.22298 -0.156153
0.671431 -0.09682 -0.386499
0.657715 0.53603 -0.443081
0.657715 0.683757 -0.252699
0.657715 0.272791 -0.388205
0.657715 0.085563 -0.394165
0.657715 0.067415 0.201911
0.671431 -0.035598 -0.09978
0.671431 -0.044773 -0.138541
0.657715 0.628278 -0.268568
0.657715 0.584567 0.163835
0.671431 0.15821 0.19294
0.671431 0.323277 0.311415
0.657715 0.612234 0.033776
0.657715 -0.398217 0.276979
0.671431 0.610213 -0.424229
0.671431 0.069342 -0.438891
0.657715 -0.019003 0.081569
0.657715 -0.042906 -0.264753
0.671431 0.105491 0.241741
0.671431 -0.097162 -0.411615
0.657715 -0.241861 -0.007795
0.657715 0.524784 -0.107595
0.657715 0.319398 0.14663
0.657715 0.058399 0.275642
0.657715 0.071188 -0.091924
0.671431 0.40397 -0.368636
0.671431 0.007477 0.289612
0.671431 -0.369667 -0.456369
0.657715 0.537364 -0.338323
0.657715 0.504239 0.219244
0.657715 0.082497 -0.187515
0.671431 0.60486 -0.010369
0.671431 0.438989 -0.264085
0.671431 -0.194446 0.298961
0.657715 0.497698 0.297391
0.657715 -0.177403 -0.114121
0.657715 -0.207901 0.242514
0.657715 -0.318899 -0.382298
0.671431 0.664551 -0.242039
0.657715 0.440566 -0.381844
0.657715 0.419995 -0.402124
0.671431 -0.130242 -0.158309
0.657715 -0.0633 -0.053931
0.671431 0.360476 -0.092038
0.671431 0.358784 -0.383694
0.671431 -0.151736 0.384335
0.671431 0.402765 0.363821
0.671431 -0.332478 -0.069579
0.657715 -0.008925 -0.120741
0.657715 -0.077715 -0.304537
0.671431 0.448674 0.326462
0.657715 0.388517 -0.085016
0.657715 0.125613 0.308285
0.657715 0.251122 -0.373263
0.657715 0.010986 -0.187636
0.671431 -0.001433 -0.360713
0.671431 0.607523 0.287755
0.671431 0.019367 -0.216455
0.657715 -0.246326 -0.242966
0.671431 0.145711 0.067176
0.671431 -0.101391 0.241467
0.657715 0.174797 0.120204
0.671431 -0.114033 0.319319
0.657715 -0.112631 -0.353332
0.671431 -0.043779 0.055586
0.657715 0.561255 0.390441
0.657715 0.087109 -0.33593
0.657715 -0.13616 -0.246104
0.671431 0.110252 -0.096305
0.671431 0.544279 -0.216558
0.657715 -0.019536 -0.270806
0.671431 -0.292588 -0.271352
0.657715 0.073632 -0.278662
0.657715 0.05601 -0.156649
0.671431 0.080367 0.032252
0.671431 0.686627 0.124832
0.657715 0.177954 -0.230173
0.657715 0.333747 0.280084
0.657715 -0.118488 -0.421728
0.671431 -0.044653 -0.009049
0.657715 0.273655 -0.061032
0.657715 -0.04774 0.325414
0.671431 0.258523 -0.240816
0.657715 -0.076919 -0.455653
0.657715 -0.217315 0.154733
0.671431 0.166971 0.388765
0.657715 0.50565 -0.185275
0.657715 0.624561 -0.442156
0.657715 -0.295087 0.093396
0.671431 0.284368 0.338289
0.657715 -0.2788 0.22554
0.671431 -0.213776 -0.133763
0.657715 0.463055 -0.139717
0.657715 0.519585 0.372767
0.671431 0.64405 0.339837
0.657715 0.336985 -0.097837
0.657715 0.433069 0.231171
0.671431 0.355317 0.121739
0.671431 0.457356 0.062136
0.657715 0.062957 -0.357621
0.657715 0.308061 -0.086494
0.657715 0.523444 -0.162474
0.657715 -0.168499 -0.169306
0.671431 0.286706 0.384943
0.671431 0.617474 -0.045708
0.671431 -0.010239 -0.005714
0.671431 0.314566 0.113552
0.671431 0.326041 0.023404
0.671431 -0.023874 0.303333
0.657715 -0.343865 -0.263008
0.657715 0.398773 0.029756
0.671431 -0.127841 0.000476
0.671431 0.24283 0.303971
0.66965 -0.39567 -0.456861
0.671431 0.453721 0.24044
0.671431 0.130504 -0.029142
0.657715 -0.399119 0.035503
0.671431 0.279565 0.309807
0.657715 0.627303 0.373548
0.657715 -0.179869 -0.144148
0.671431 -0.237899 0.03049
0.657715 0.655051 -0.036378
0.671431 -0.311004 0.132562
0.671431 0.663969 0.288656
0.671431 0.627495 -0.403936
0.657715 -0.229894 -0.267057
0.671431 0.117929 -0.272484
0.657715 -0.29584 -0.043553
0.657715 0.396759 0.124736
0.657715 -0.077478 -0.371074
0.671431 0.024444 0.102149
0.657715 0.423907 -0.116995
0.671431 0.050225 -0.205983
0.671431 0.303841 -0.424651
0.657715 0.187118 0.192795
0.671431 -0.220246 0.001705
0.671431 0.190631 0.226629
0.657715 0.036484 -0.02355
0.671431 -0.081099 -0.068605
0.671431 -0.042164 0.225866
0.657715 -0.293201 0.163228
0.657715 0.572916 -0.352287
0.657715 0.604981 -0.343086
0.657715 0.529426 0.204531
0.671431 0.341687 0.039439
0.671431 0.063011 0.369191
0.671431 0.398155 0.208111
0.657715 0.367974 0.285136
0.657715 0.28085 -0.086266
0.657715 0.586112 0.059241
0.657715 0.152119 0.31927
0.671431 0.222591 0.021768
0.657715 0.478664 0.104834
0.671431 0.538214 0.360718
0.671431 0.55602 0.03467
0.671431 0.20242 -0.231921
0.657715 0.264873 -0.199841
0.657715 -0.340268 -0.348283
0.657715 -0.268947 -0.429323
0.671431 -0.163934 0.328575
0.671431 -0.229056 0.325638
0.659787 -0.116491 -0.456861
0.657715 -0.35516 0.148225
0.671431 -0.382581 0.166241
0.671431 0.373759 -0.013017
0.657715 0.588186 0.36024
0.657715 -0.069519 0.269412
0.671431 0.159935 0.366813
0.671431 0.547471 0.056193
0.657715 -0.090437 0.221758
0.657715 0.389323 0.063941
0.657715 0.570463 0.087174
0.671431 0.128521 0.099772
0.657715 0.409566 -0.070641
0.671431 0.188779 -0.299918
0.671431 0.562905 0.349973
0.657715 -0.052376 0.173359
0.657715 -0.21222 -0.018178
0.657715 -0.115408 0.098361
0.671431 -0.154831 0.103558
0.671431 0.333432 -0.390176
0.671431 -0.251196 -0.103051
0.671431 -0.201399 0.27187
0.657715 0.518881 0.103344
0.657715 0.086647 -0.056086
0.671431 0.099411 0.263756
0.671431 -0.283072 -0.196081
0.671431 -0.002659 -0.026574
0.671431 0.074155 0.159084
0.657715 -0.244891 0.27145
0.671431 0.042277 0.324654
0.671431 -0.121569 -0.22985
0.671431 0.476229 0.1207
0.657715 0.522871 -0.251474
0.671431 0.379509 0.383247
0.671431 0.322739 -0.414225
0.657715 -0.023212 -0.296244
0.671431 -0.190627 -0.3507
0.657715 -0.294453 0.341877
0.671431 0.632367 0.258105
0.657715 0.010271 0.148257
0.671431 0.537603 -0.170489
0.671431 -0.269472 -0.137602
0.671431 0.310493 -0.219897
0.657715 0.156093 -0.24484
0.657715 -0.157412 0.122809
0.671431 0.125876 -0.375782
0.657715 0.567291 -0.002687
0.657715 0.266638 0.006222
0.671431 -0.051517 -0.423835
0.657715 0.224992 -0.34972
0.657715 -0.180608 0.323732
0.671431 0.471262 0.157697
0.671431 0.630483 0.284317
0.657715 0.670385 0.316643
0.657715 -0.27717 0.261728
0.671431 -0.3692 0.314913
0.657715 -0.357152 0.01914
0.671431 -0.30488 0.007189
0.657715 0.51529 0.043068
0.657715 -0.203583 -0.235089
0.657715 0.174207 0.302304
0.671431 0.371304 0.099368
0.671431 0.278637 0.150467
0.657715 -0.368948 -0.409165
0.657715 -0.39223 -0.337749
0.671431 0.061662 0.298981
0.657715 -0.302348 -0.245252
0.671431 0.600485 -0.291903
0.657715 0.192902 -0.214483
0.657715 -0.253014 0.037582
0.657715 0.491096 0.345288
0.671431 0.259998 -0.116412
0.671431 0.31011 -0.452154
0.661496 0.692002 0.357047
0.657715 -0.212152 0.107873
0.671431 0.425393 -0.145838
0.657715 0.013375 -0.10239
0.671431 -0.302808 -0.416379
0.657715 0.263909 -0.326238
0.671431 0.611403 0.196957
0.657715 -0.337785 0.051492
0.657715 0.163142 -0.112574
0.671431 0.108565 0.130534
0.657715 0.409997 -0.20282
0.657715 0.523364 -0.287277
0.671431 -0.356812 -0.24548
0.671431 0.529009 -0.053371
0.671431 -0.230214 -0.317832
0.657715 0.448963 -0.201918
0.657715 0.125715 -0.35863
0.657715 -0.157866 0.314048
0.671431 -0.352012 -0.109675
0.657715 0.15428 0.120374
0.671431 0.267401 -0.075481
0.657715 -0.19992 0.02199
0.657715 -0.197554 -0.36808
0.657715 -0.371876 -0.008192
0.671431 0.596662 0.268067
0.671431 0.034572 0.304309
0.671431 0.165196 0.033074
0.671431 0.38652 -0.138326
0.671431 -0.275556 -0.344953
0.671431 -0.035254 0.034374
0.671431 0.690713 0.293874
0.657715 -0.298264 0.298728
0.671431 -0.34015 -0.376395
0.657715 0.477617 -0.395628
0.671431 0.056158 0.134835
0.671431 -0.061133 0.020359
0.657715 0.285165 0.213707
0.671431 0.046774 -0.002077
0.657715 0.015021 0.305308
0.671431 0.253108 0.222087
0.657715 0.226328 -0.141641
0.657715 0.324395 -0.186737
0.671431 0.517438 -0.327152
0.671431 0.21092 0.324714
0.671431 -0.166507 -0.190606
0.657715 0.514147 -0.009943
0.657715 0.108329 -0.160201
0.671431 0.535232 0.00514
0.671431 0.260108 -0.435202
0.657715 -0.12158 0.220055
0.657715 0.600052 0.084554
0.657715 -0.403888 0.339172
0.671431 0.475497 0.379001
0.671431 0.350588 0.184436
0.657715 0.037218 -0.340261
0.657715 -0.326101 0.118206
0.657715 0.620209 -0.167546
0.671431 0.238038 0.157901
0.671431 0.672757 -0.134875
0.671431 -0.391748 0.05441
0.657715 0.12854 -0.091552
0.657715 -0.022012 -0.049096
0.657715 0.169586 -0.202132
0.657715 -0.383082 -0.307042
0.657715 -0.32853 0.318279
0.671431 0.057684 -0.074264
0.657715 0.293794 -0.373129
0.671431 0.137647 -0.217046
0.657715 0.150303 -0.07883
0.671431 0.672199 0.051764
0.671431 0.234113 -0.128604
0.657715 0.69057 -0.38359
0.671431 -0.364103 0.226552
-0.626989 0.690984 -0.443772
-0.626989 0.425885 0.185608
-0.626989 0.067464 -0.345374
-0.613274 -0.004232 0.078169
-0.626989 -0.312447 -0.155339
-0.613274 0.419562 -0.186804
-0.613274 0.687126 -0.003577
-0.626989 -0.234802 -0.454457
-0.616559 0.333788 -0.456861
-0.626989 0.69056 0.275703
-0.626989 0.226072 -0.023538
-0.626989 -0.264697 0.101307
-0.613274 -0.080575 -0.149455
-0.613274 0.188825 0.209769
-0.613274 0.634586 -0.22613
-0.613274 -0.104003 0.269236
-0.626989 -0.399051 0.328023
-0.626989 0.241739 -0.262246
-0.626989 0.48922 -0.007747
-0.626989 0.285042 0.373637
-0.613274 0.101055 -0.145832
-0.626989 0.506208 -0.342856
-0.626989 -0.137239 -0.314561
-0.626989 0.449226 0.355244
-0.613274 0.594473 0.127685
-0.613274 -0.185768 -0.031517
-0.626989 -0.256535 0.263004
-0.613274 0.046718 0.276913
-0.624231 -0.047597 -0.456861
-0.613274 0.343625 0.069894
-0.626989 0.203669 -0.406032
-0.626989 0.131516 0.077692
-0.626989 0.35984 -0.066844
-0.613274 0.367366 -0.31093
-0.626989 0.55749 0.275611
-0.613274 -0.27015 -0.327045
-0.626989 -0.327895 -0.013829
-0.626989 0.56291 -0.11773
-0.613274 -0.132652 0.09521
-0.626989 0.003027 -0.053681
-0.613274 0.565926 -0.449315
-0.613274 0.319382 0.256754
-0.613274 0.261856 -0.144701
-0.626989 -0.196618 -0.174957
-0.613274 0.02284 -0.233179
-0.613274 0.171142 0.331479
-0.626989 0.622766 -0.34244
-0.621127 0.4499 -0.456861
-0.623428 0.692002 -0.118983
-0.626989 0.0624 0.167176
-0.613274 0.133373 -0.251467
-0.613274 0.109503 -0.031199
-0.613274 0.235742 0.110783
-0.613274 0.069945 -0.453433
-0.626989 -0.163218 0.364944
-0.626989 0.520459 -0.222459
-0.626989 -0.063303 0.173546
-0.613274 0.495683 0.094427
-0.613274 0.689532 0.165198
-0.613274 -0.079818 0.009014
-0.613274 0.587899 0.008345
-0.626989 -0.032344 -0.314751
-0.613274 -0.290757 0.372981
-0.613274 -0.191077 0.191042
-0.626989 -0.362936 0.077521
-0.626989 0.548686 0.371127
-0.613274 0.448316 -0.095612
-0.626989 -0.025409 0.336167
-0.626989 0.333764 -0.219085
-0.613274 0.333008 0.160904
-0.626989 -0.338549 0.228011
-0.613274 0.275757 -0.35689
-0.626989 0.447203 -0.275905
-0.626989 -0.086996 -0.236232
-0.626989 -0.272414 -0.240111
-0.626989 -0.253748 -0.089996
-0.613274 0.465548 0.262209
-0.626989 0.005349 -0.140772
-0.626989 0.535381 0.189798
-0.615907 0.692002 -0.29404
-0.626989 0.243211 0.289469
-0.626989 -0.185189 -0.382668
-0.626989 0.430508 -0.376663
-0.626989 -0.116864 -0.074227
-0.613274 0.179225 -0.171189
-0.626989 0.409255 0.008666
-0.613274 0.191004 -0.324264
-0.613274 0.618749 0.224083
-0.613274 -0.25401 0.015646
-0.613274 0.678236 0.076508
-0.626989 -0.347425 -0.373821
-0.626989 0.372422 0.337092
-0.613274 -0.187154 -0.255152
-0.626989 0.055069 0.02409
-0.626989 -0.089271 -0.390384
-0.626989 -0.270752 0.186259
-0.626989 -0.025142 0.251446
-0.626989 0.079588 0.34653
-0.626989 0.26191 0.189425
-0.626989 0.30206 -0.010764
-0.626989 0.416873 0.085028
-0.613274 0.198446 -0.097783
-0.626989 0.356498 -0.146832
-0.613274 0.629309 -0.078046
-0.613274 0.11807 0.234799
-0.626989 0.138021 0.156547
-0.62456 0.258519 -0.456861
-0.613274 0.558458 -0.291396
-0.613274 -0.322324 0.305459
-0.626989 0.004478 -0.383026
-0.613274 0.139009 -0.375266
-0.626989 0.623617 0.304933
-0.626989 -0.1944 0.053339
-0.626989 -0.173713 0.26877
-0.626989 0.345119 -0.388117
-0.613274 0.170509 0.017462
-0.626989 -0.280775 -0.39649
-0.613274 -0.323375 0.137198
-0.613274 -0.347761 -0.091771
-0.613274 0.634545 -0.157285
-0.613274 -0.091256 0.35818
-0.626989 -0.2322 0.340503
-0.613274 0.397435 0.266261
-0.613274 0.493853 -0.161187
-0.613274 0.299992 -0.293711
-0.613274 -0.195446 0.119323
-0.626989 0.287127 -0.076305
-0.62182 -0.368512 -0.456861
-0.626989 -0.335894 -0.307732
-0.626989 0.628498 -0.41998
-0.621394 0.692002 -0.193376
-0.613274 0.556765 0.068548
-0.626989 -0.204177 -0.320274
-0.613274 -0.067545 0.096818
-0.626989 -0.035932 -0.196268
-0.613274 0.28035 0.048305
-0.626989 -0.375029 -0.195045
-0.613274 0.390374 -0.246082
-0.613274 0.060179 0.104633
-0.613274 0.565276 -0.055194
-0.626989 -0.114656 -0.449177
-0.616101 -0.297631 -0.456861
-0.613274 -0.006762 0.148149
-0.613274 -0.117793 0.201502
-0.626989 -0.176511 -0.093049
-0.626989 0.221964 0.365217
-0.613274 -0.011685 0.016116
-0.613274 0.06727 -0.275798
-0.613274 0.484498 0.154857
-0.613274 -0.256591 -0.182354
-0.613274 0.268296 -0.208576
-0.626989 0.172186 0.26707
-0.626989 -0.13932 -0.20533
-0.626989 0.050012 -0.099925
-0.613274 0.316945 0.317709
-0.613274 0.084161 -0.217062
-0.626989 0.118999 -0.088877
-0.626989 0.164904 -0.049319
-0.626989 0.504866 0.305199
-0.613274 0.166266 -0.455611
-0.626989 0.566302 -0.184111
-0.613274 0.026022 0.220884
-0.626989 0.515962 -0.410739
-0.613274 0.563258 -0.352824
-0.613274 -0.31451 0.045909
-0.613274 0.391285 0.136834
-0.626989 -0.058702 -0.072024
-0.613274 0.2944 0.117458
-0.626989 -0.134256 0.038848
-0.613274 0.614265 0.071445
-0.626989 -0.14772 -0.144636
-0.613274 0.613427 0.365356
-0.613274 0.509628 -0.10159
-0.613274 0.687161 -0.060772
-0.626989 0.634327 0.167069
-0.626989 0.136629 -0.316908
-0.613274 0.118538 0.308247
-0.626989 0.388904 -0.45342
-0.626989 0.479779 0.208704
-0.626989 -0.151902 0.151257
-0.626989 0.009753 -0.438309
-0.626989 -0.027777 -0.251162
-0.61808 -0.180228 -0.456861
-0.626989 0.679084 0.221568
-0.626989 0.022932 -0.312613
-0.625832 0.692002 -0.35015
-0.626989 0.227415 0.051305
-0.613274 0.537009 0.130334
-0.626989 -0.0194 0.391357
-0.613274 0.409697 -0.049649
-0.613274 0.575192 0.325439
-0.613274 0.181606 0.112809
-0.613274 0.353437 0.215011
-0.613274 0.182004 -0.229656
-0.626989 0.570032 -0.24131
-0.613274 -0.39117 0.035061
-0.626989 -0.080157 -0.336754
-0.626989 0.40601 -0.129239
-0.626989 0.351667 0.00607
-0.626989 -0.277112 -0.029299
-0.626989 0.637338 -0.011796
-0.613274 -0.185117 0.317897
-0.626989 0.051371 -0.406601
-0.613274 -0.215614 -0.128404
-0.613274 0.503775 0.040361
-0.613274 -0.089899 -0.286284
-0.613274 0.457713 -0.331322
-0.613274 -0.371879 0.266956
-0.626989 -0.234617 -0.367898
-0.613274 0.452313 0.050168
-0.613274 0.111339 -0.418719
-0.613274 -0.03915 -0.405829
-0.613274 -0.328664 -0.21376
-0.613274 0.495542 -0.27967
-0.626989 -0.394779 0.118833
-0.613274 0.65071 0.118214
-0.613274 -0.22336 -0.220974
-0.626989 -0.138752 -0.405641
-0.626989 0.030117 0.321634
-0.613274 0.053168 -0.023408
-0.613274 0.497882 0.358314
-0.613274 0.474901 -0.208963
-0.613274 -0.276833 0.324702
-0.626989 -0.330715 -0.42009
-0.613274 0.25072 -0.405645
-0.613274 0.480503 -0.058764
-0.613274 -0.124948 -0.009845
-0.626989 0.305036 -0.163093
-0.613274 -0.374885 -0.28122
-0.613274 0.530189 0.23751
-0.626989 -0.042316 -0.122413
-0.613274 -0.070702 0.313917
-0.626989 0.225389 0.156382
-0.613274 0.382802 -0.360437
-0.626989 0.449167 0.306797
-0.626989 -0.234441 -0.270155
-0.626989 -0.314199 -0.26449
-0.613274 0.644593 -0.285326
-0.626989 0.538688 0.010109
-0.626989 0.224482 -0.193956
-0.613274 0.240353 0.230221
-0.626989 0.677958 -0.241858
-0.613274 0.580803 -0.403746
-0.613274 0.262569 0.330851
-0.626989 0.13506 -0.182814
-0.626989 0.071546 0.21878
-0.626989 0.447862 0.127767
-0.626989 0.152308 -0.134497
-0.626989 0.125106 0.014894
-0.613274 0.088473 0.063449
-0.626989 0.327187 -0.109755
-0.626989 -0.040887 -0.018248
-0.613274 -0.271338 -0.13717
-0.613274 -0.315843 -0.057127
-0.613274 0.666599 0.317986
-0.613274 0.47198 -0.402786
-0.626989 0.286811 -0.249825
-0.613274 -0.217491 0.229334
-0.626989 0.185727 -0.280232
-0.626989 0.234077 -0.333979
-0.613274 0.307636 0.209205
-0.613274 -0.222688 -0.05872
-0.626989 -0.234182 0.139615
-0.626989 0.571261 0.218226
-0.626989 0.017714 -0.184733
-0.626989 0.391774 -0.407979
-0.613274 0.002554 -0.096618
-0.626989 -0.293532 0.226041
-0.613274 0.116638 0.119429
-0.626989 0.383702 0.054818
-0.626989 0.075569 -0.063104
-0.626989 0.52154 -0.038541
-0.613274 -0.147068 0.235079
-0.613274 -0.308726 -0.35691
-0.613274 0.241675 -0.087844
-0.626989 -0.059818 0.21776
-0.613274 0.35104 0.118225
-0.613274 -0.02796 0.293469
-0.613274 -0.226684 0.389474
-0.626989 -0.226027 -0.015606
-0.613274 -0.09981 0.126779
-0.626989 0.433026 0.236138
-0.626989 0.409922 -0.299043
-0.613274 0.59436 0.178502
-0.624503 0.214808 -0.456861
-0.613274 0.102198 0.38319
-0.613274 0.200145 0.298993
-0.613274 0.095998 -0.309344
-0.613274 -0.365313 0.158264
-0.613274 -0.034651 -0.362788
-0.626989 -0.219716 0.295868
-0.626989 0.512868 -0.453782
-0.626989 0.124686 0.348667
-0.613274 -0.326026 0.180138
-0.626989 -0.303825 0.267693
-0.626989 -0.056757 0.057663
-0.613274 -0.348816 -0.137558
-0.626989 -0.23767 0.068204
-0.626989 0.160117 -0.409668
-0.613274 0.415164 0.37671
-0.626989 -0.105329 -0.114959
-0.613274 0.329328 -0.258781
-0.613274 0.168499 0.062691
-0.626989 0.359939 0.296823
-0.613274 -0.146013 -0.245977
-0.613274 0.088811 0.275842
-0.613274 0.177445 0.161641
-0.626989 -0.123757 0.303678
-0.626989 0.329322 -0.34922
-0.613274 -0.115781 -0.354035
-0.613274 0.603289 -0.19836
-0.626989 0.284772 0.285094
-0.613274 0.245574 0.010738
-0.626989 0.616283 -0.115112
-0.626989 0.292579 -0.392371
-0.626989 0.14081 0.202807
-0.613274 0.34078 -0.031474
-0.613274 0.639566 0.259837
-0.626989 0.033826 0.059393
-0.626989 0.649209 -0.373976
-0.613274 0.3507 0.370379
-0.619916 0.692002 0.11457
-0.626989 0.600809 0.258272
-0.626989 -0.356907 0.327349
-0.626989 0.370273 0.170697
-0.626989 0.439134 -0.024959
-0.613274 0.604713 -0.293906
-0.626989 -0.386992 -0.361872
-0.626989 -0.352012 -0.249292
-0.626989 0.467496 -0.133404
-0.613274 0.025716 0.180252
-0.613274 -0.06536 0.255585
-0.626989 0.650174 0.050682
-0.613274 -0.173708 -0.297343
-0.613274 -0.329991 0.09664
-0.626989 -0.16296 -0.345711
-0.626989 0.539747 -0.153795
-0.626989 0.013561 -0.269894
-0.626989 -0.097482 0.055244
-0.613274 0.392899 0.226309
-0.626989 0.612561 -0.043351
-0.626989 0.602912 -0.45586
-0.626989 -0.239818 -0.411708
-0.626989 -0.386308 -0.066115
-0.613274 -0.16012 0.008724
-0.613274 0.384595 -0.094718
-0.626989 0.022448 0.104158
-0.613274 0.536321 0.336101
-0.626989 -0.27173 0.048255
-0.626989 -0.317746 0.347772
-0.613274 0.457007 0.010256
-0.613274 -0.173855 0.086751
-0.626989 0.301618 -0.437507
-0.613274 0.326124 0.032063
-0.613274 -0.395739 -0.131449
-0.626989 -0.095781 -0.031473
-0.613274 -0.290763 -0.292089
-0.626989 -0.110811 0.166
-0.613274 0.446355 -0.234952
-0.626989 -0.341751 0.022242
-0.613274 -0.033618 -0.160427
-0.626989 -0.124253 -0.276077
-0.626989 -0.181742 -0.219729
-0.613274 -0.287585 0.150169
-0.626989 0.06627 0.31008
-0.613274 0.319093 0.392052
-0.626989 -0.181594 0.22761
-0.626989 -0.216034 0.022286
-0.613274 0.268425 0.089941
-0.613274 -0.104985 -0.197605
-0.613274 0.537798 -0.322999
-0.613274 0.662484 -0.096059
-0.626989 0.053436 -0.196427
-0.626989 -0.351265 -0.052661
-0.62057 0.692002 0.042361
-0.626989 -0.151977 -0.039624
-0.626989 0.321037 0.352177
-0.626989 0.215284 0.264853
-0.613274 0.325765 -0.075183
-0.613274 0.008538 0.259067
-0.626989 0.286373 0.15101
-0.626989 0.353545 0.252603
-0.626989 -0.380727 0.220204
-0.613274 0.578433 -0.148286
-0.626989 0.584513 0.09491
-0.613274 -0.034479 0.192054
-0.626989 0.453201 -0.180515
-0.626989 0.406803 -0.336097
-0.626989 0.214841 -0.370937
-0.626989 0.615756 -0.261581
-0.626989 0.691447 -0.38684
-0.613274 0.085561 -0.179105
-0.626989 0.408733 0.331737
-0.613274 -0.253559 0.215593
-0.613274 0.278523 -0.035262
-0.626989 0.581892 -0.084813
-0.613274 -0.039477 0.131702
-0.613274 -0.290435 0.012704
-0.626989 0.686142 -0.154869
-0.613274 0.509068 0.271682
-0.626989 0.022371 -0.351353
-0.613274 0.192602 -0.026773
-0.613274 0.627928 0.020381
-0.626989 0.4982 -0.378154
-0.613274 0.557395 0.164568
-0.626989 0.109578 0.178909
-0.613274 0.223345 -0.160571
-0.613274 -0.152453 0.184579
-0.626989 0.259588 -0.293492
-0.626989 -0.238024 -0.154826
-0.613274 0.137073 0.265244
-0.613274 0.050403 0.362476
-0.626989 0.361899 -0.196897
-0.613274 -0.348822 -0.173328
-0.626989 -0.36483 -0.019607
-0.613274 0.213096 0.080991
-0.613274 0.116621 -0.347465
-0.626989 0.633769 0.392795
-0.626989 0.098197 -0.264667
-0.626989 -0.054152 0.384095
-0.613274 0.417005 -0.436551
-0.613274 0.271507 -0.110691
-0.626989 0.088066 0.142974
-0.626989 -0.315316 -0.08998
-0.613274 -0.29504 -0.203211
-0.613274 0.082283 -0.096468
-0.625296 0.638079 -0.456861
-0.613274 0.390177 -0.01757
-0.613274 0.169993 -0.358668
-0.613274 -0.032679 -0.091524
-0.626989 0.222465 -0.058481
-0.613274 0.562474 -0.015886
-0.613274 -0.040689 -0.280794
-0.613274 -0.384204 -0.238418
-0.626989 -0.09315 0.390367
-0.613274 0.460978 -0.366148
-0.613274 0.119071 -0.217104
-0.626989 0.298543 -0.197957
-0.626989 0.001419 0.046567
-0.626989 0.481153 -0.439456
-0.626989 -0.207945 0.262924
-0.626989 0.47586 -0.305091
-0.626989 0.529083 0.084324
-0.613274 0.662593 0.021128
-0.613274 0.237469 -0.224402
-0.626989 0.010112 0.373237
-0.613274 -0.294383 0.11626
-0.626989 -0.210798 0.091553
-0.613274 0.085528 -0.006402
-0.613274 0.062526 -0.377056
-0.626989 0.265756 -0.177134
-0.613274 0.294911 -0.328415
-0.626989 -0.155849 0.329373
-0.626989 0.655667 0.288514
-0.626989 -0.111839 -0.152649
-0.626989 0.498411 0.237437
-0.626989 -0.390029 -0.162153
-0.626989 0.450939 0.081358
-0.626989 0.53417 -0.271863
-0.626989 0.153959 0.366016
-0.626989 -0.278008 0.289752
-0.626989 -0.09335 0.222579
-0.626989 -0.200502 0.161576
-0.613274 0.414839 0.054191
-0.626989 0.018425 0.289288
-0.613274 0.329339 -0.310443
-0.613274 -0.070432 -0.10969
-0.626989 0.54863 -0.402218
-0.626989 0.532764 -0.363698
-0.626989 0.002693 -0.011171
-0.626989 -0.360659 -0.404752
-0.613274 -0.13758 0.270504
-0.626989 0.583792 0.038587
-0.626989 -0.057213 0.284978
-0.613274 0.159284 -0.296598
-0.626989 0.671089 -0.417053
-0.613274 -0.283553 -0.095631
-0.613274 -0.144388 -0.443465
-0.626989 -0.393327 0.375345
-0.613274 0.447274 -0.062442
-0.626989 0.154009 0.124874
-0.613274 -0.162454 0.121585
-0.613274 0.421642 0.149914
-0.626989 0.247723 -0.367816
-0.613274 0.023847 0.026572
-0.613274 0.052772 -0.315797
-0.626989 -0.308107 -0.122163
-0.626989 0.411186 -0.224582
-0.613274 0.078483 -0.419158
-0.613274 0.661203 -0.185718
-0.626989 0.055343 0.133914
-0.613274 -0.13511 0.3556
-0.613274 0.64604 -0.050032
-0.613274 0.211979 0.186793
-0.613274 -0.185093 -0.139906
-0.613274 -0.006577 0.221814
-0.613274 0.383153 0.022482
-0.626989 0.323765 0.107018
-0.626989 0.22657 -0.29098
-0.613274 -0.141506 -0.115893
-0.626989 0.501526 -0.248744
-0.626989 0.232341 0.31997
-0.613274 -0.255045 -0.058581
-0.613274 0.209908 0.027843
-0.626989 0.193155 -0.145484
-0.626989 0.646824 0.216217
-0.626989 0.129063 -0.28028
-0.626989 -0.223315 0.200789
-0.613274 -0.238012 -0.328651
-0.613274 0.544051 -0.079318
-0.626989 -0.118873 0.24201
-0.613274 0.67476 0.250199
-0.626989 -0.067649 0.138212
-0.626989 -0.066967 -0.26868
-0.613274 -0.291841 0.069004
-0.613274 0.615074 -0.370218
-0.613274 0.042112 -0.072258
-0.613274 0.061027 -0.244589
-0.613274 -0.024985 -0.047619
-0.626989 -0.059468 -0.220554
-0.613274 -0.244392 -0.29689
-0.613274 -0.246136 0.165478
-0.626989 0.282836 0.019935
-0.626989 -0.020264 -0.428459
-0.613274 -0.192617 -0.000681
-0.626989 -0.066261 -0.43159
-0.626989 0.073748 -0.138078
-0.613274 0.563219 -0.213764
-0.626989 -0.344318 0.260221
-0.613274 -0.111685 -0.250208
-0.626989 -0.104392 0.096892
-0.613274 -0.3287 -0.453574
-0.626989 0.690311 0.367329
-0.626989 -0.136421 -0.373217
-0.613274 0.135182 -0.013248
-0.613274 0.392403 0.188082
-0.613274 -0.162429 -0.068705
-0.613274 -0.071947 -0.046371
-0.626989 0.55211 0.1067
-0.613274 0.258319 0.361769
-0.613274 0.535857 -0.12502
-0.626989 0.119179 0.045482
-0.613274 0.258425 -0.059022
-0.613274 0.253083 0.159877
-0.613274 0.205076 -0.260128
-0.626989 -0.258942 -0.212129
-0.616286 0.032233 -0.456861
-0.626989 0.307599 0.173667
-0.626989 0.659561 0.185044
-0.613274 0.244152 0.261725
-0.626989 -0.265722 -0.455832
-0.613274 0.096537 0.095988
-0.613274 -0.012311 -0.33382
-0.613274 0.35986 -0.254242
-0.613274 0.208605 0.134518
-0.626989 0.175934 0.236517
-0.613274 -0.26093 0.365383
-0.613274 -0.170513 -0.183708
-0.613274 0.597482 -0.239481
-0.626989 0.429206 -0.1494
-0.626989 -0.206249 -0.405048
-0.613274 0.002618 -0.20769
-0.613274 0.472431 0.340563
-0.626989 0.413717 -0.099576
-0.613274 0.166433 -0.20328
-0.626989 0.528751 0.051594
-0.626989 0.60258 0.340227
-0.626989 0.38875 0.096856
-0.613672 -0.076952 -0.456861
-0.626989 -0.037552 0.024171
-0.626989 0.206917 0.22993
-0.613274 -0.08777 0.185075
-0.613274 0.506685 0.211453
-0.613274 -0.317343 0.211265
-0.613274 -0.060279 -0.174775
-0.613274 0.140133 -0.05999
-0.626989 0.543214 0.302239
-0.613274 0.453206 0.204616
-0.626989 0.220106 -0.113669
-0.626989 0.667957 -0.272139
-0.626989 0.509659 0.145685
-0.613274 0.318268 0.286776
-0.626989 0.663434 -0.026667
-0.613274 -0.246107 0.300051
-0.613274 0.583944 0.27907
-0.626989 -0.217048 -0.101787
-0.626989 -0.385388 -0.307975
-0.613274 0.02486 -0.122731
-0.626989 0.276721 -0.417705
-0.626989 0.400606 -0.158588
-0.626989 0.177612 -0.383991
-0.613274 0.200851 0.333655
-0.626989 0.287606 0.339285
-0.626989 -0.209549 -0.349549
-0.626989 -0.087574 -0.177752
-0.626989 0.599226 -0.324263
-0.626989 0.181925 -0.077208
-0.613274 0.509625 0.181873
-0.626989 0.357118 -0.441705
-0.626989 0.317429 0.072735
-0.613274 -0.022422 0.101605
-0.613274 0.167235 -0.261555
-0.613274 -0.228814 0.110605
-0.613274 0.265725 0.12469
-0.613274 0.573383 0.379788
-0.626989 0.473411 -0.257785
-0.613274 -0.247192 -0.247034
-0.626989 -0.104533 0.326059
-0.626989 0.467176 0.235348
-0.626989 0.594102 -0.354734
-0.613274 0.633527 -0.312612
-0.613274 0.438728 0.330669
-0.621597 -0.014807 -0.456861
-0.613274 0.30501 -0.096167
-0.626989 0.326951 -0.182678
-0.613274 0.313696 -0.138583
-0.626989 0.510337 0.335393
-0.613274 0.188694 -0.4311
-0.613274 0.514126 -0.182404
-0.613274 0.033491 -0.288916
-0.626989 -0.314074 -0.185584
-0.613274 -0.003074 0.309006
-0.626989 -0.057374 0.336152
-0.613274 0.66511 -0.445222
-0.613274 0.563096 0.193652
-0.613274 0.435487 -0.302793
-0.613274 0.371636 -0.391842
-0.626989 0.171979 0.190248
-0.626989 0.143425 0.301563
-0.626989 0.562917 0.246964
-0.613274 -0.095065 -0.09142
-0.613274 0.026059 -0.042458
-0.613274 0.342746 0.338613
-0.613274 0.104958 0.208963
-0.626989 0.486488 -0.090951
-0.613274 0.689107 0.194114
-0.615149 0.692002 -0.323285
-0.626989 0.390694 -0.198186
-0.613274 0.062888 0.050181
-0.613274 0.515442 -0.013975
-0.626989 -0.208347 -0.44316
-0.626989 0.654345 0.146446
-0.626989 0.354595 -0.335574
-0.626989 0.576617 0.352459
-0.613274 0.411945 -0.273926
-0.626989 0.518945 -0.077188
-0.626989 0.478159 0.179207
-0.613274 -0.400174 0.06225
-0.626989 0.481554 0.288581
-0.626989 0.581035 -0.428815
-0.613274 0.575001 -0.268133
-0.613274 -0.009656 -0.175936
-0.613274 -0.25382 -0.433816
-0.613274 -0.177797 0.151049
-0.613274 -0.158482 0.045108
-0.613274 -0.009287 0.178763
-0.626989 0.528317 -0.299919
-0.626989 -0.369583 0.04746
-0.613274 -0.271902 -0.264961
-0.626989 0.229385 -0.43133
-0.613274 0.322564 -0.373081
-0.626989 0.596005 -0.020362
-0.626989 -0.211928 -0.252984
-0.613274 0.510885 -0.138308
-0.613274 0.039868 0.153216
-0.626989 -0.348109 0.136707
-0.626989 0.611498 0.150417
-0.626989 0.509291 0.01211
-0.613274 0.499831 -0.310645
-0.626989 -0.153346 0.28935
-0.626989 -0.284625 0.347999
-0.626989 0.38759 -0.270841
-0.626989 0.133403 -0.400899
-0.626989 -0.316678 0.070337
-0.613274 -0.001176 0.119842
-0.626989 0.334275 -0.282663
-0.613274 0.071831 0.380417
-0.626989 -0.068604 -0.371578
-0.613274 0.432304 0.023295
-0.626989 0.491096 -0.19009
-0.613274 -0.002869 0.344985
-0.626989 0.610816 0.04513
-0.626989 -0.358386 0.287008
-0.613274 -0.12334 -0.225001
-0.626989 0.620459 0.191077
-0.613274 0.314461 -0.04018
-0.613274 0.363296 -0.172863
-0.626989 0.312955 0.143239
-0.626989 -0.037039 0.362338
-0.613274 0.343967 0.189017
-0.613274 0.68907 -0.220559
-0.613274 0.280791 0.310056
-0.626989 0.286241 -0.129475
-0.626989 0.627567 0.124061
