0.516764 0.329812 0.022609423387328683
0.613937 0.329812 -0.07088957661267131
0.496229 0.329812 0.0815654233873287
0.556594 0.335147 0.17602242338732868
0.704175 0.329812 0.22037042338732868
0.654352 0.357503 0.2725854233873287
0.587655 0.369474 0.2836764233873287
0.53832 0.360527 0.27531142338732867
0.612254 0.35759 0.2852784233873287
0.560755 0.367405 0.2810064233873287
0.556135 0.359268 0.25568042338732866
0.665581 0.358684 0.25376142338732866
0.639914 0.366109 0.2800594233873287
0.770761 0.372533 0.05619142338732868
0.770761 0.375072 0.1148964233873287
0.322619 0.429113 0.255242
0.335829 0.388651 0.247669
0.313168 0.373481 0.255242
0.336824 0.350109 0.23745
0.328067 0.433278 0.2339
0.847267 0.316592 0.134318
0.847267 0.356091 0.170241
0.833038 0.343641 -0.119667
0.833038 0.339957 0.089467
0.833038 0.309522 0.175443
0.847267 0.331329 0.045601
0.833038 0.286571 0.14834
0.847267 0.323862 -0.079157
0.847267 0.280453 0.184792
0.833038 0.318113 0.106476
0.833038 0.372703 0.19896
0.833038 0.347459 -0.088204
0.833038 0.302891 0.200336
0.833038 0.3465 0.150153
0.833038 0.26957 0.171052
0.847267 0.330132 0.152445
0.833038 0.369632 0.178864
0.847267 0.336339 -0.096731
0.833038 0.343813 0.172286
0.833038 0.332888 0.117155
0.833038 0.363932 0.157353
0.833038 0.30294 0.158632
0.793055 0.445417 0.212424
0.854381 0.460582 0.23288
0.854381 0.390137 0.215973
0.854381 0.320612 0.21315
0.811696 0.367882 0.213792
0.812384 0.285839 0.212557
0.823264 0.310019 0.2339
0.84637 0.436919 0.212557
0.82655 0.412108 0.212557
0.81878 0.38597 0.2339
0.832855 0.346366 0.212557
0.853636 0.336408 0.2339
0.827309 0.240024 0.212557
0.825364 0.423526 0.2339
0.812469 0.221294 0.212557
0.847365 0.311068 0.2339
0.835223 0.446831 0.2339
0.831418 0.322335 0.212557
0.854007 0.415541 0.212557
0.828054 0.333497 0.2339
0.845841 0.362814 0.212557
0.811696 0.262354 0.216318
0.811696 0.43663 0.215394
0.811696 0.205302 0.231171
0.814568 0.312195 0.212557
0.836631 0.378979 0.2339
0.829273 0.448064 0.212557
0.328823 0.407824 0.212557
0.356506 0.337733 0.2339
0.377066 0.375231 0.212557
0.381033 0.309528 0.2339
0.352993 0.313882 0.212557
0.38186 0.352977 0.2339
0.348799 0.383559 0.212557
0.369789 0.339158 0.212557
0.35458 0.361458 0.212557
0.381257 0.301453 0.212557
0.328182 0.414624 0.2339
0.372706 0.412157 0.2339
0.379427 0.397059 0.212557
0.314483 0.383724 0.212557
0.358859 0.31293 0.2339
0.335898 0.359915 0.212557
0.343363 0.379596 0.2339
0.652908 0.249086 0.212557
0.574827 0.250096 0.212557
0.78196 0.260012 0.212557
0.460809 0.239106 0.221096
0.538716 0.281791 0.213223
0.488619 0.27896 0.212557
0.434892 0.281791 0.214303
0.740231 0.239106 0.215948
0.689072 0.272023 0.212557
0.537739 0.25207 0.2339
0.584791 0.281791 0.231856
0.739527 0.274887 0.212557
0.708168 0.239106 0.224767
0.618225 0.245224 0.212557
0.51949 0.240361 0.212557
0.427978 0.263226 0.2339
0.757402 0.251686 0.2339
0.483645 0.257152 0.2339
0.6745 0.239106 0.225539
0.455008 0.264665 0.212557
0.596349 0.239106 0.225836
0.563414 0.281791 0.212965
0.646105 0.273944 0.212557
0.42135 0.241462 0.212557
0.64657 0.242505 0.2339
0.789473 0.281791 0.213421
0.668434 0.280829 0.212557
0.764522 0.273613 0.212557
0.779487 0.239106 0.215937
0.696304 0.251576 0.212557
0.718779 0.272206 0.212557
0.480113 0.281504 0.2339
0.746527 0.269025 0.2339
0.806883 0.239106 0.220025
0.766075 0.269102 0.2339
0.427671 0.281791 0.232076
0.43624 0.46676 0.230726
0.644246 0.45424 0.2339
0.775186 0.46676 0.212967
0.566074 0.46676 0.230137
0.380589 0.424075 0.213086
0.680533 0.455981 0.212557
0.717719 0.440358 0.212557
0.391682 0.46676 0.215966
0.608004 0.424075 0.225862
0.46082 0.425961 0.212557
0.475119 0.46676 0.225192
0.56238 0.424075 0.232793
0.50214 0.424075 0.229631
0.420313 0.441609 0.212557
0.53544 0.46676 0.220578
0.64073 0.424075 0.22418
0.589605 0.46676 0.212982
0.760414 0.441693 0.212557
0.624675 0.45514 0.212557
0.321242 0.43949 0.212557
0.404774 0.424075 0.226284
0.716834 0.46676 0.214247
0.771573 0.424075 0.23001
0.573624 0.445827 0.212557
0.693205 0.433605 0.212557
0.453042 0.43308 0.2339
0.517596 0.428925 0.212557
0.622904 0.46676 0.232803
0.744879 0.424075 0.21547
0.547883 0.453617 0.2339
0.483879 0.432895 0.212557
0.790804 0.43722 0.2339
0.616856 0.442608 0.2339
0.752124 0.46676 0.22488
0.533142 0.443306 0.212557
0.584129 0.451912 0.2339
0.807031 0.46676 0.228065
0.664739 0.444619 0.212557
0.438579 0.446625 0.212557
0.493874 0.46676 0.222683
0.379816 0.461792 0.2339
0.458791 0.464794 0.2339
0.425238 0.424075 0.217417
0.519191 0.453603 0.2339
0.481394 0.299827 -0.256979
0.416146 0.316602 -0.256979
0.41132 0.27645 -0.256979
0.388075 0.336396 -0.246307
0.449802 0.29266 -0.246307
0.373335 0.297411 -0.246307
0.421332 0.360035 -0.246307
0.385507 0.266846 -0.256979
0.389246 0.362165 -0.256979
0.472753 0.321423 -0.246307
0.395829 0.294641 -0.256979
0.36263 0.34272 -0.246307
0.433441 0.326053 -0.246307
0.367959 0.320993 -0.246307
0.430191 0.342768 -0.256979
0.423626 0.266641 -0.246307
0.428791 0.28263 -0.256979
0.432023 0.297892 -0.246307
0.388457 0.307689 -0.246307
0.370514 0.277276 -0.256979
0.455459 0.316704 -0.246307
-0.8085269480090477 0.25215199999999993 0.33575412739444355
-0.7839375292829823 0.25458099999999995 0.3529747082996925
-0.697363 0.400418 0.31260455140164334
-0.403358 0.452996 0.3169395514016433
-0.447556 0.358342 0.27485455140164333
-0.358639 0.272528 0.31447555140164335
-0.52549 0.28167 0.29619755140164333
-0.791167 0.400675 0.31561455140164335
-0.657356 0.324485 0.3148645514016433
-0.785845 0.301279 0.31753955140164336
-0.591615 0.384054 0.27485455140164333
-0.474415 0.414783 0.31753955140164336
-0.38385 0.38146 0.31753955140164336
-0.51937 0.37564 0.27485455140164333
-0.419792 0.303271 0.31753955140164336
-0.590434 0.315583 0.27611455140164337
-0.726563 0.342973 0.29936155140164333
-0.573035 0.43225 0.31753955140164336
-0.633423 0.411156 0.31753955140164336
-0.839319 0.362439 0.3166845514016433
-0.473507 0.312128 0.29619755140164333
-0.678804 0.357455 0.27485455140164333
-0.707992 0.28301 0.31753955140164336
-0.519566 0.332895 0.30671155140164336
-0.802738 0.460931 0.3090325514016434
-0.578462 0.291307 0.31753955140164336
-0.631562 0.342793 0.27485455140164333
-0.742654 0.441222 0.31753955140164336
-0.643596 0.396305 0.27485455140164333
-0.649278 0.457028 0.3136715514016433
-0.740154 0.388021 0.30671155140164336
-0.564562 0.347049 0.29619755140164333
-0.484429 0.35875 0.29936155140164333
-0.429113 0.382704 0.30671155140164336
-0.614067 0.317879 0.31753955140164336
-0.52248 0.401702 0.31401755140164334
-0.36594 0.432046 0.31753955140164336
-0.407936 0.345998 0.31115155140164336
-0.649207 0.281729 0.31753955140164336
-0.372395 0.312213 0.31753955140164336
-0.67044 0.315583 0.27599755140164334
-0.689159 0.447501 0.31753955140164336
-0.549659 0.400954 0.28404555140164334
-0.823238 0.42503 0.31753955140164336
-0.446683 0.273615 0.31474355140164334
-0.770027 0.265978 0.2981275514016434
-0.603378 0.45735 0.3134205514016433
-0.500926 0.443618 0.31753955140164336
-0.757621 0.3198 0.29619755140164333
-0.547805 0.315583 0.28093155140164333
-0.463608 0.451265 0.31753955140164336
-0.350934 0.36295 0.29619755140164333
-0.813152 0.327322 0.31753955140164336
-0.457838 0.400954 0.28685555140164337
-0.601702 0.350856 0.29619755140164333
-0.694442 0.327911 0.3092855514016434
-0.813666 0.266501 0.30944855140164335
-0.582446 0.398974 0.30671155140164336
-0.756357 0.355687 0.27485455140164333
-0.847026 0.399085 0.30934655140164335
-0.44383 0.341946 0.30671155140164336
-0.737357 0.302152 0.31753955140164336
-0.620403 0.381338 0.30671155140164336
-0.696553 0.36679 0.30671155140164336
-0.71388 0.391671 0.27485455140164333
-0.485327 0.381639 0.27485455140164333
-0.503946 0.29397 0.31753955140164336
-0.670561 0.400954 0.29398255140164337
-0.550263 0.307258 0.31753955140164336
-0.62997 0.299587 0.29619755140164333
-0.847687 0.328768 0.29969055140164336
-0.680677 0.292841 0.29619755140164333
-0.787018 0.434576 0.31753955140164336
-0.377349 0.346178 0.31753955140164336
-0.479695 0.273956 0.3148275514016433
-0.514055 0.331679 0.27485455140164333
-0.388111 0.436759 0.29619755140164333
-0.584838 0.328033 0.30791955140164334
-0.815623 0.372177 0.29619755140164333
-0.713301 0.360765 0.27485455140164333
-0.64468 0.428746 0.29619755140164333
-0.48236 0.434939 0.29619755140164333
-0.497406 0.400954 0.29345555140164337
-0.449829 0.315583 0.27910755140164334
-0.35672 0.459213 0.3119745514016434
-0.409059 0.400789 0.29619755140164333
-0.605717 0.281639 0.31753955140164336
-0.55586 0.405249 0.31572655140164335
-0.398973 0.300505 0.29619755140164333
-0.787692 0.360059 0.31379155140164333
-0.624059 0.375406 0.27485455140164333
-0.460475 0.372371 0.30671155140164336
-0.447884 0.402594 0.3147565514016433
-0.63643 0.355523 0.29936155140164333
-0.837018 0.283954 0.31753955140164336
-0.752079 0.415154 0.31753955140164336
-0.660753 0.411956 0.31753955140164336
-0.587185 0.372111 0.30671155140164336
-0.742622 0.276663 0.29619755140164333
-0.758756 0.285648 0.31753955140164336
-0.847687 0.438979 0.30173055140164334
-0.554582 0.371771 0.29619755140164333
-0.631737 0.326001 0.29619755140164333
-0.823779 0.408054 0.29619755140164333
-0.499281 0.317724 0.29619755140164333
-0.659393 0.339333 0.27485455140164333
-0.613008 0.411569 0.29619755140164333
-0.5774 0.305895 0.29619755140164333
-0.595212 0.271787 0.29619755140164333
-0.710206 0.422164 0.31753955140164336
-0.733478 0.315583 0.28835855140164335
-0.757459 0.360116 0.30671155140164336
-0.427848 0.445461 0.31753955140164336
-0.471915 0.347484 0.27485455140164333
-0.716314 0.382969 0.29936155140164333
-0.78248 0.449808 0.29619755140164333
-0.565426 0.360448 0.27485455140164333
-0.603366 0.307976 0.29619755140164333
-0.66989 0.347795 0.29619755140164333
-0.50939 0.461424 0.30064655140164337
-0.673624 0.461424 0.30426355140164335
-0.474621 0.460726 0.2972745514016433
-0.720057 0.453569 0.31474955140164335
-0.432414 0.318143 0.29619755140164333
-0.404888 0.277307 0.31753955140164336
-0.477101 0.388611 0.29936155140164333
-0.419204 0.406384 0.31753955140164336
-0.670725 0.38615 0.27485455140164333
-0.533342 0.384123 0.29619755140164333
-0.4451 0.320547 0.31753955140164336
-0.43265 0.400954 0.28768455140164334
-0.659693 0.28011 0.29619755140164333
-0.510347 0.370559 0.29936155140164333
-0.750069 0.451386 0.29619755140164333
-0.408121 0.372483 0.31047055140164337
-0.614796 0.425707 0.31753955140164336
-0.800404 0.294607 0.29619755140164333
-0.618036 0.323499 0.27485455140164333
-0.569572 0.422961 0.29619755140164333
-0.381398 0.277521 0.31753955140164336
-0.637868 0.305184 0.31753955140164336
-0.477405 0.287983 0.29619755140164333
-0.781891 0.274132 0.31659755140164336
-0.820026 0.399219 0.31753955140164336
-0.453407 0.295687 0.31753955140164336
-0.391797 0.428767 0.31753955140164336
-0.826922 0.293515 0.29619755140164333
-0.636638 0.271647 0.29619755140164333
-0.839113 0.382276 0.29619755140164333
-0.542773 0.3277 0.31093755140164336
-0.46276 0.334992 0.29619755140164333
-0.420713 0.442221 0.29619755140164333
-0.346698 0.423298 0.30915855140164333
-0.727907 0.403904 0.29619755140164333
-0.661889 0.310054 0.29619755140164333
-0.350815 0.304586 0.29619755140164333
-0.648897 0.37515 0.29619755140164333
-0.700295 0.315583 0.28720555140164333
-0.455418 0.282746 0.29619755140164333
-0.75506 0.325685 0.27485455140164333
-0.736213 0.276855 0.31753955140164336
-0.52894 0.303616 0.29619755140164333
-0.67034 0.369772 0.29936155140164333
-0.753447 0.391827 0.27485455140164333
-0.794331 0.265787 0.29879255140164335
-0.503483 0.321381 0.31753955140164336
-0.537326 0.347751 0.29619755140164333
-0.471798 0.316682 0.27485455140164333
-0.574431 0.400954 0.28645755140164336
-0.836082 0.448567 0.31753955140164336
-0.724135 0.36399 0.30671155140164336
-0.516927 0.435003 0.29619755140164333
-0.525635 0.29218 0.31753955140164336
-0.559216 0.381304 0.27485455140164333
-0.600148 0.346941 0.27485455140164333
-0.541744 0.437172 0.31753955140164336
-0.564094 0.323012 0.29619755140164333
-0.678354 0.440871 0.29619755140164333
-0.643355 0.397492 0.29619755140164333
-0.44009 0.362875 0.29936155140164333
-0.814456 0.44444 0.31753955140164336
-0.567621 0.452752 0.31723655140164336
-0.762797 0.399221 0.30865555140164336
-0.507118 0.398401 0.27485455140164333
-0.652196 0.332887 0.29619755140164333
-0.516285 0.267503 0.31131555140164335
-0.615993 0.449109 0.29619755140164333
-0.830544 0.315766 0.31753955140164336
-0.533259 0.405128 0.29619755140164333
-0.352563 0.317316 0.31439655140164335
-0.718238 0.429065 0.29619755140164333
-0.602074 0.330213 0.29619755140164333
-0.544569 0.335464 0.27485455140164333
-0.472149 0.266562 0.2971835514016434
-0.569504 0.382134 0.30671155140164336
-0.557995 0.300324 0.29619755140164333
-0.49207 0.346744 0.27485455140164333
-0.545397 0.278446 0.29619755140164333
-0.491443 0.340125 0.29619755140164333
-0.708603 0.400954 0.29216755140164336
-0.491542 0.377003 0.30671155140164336
-0.680091 0.318097 0.29619755140164333
-0.463541 0.312584 0.31753955140164336
-0.601467 0.366406 0.27485455140164333
-0.346252 0.378753 0.30655655140164334
-0.595414 0.427475 0.31753955140164336
-0.457938 0.432654 0.31753955140164336
-0.620422 0.337824 0.30671155140164336
-0.483858 0.400954 0.27493055140164335
-0.713194 0.3268 0.29619755140164333
-0.466883 0.387339 0.27485455140164333
-0.840976 0.266713 0.30984455140164335
-0.530247 0.32145 0.27485455140164333
-0.531848 0.390137 0.27485455140164333
-0.752047 0.326631 0.31289655140164335
-0.606805 0.373706 0.29619755140164333
-0.706602 0.350987 0.30671155140164336
-0.446018 0.385037 0.29936155140164333
-0.786383 0.453099 0.31650055140164335
-0.73381 0.349262 0.27485455140164333
-0.689508 0.384705 0.30671155140164336
-0.431283 0.286427 0.29619755140164333
-0.426926 0.461191 0.30813055140164336
-0.784178 0.409777 0.29619755140164333
-0.597392 0.310352 0.31753955140164336
-0.846414 0.346847 0.31048655140164333
-0.660259 0.43818 0.29619755140164333
-0.575931 0.265786 0.2991005514016434
-0.516307 0.390295 0.29619755140164333
-0.654156 0.412017 0.29619755140164333
-0.578579 0.329172 0.27485455140164333
-0.768115 0.304661 0.31753955140164336
-0.447462 0.39238 0.27485455140164333
-0.415841 0.311263 0.29619755140164333
-0.801729 0.313507 0.31753955140164336
-0.77607 0.315583 -0.038110448598356654
-0.790774 0.374776 0.08605155140164335
-0.769431 0.384975 -0.004394448598356658
-0.774217 0.315583 0.03862655140164334
-0.790774 0.378735 -0.06788444859835666
-0.790774 0.375821 0.15922755140164335
-0.769431 0.386253 0.2605475514016434
-0.789246 0.315583 0.09125755140164335
-0.782308 0.400954 0.21241655140164334
-0.790774 0.343146 0.29090355140164337
-0.780046 0.400954 0.12222955140164335
-0.790774 0.358332 0.03216355140164334
-0.790774 0.33621 0.19142455140164333
-0.790774 0.319338 0.2512565514016433
-0.790774 0.350979 0.12450055140164334
-0.790774 0.317763 -0.08368644859835667
-0.790774 0.346779 -0.00764344859835666
-0.769431 0.349952 -0.08371444859835667
-0.769431 0.341985 0.06660555140164334
-0.772675 0.377934 0.29619755140164333
-0.790774 0.353736 0.25768255140164337
-0.790774 0.355477 -0.04271544859835665
-0.769431 0.350297 0.15383155140164334
-0.769431 0.400171 0.07472555140164334
-0.779419 0.315583 -0.002917448598356652
-0.790774 0.400113 0.28209855140164336
-0.790774 0.378718 0.23360255140164335
-0.769431 0.370765 0.046701551401643344
-0.769431 0.354289 0.22540055140164333
-0.790774 0.387254 0.18902755140164335
-0.769431 0.36767 0.10327255140164335
-0.790774 0.374047 -0.09605944859835666
-0.769431 0.373399 -0.04356944859835666
-0.77044 0.315583 0.18146055140164336
-0.790774 0.347313 0.08398855140164334
-0.769431 0.377152 0.12972455140164335
-0.790774 0.379354 0.01504455140164334
-0.790774 0.324182 0.12693555140164334
-0.786962 0.317762 0.29619755140164333
-0.774118 0.400954 0.14771555140164333
-0.769431 0.358654 -0.016938448598356658
-0.769431 0.3786 0.21484155140164335
-0.790774 0.331461 0.025811551401643346
-0.790774 0.364201 0.06266255140164334
-0.790774 0.340949 -0.06379944859835665
-0.790774 0.399219 0.08792055140164334
-0.774309 0.400954 0.23532155140164335
-0.790774 0.37431 0.11822355140164334
-0.780738 0.400954 -0.06273344859835667
-0.769431 0.399287 0.09843055140164333
-0.769431 0.339046 0.25465155140164336
-0.790774 0.349454 -0.09339944859835667
-0.769431 0.373536 0.16847355140164336
-0.790774 0.3439 0.15851155140164333
-0.769431 0.34869 -0.03867244859835666
-0.790774 0.378756 0.25997755140164336
-0.769431 0.327817 -0.08278644859835665
-0.76964 0.400954 0.28768355140164337
-0.769431 0.320806 0.06186755140164334
-0.769431 0.321275 0.08731855140164335
-0.769431 0.362681 0.24420755140164332
-0.783562 0.400954 0.25772955140164333
-0.769431 0.357523 0.0030645514016433423
-0.769431 0.337553 -0.006864448598356658
-0.790774 0.383985 0.13564355140164333
-0.769431 0.343632 0.09749855140164335
-0.775149 0.341245 -0.10219644859835667
-0.769431 0.390536 -0.07658344859835667
-0.769431 0.378295 0.06446955140164334
-0.790774 0.381637 0.29095055140164333
-0.774488 0.315583 0.019483551401643345
-0.790774 0.362155 -0.07695044859835667
-0.790774 0.346876 0.04718255140164335
-0.790774 0.363807 0.10279755140164334
-0.772776 0.315583 0.13598655140164334
-0.769431 0.380447 0.013551551401643346
-0.769431 0.367939 0.2630495514016434
-0.773222 0.344735 0.29619755140164333
-0.769431 0.37521 0.15027655140164334
-0.769431 0.343162 0.27704355140164333
-0.790774 0.325606 -0.05408644859835666
-0.790774 0.371605 0.17673655140164335
-0.790774 0.382931 0.03264655140164334
-0.403051 0.387856 -0.07349444859835666
-0.403051 0.393559 0.04551055140164334
-0.415878 0.315583 0.11464055140164334
-0.41352 0.315583 -0.015610448598356662
-0.403051 0.324198 0.20223455140164334
-0.403051 0.318741 -0.08625244859835665
-0.424393 0.376825 0.10383055140164335
-0.424393 0.375979 -0.01335144859835665
-0.403051 0.357647 0.14458555140164334
-0.419961 0.315583 0.27217955140164335
-0.403051 0.316925 0.059460551401643344
-0.404411 0.315583 0.15720855140164333
-0.403051 0.350716 -0.034725448598356655
-0.424393 0.365704 0.024595551401643344
-0.403051 0.35397 0.2573605514016433
-0.406672 0.353188 -0.10219644859835667
-0.424393 0.344001 0.07452255140164335
-0.406266 0.400954 0.12534955140164333
-0.423179 0.400954 -0.039553448598356654
-0.403051 0.345182 0.0015365514016433407
-0.417713 0.315583 0.025361551401643347
-0.403051 0.37215 0.07755655140164334
-0.424393 0.362895 -0.05747444859835666
-0.424393 0.373957 0.22713555140164335
-0.424031 0.400954 0.06996955140164335
-0.403051 0.319492 -0.054470448598356654
-0.403051 0.347059 0.05102955140164334
-0.424393 0.380736 0.14069955140164334
-0.424393 0.395839 0.022869551401643345
-0.408862 0.400954 -0.008497448598356654
-0.403051 0.335312 0.2831435514016433
-0.403051 0.347845 -0.06790544859835668
-0.424393 0.3242 0.22729555140164334
-0.424393 0.352669 0.28904955140164335
-0.424071 0.315583 0.18054155140164335
-0.424393 0.342107 0.10171755140164335
-0.424393 0.369312 0.25956055140164336
-0.424393 0.318586 0.07778655140164334
-0.424393 0.352055 0.24042755140164335
-0.424393 0.331746 0.006749551401643343
-0.403051 0.384172 0.017354551401643346
-0.403051 0.382037 0.16085355140164334
-0.408853 0.400954 -0.10046344859835665
-0.403051 0.377745 0.11786355140164334
-0.424393 0.377018 0.06499755140164334
-0.424393 0.356206 -0.08613844859835668
-0.403051 0.367876 0.28693055140164336
-0.424393 0.34211 0.19615155140164334
-0.424393 0.317646 -0.04411344859835666
-0.403051 0.345865 0.17705355140164333
-0.403051 0.33446 0.10543255140164334
-0.403051 0.371103 0.23423855140164335
-0.424393 0.330443 0.25634855140164337
-0.403051 0.373019 0.053599551401643346
-0.403051 0.386522 -0.02410144859835666
-0.403051 0.398095 0.07504955140164335
-0.403051 0.367094 0.09898555140164333
-0.403051 0.350321 0.21339155140164334
-0.403051 0.369057 -0.06294444859835666
-0.418151 0.315583 -0.10103644859835667
-0.424393 0.393367 0.04628255140164334
-0.403051 0.347021 0.12606455140164335
-0.403051 0.329334 0.14109855140164335
-0.424393 0.362602 0.13120855140164334
-0.403051 0.331726 -0.021134448598356663
-0.403051 0.342568 0.15814255140164335
-0.418856 0.315583 -0.06408744859835666
-0.410041 0.315583 0.00812055140164334
-0.408485 0.315583 -0.033628448598356654
-0.403051 0.352477 0.23285155140164335
-0.420213 0.337962 -0.10219644859835667
-0.403051 0.328619 0.18364555140164335
-0.409924 0.315583 0.22022955140164333
-0.403051 0.341635 -0.08863544859835668
-0.424393 0.383122 0.28916155140164335
-0.414908 0.315583 0.14157855140164335
-0.556611 0.364893 -0.08085444859835667
-0.735097 0.388563 -0.10219644859835667
-0.656281 0.333801 -0.10219644859835667
-0.478953 0.316772 -0.08085444859835667
-0.479034 0.395815 -0.10219644859835667
-0.623421 0.397117 -0.10219644859835667
-0.752916 0.319714 -0.10219644859835667
-0.598664 0.315583 -0.08774744859835668
-0.677424 0.400954 -0.08217644859835666
-0.449237 0.357116 -0.08085444859835667
-0.525038 0.315583 -0.10009344859835667
-0.526584 0.400954 -0.08528544859835666
-0.71002 0.349818 -0.10219644859835667
-0.600888 0.357643 -0.08085444859835667
-0.496132 0.348615 -0.10219644859835667
-0.582646 0.395116 -0.08085444859835667
-0.430674 0.389349 -0.10219644859835667
-0.644943 0.372441 -0.08085444859835667
-0.448582 0.315583 -0.10215144859835668
-0.561991 0.315583 -0.08339844859835666
-0.703241 0.315583 -0.09704044859835667
-0.633054 0.319229 -0.08085444859835667
-0.671503 0.366497 -0.10219644859835667
-0.698843 0.374627 -0.08085444859835667
-0.537964 0.338905 -0.08085444859835667
-0.497151 0.372124 -0.08085444859835667
-0.627436 0.344986 -0.10219644859835667
-0.588769 0.34002 -0.10219644859835667
-0.758979 0.37109 -0.10219644859835667
-0.527525 0.365525 -0.08085444859835667
-0.550853 0.382618 -0.10219644859835667
-0.709082 0.400954 -0.08240144859835666
-0.506755 0.385644 -0.10219644859835667
-0.55944 0.348885 -0.10219644859835667
-0.750925 0.386677 -0.08085444859835667
-0.525373 0.34771 -0.10219644859835667
-0.463276 0.353519 -0.10219644859835667
-0.46764 0.3879 -0.08085444859835667
-0.438701 0.338562 -0.10219644859835667
-0.610423 0.366083 -0.10219644859835667
-0.500969 0.396217 -0.08085444859835667
-0.693169 0.351747 -0.08085444859835667
-0.639704 0.380292 -0.10219644859835667
-0.642577 0.400954 -0.08959744859835667
-0.560404 0.400954 -0.08086044859835667
-0.711263 0.336765 -0.08085444859835667
-0.663489 0.315583 -0.08710144859835667
-0.753036 0.349062 -0.10219644859835667
-0.573406 0.382092 -0.10219644859835667
-0.488911 0.348394 -0.08085444859835667
-0.626332 0.318636 -0.10219644859835667
-0.586593 0.362162 -0.10219644859835667
-0.577018 0.373434 -0.08085444859835667
-0.650286 0.360459 -0.10219644859835667
-0.592238 0.400954 -0.09948044859835667
-0.43033 0.385659 -0.08085444859835667
-0.662798 0.385775 -0.10219644859835667
-0.492198 0.37051 -0.10219644859835667
-0.492156 0.315583 -0.09699044859835668
-0.642312 0.351804 -0.08085444859835667
-0.583936 0.315583 -0.10099044859835665
-0.450855 0.378069 -0.08085444859835667
-0.560282 0.319834 -0.10219644859835667
-0.604395 0.328619 -0.10219644859835667
-0.723808 0.351129 -0.08085444859835667
-0.449659 0.390212 -0.10219644859835667
-0.732388 0.390519 -0.08085444859835667
-0.582713 0.32503 -0.08085444859835667
-0.767237 0.367801 -0.08085444859835667
-0.496991 0.400954 -0.10170344859835667
-0.505712 0.329812 0.05684955140164334
-0.674276 0.329812 -0.006292448598356655
-0.550629 0.335147 0.20433055140164333
-0.651138 0.335147 0.12686655140164335
-0.653804 0.335147 0.23204455140164335
-0.604028 0.329812 0.05061355140164334
-0.752806 0.335147 0.23857355140164332
-0.720531 0.335147 0.07003055140164334
-0.561317 0.329812 0.12016555140164334
-0.485859 0.329812 0.14303255140164334
-0.587228 0.329812 -0.022747448598356652
-0.701913 0.335147 0.18296755140164334
-0.484318 0.329812 0.21714855140164332
-0.511332 0.335147 -0.009853448598356664
-0.442273 0.335147 0.041797551401643346
-0.707798 0.329812 -0.05921044859835666
-0.726236 0.335147 0.12893855140164334
-0.735792 0.335147 -0.0007954485983566531
-0.603193 0.329812 0.16061855140164336
-0.553121 0.329812 0.02333755140164334
-0.639672 0.329812 -0.04694644859835665
-0.652702 0.329812 0.07053455140164334
-0.602575 0.335147 0.22504355140164334
-0.702724 0.329812 0.23984855140164332
-0.447619 0.329812 0.18113355140164333
-0.528914 0.329812 0.24770455140164332
-0.542996 0.335147 -0.04540744859835665
-0.531637 0.335147 0.15670755140164333
-0.606833 0.335147 0.11051455140164335
-0.463333 0.335147 0.08217255140164334
-0.449006 0.329812 -0.045049448598356655
-0.631672 0.335147 0.003959551401643342
-0.545784 0.329812 0.07489655140164335
-0.447689 0.329812 0.24196655140164333
-0.678701 0.329812 0.03673955140164334
-0.658335 0.335147 0.16750155140164336
-0.483891 0.329812 0.26076255140164334
-0.484659 0.329812 0.022110551401643343
-0.751006 0.329812 0.09599855140164334
-0.68973 0.335147 0.09538355140164334
-0.496521 0.329812 0.10269955140164334
-0.743914 0.335147 -0.038498448598356654
-0.43897 0.335147 0.14508455140164334
-0.468007 0.335147 -0.01343044859835666
-0.509043 0.335147 -0.06057344859835665
-0.50785 0.335147 0.18496755140164334
-0.73895 0.335147 0.03593855140164334
-0.733239 0.329812 0.16517455140164333
-0.756646 0.329812 0.20143655140164335
-0.620268 0.329812 0.19229055140164333
-0.564069 0.329812 0.24179255140164332
-0.673421 0.329812 -0.07228244859835667
-0.725913 0.335147 0.26576155140164337
-0.668488 0.329812 0.20149955140164333
-0.737623 0.335147 -0.07511244859835667
-0.529223 0.335147 0.11314755140164334
-0.581575 0.335147 0.08907955140164334
-0.583073 0.329812 -0.06263744859835665
-0.431492 0.329812 -0.07486844859835667
-0.461113 0.329812 0.12335255140164333
-0.686411 0.329812 0.12621755140164334
-0.583197 0.335147 0.18420355140164335
-0.449708 0.329812 0.011473551401643342
-0.573377 0.329812 0.05661155140164334
-0.697873 0.335147 -0.030134448598356657
-0.601032 0.329812 0.005986551401643343
-0.473951 0.329812 0.053431551401643344
-0.706745 0.335147 0.02452955140164334
-0.622396 0.329812 0.13680655140164336
-0.618558 0.329812 0.25037655140164333
-0.646172 0.335147 0.03059455140164334
-0.609972 0.329812 0.08059155140164334
-0.681374 0.335147 0.06706655140164335
-0.435113 0.335147 -0.02048044859835666
-0.584503 0.329812 0.029590551401643343
-0.512914 0.329812 0.21700655140164335
-0.549102 0.329812 0.17736855140164334
-0.768841 0.335147 0.01298455140164334
-0.612811 0.329812 -0.04282644859835665
-0.728532 0.329812 0.22765255140164334
-0.692524 0.329812 0.27155855140164337
-0.667323 0.335147 -0.03117844859835666
-0.688292 0.329812 0.16123755140164334
-0.515171 0.329812 0.13716855140164333
-0.632454 0.335147 0.10611355140164334
-0.76753 0.335147 0.11522555140164334
-0.670771 0.335147 0.25196455140164337
-0.758324 0.335147 -0.05974044859835665
-0.488314 0.329812 -0.027966448598356654
-0.589664 0.329812 0.12859055140164335
-0.460409 0.329812 0.15769155140164334
-0.721528 0.329812 0.19797755140164333
-0.523349 0.335147 0.01218655140164334
-0.501341 0.329812 0.23914255140164334
-0.542838 0.335147 0.04523355140164334
-0.536659 0.335147 -0.021633448598356662
-0.517488 0.335147 0.09118255140164334
-0.725633 0.335147 0.10454555140164334
-0.471813 0.335147 0.17843055140164335
-0.650166 0.335147 -0.06987344859835667
-0.471359 0.335147 -0.05070644859835665
-0.437958 0.335147 0.27364855140164335
-0.671031 0.329812 0.14362055140164334
-0.552059 0.329812 0.00019255140164334272
-0.453209 0.335147 -0.06904044859835667
-0.761554 0.329812 -0.02468244859835666
-0.543213 0.329812 0.13424255140164335
-0.686341 0.329812 0.21582355140164333
-0.620374 0.329812 -0.015200448598356654
-0.748268 0.329812 0.12644355140164334
-0.652823 0.335147 -0.013644448598356652
-0.561962 0.335147 0.26378555140164334
-0.758693 0.329812 0.15823355140164333
-0.526669 0.335147 0.06375855140164334
-0.450581 0.335147 0.06289955140164334
-0.631387 0.335147 0.17327855140164333
-0.499116 0.329812 0.16504455140164334
-0.631464 0.335147 0.23294255140164333
-0.576623 0.335147 0.009401551401643345
-0.525108 0.329812 0.19792655140164334
-0.723421 0.335147 -0.030210448598356664
-0.547138 0.329812 0.10141355140164335
-0.565952 0.335147 -0.021452448598356662
-0.563345 0.335147 -0.07068444859835665
-0.614986 0.329812 -0.07436744859835667
-0.446857 0.335147 0.22099255140164334
-0.638499 0.329812 0.049969551401643345
-0.445194 0.335147 0.09348755140164335
-0.591657 0.335147 0.06719755140164334
-0.687288 0.335147 -0.056705448598356654
-0.663223 0.329812 -0.053666448598356654
-0.481395 0.335147 0.12029555140164334
-0.473276 0.329812 0.19887855140164334
-0.739046 0.329812 0.07851355140164334
-0.592042 0.329812 0.2606925514016433
-0.469173 0.335147 0.10227555140164335
-0.467909 0.335147 0.24249255140164333
-0.602884 0.335147 0.20426855140164335
-0.517341 0.329812 0.03965755140164334
-0.566755 0.329812 0.14003455140164334
-0.668365 0.329812 0.01334455140164334
-0.681476 0.335147 0.18419755140164334
-0.63009 0.329812 0.08111755140164334
-0.573042 0.329812 0.20057555140164335
-0.531374 0.329812 -0.060757448598356655
-0.671949 0.335147 0.08467255140164334
-0.692889 0.329812 -0.07736644859835667
-0.578117 0.335147 -0.03959344859835665
-0.710935 0.329812 -0.015741448598356654
-0.698623 0.335147 0.07765455140164335
-0.768243 0.335147 0.032672551401643345
-0.579585 0.329812 0.11177155140164334
-0.562966 0.329812 0.08855855140164334
-0.442573 0.335147 0.12407955140164334
-0.724228 0.335147 0.24551555140164333
-0.6449 0.335147 0.14489955140164335
-0.705708 0.329812 0.22100355140164335
-0.466213 0.329812 0.03600155140164334
-0.691909 0.329812 0.050295551401643344
-0.683879 0.335147 0.23381455140164334
-0.7254 0.335147 0.14881355140164335
-0.69243 0.329812 -0.0012974485983566555
-0.718231 0.329812 0.0033105514016433454
-0.751214 0.329812 0.01603855140164334
-0.492998 0.335147 -0.008092448598356651
-0.504625 0.335147 0.12305555140164334
-0.722403 0.335147 0.04377455140164334
-0.588048 0.329812 0.14679855140164336
-0.427614 0.335147 0.05264455140164334
-0.604666 0.335147 -0.02281144859835666
-0.433311 0.329812 -0.05427544859835665
-0.742184 0.329812 0.2599375514016434
-0.440131 0.329812 -0.00408144859835665
-0.424422 0.354221 0.17547255140164333
-0.424422 0.360176 0.15464055140164334
-0.556023 0.357928 0.33845955140164335
-0.613535 0.360167 0.3338405514016433
-0.655869 0.369877 0.3170165514016433
-0.530851 0.364045 0.30934755140164333
-0.588599 0.364836 0.33322255140164336
-0.637184 0.368934 0.3350565514016433
-0.542176 0.369249 0.3254585514016433
-0.657718 0.351962 0.30934755140164333
-0.335466 0.340561 0.240673
-0.83168 0.347163 0.013427
-0.83168 0.372649 0.043132
-0.845909 0.348044 -0.033003
-0.83168 0.329628 -0.016609
-0.383487 0.325255 0.232814
-0.369438 0.352479 0.2339
-0.810338 0.314745 0.220858
-0.829738 0.318468 0.2339
-0.73403 0.262134 0.212557
-0.411985 0.267679 0.2339
-0.714089 0.281791 0.225836
-0.437848 0.269221 0.2339
-0.748527 0.248118 0.2339
-0.765662 0.424075 0.228561
0.7954398309743141 -0.164416 0.3176480527064045
0.6990125852751047 0.08121 0.466043568190749
0.6555265253718771 -0.26412699999999995 0.53296590148908
0.8419627862619239 0.03834799999999999 0.2659247637998871
0.6505366076097701 -0.07491300000000001 0.5406450736272345
0.7325835448370673 -0.05429600000000001 0.4008904949701473
0.596769731501574 0.046985 0.6040925892095321
0.7277636264571156 -0.25148 0.40830804866463466
0.7740275370001626 0.126849 0.3506002373193328
0.7287540951428484 0.204865 0.44014587686918694
0.6295279578432487 0.157291 0.5594866141955542
0.6953837523098685 -0.15867800000000004 0.47162811573826036
0.8386668687534083 -0.07027899999999998 0.2709969752285502
0.7834144498411033 -0.27736599999999995 0.32266490327234887
0.7746425906958575 0.010320999999999997 0.33616424726144584
0.8228499502187804 -0.375172 0.28957354633489135
0.6511249626845497 0.02188799999999999 0.5262501710813337
0.6401873503512573 -0.166356 0.556571934906128
0.608464275913231 -0.28716899999999995 0.625264404342009
0.7447168101935691 -0.152739 0.39570761731495263
0.7348757075098796 -0.33693100000000004 0.43072509733520936
0.626148022165178 -0.339706 0.5588812326529675
0.7443027091344729 0.059117 0.3963448930110651
0.6897584120189495 -0.03039900000000001 0.4667957027166568
0.6799443212433623 0.165173 0.4953884369554199
0.6084294042450966 -0.20333399999999996 0.625318069663787
0.7979031874061208 0.192603 0.3138571008351885
0.8190853069496467 0.11041800000000002 0.29024110236712064
0.7831670789452748 -0.06926300000000002 0.32304559164871083
0.6781325247848289 -0.314286 0.4846872178850128
0.6863578795060308 -0.231086 0.4720289101106536
0.6555025511000346 0.096135 0.5330027963978021
0.6187072835578968 0.207897 0.6095010545904075
0.7641648575608214 0.197151 0.3812627184367636
0.736217930825438 0.125913 0.4087868624570071
0.7660517326540475 -0.218482 0.362874502634719
0.8314092028229361 -0.251774 0.282166070323573
0.6238979223739751 -0.008033999999999986 0.5816403483416237
0.7649971887504861 -0.32062399999999996 0.37538989008998624
0.7194631840264872 -0.10681400000000002 0.4345713725299764
0.7258468787743411 0.005150999999999989 0.42474726456201184
0.6833404947977643 -0.10070499999999999 0.4901619377266454
0.782108396895507 0.07059599999999999 0.3246748372770613
0.8080571687279116 -0.009992999999999974 0.2789344045573132
0.6232228286736856 0.102886 0.5826792754304175
0.5897627092667146 -0.08800999999999998 0.6540449487073594
0.7988248981702256 -0.343431 0.332311282401092
0.6570121728131961 0.215005 0.5113832302762735
0.7710432850255982 -0.114728 0.35519281493460614
0.6282126421108042 -0.221727 0.5615108030513639
0.6026456111631175 -0.003786999999999985 0.6342189663930412
0.7917280734722704 -0.220186 0.30987075515223944
0.8154817144297715 -0.118479 0.2887319102154382
0.8525460762051558 0.12871 0.24956799938948232
0.7107974701701001 -0.198251 0.4344179047508824
0.7093040863332698 0.151615 0.45020559010105
0.8485224739598934 -0.33951799999999993 0.2558298136610748
0.7098571291950888 -0.28391800000000006 0.44935449163847885
0.6191607198808541 -0.119564 0.5754411466559896
0.687495022809101 0.028600999999999988 0.47027891750830275
0.6105855633234782 -0.07606099999999999 0.6052766145761763
0.822600722437617 -0.303749 0.28986716260333767
0.5913580880838634 -0.330174 0.6515897602360211
0.6283080986533476 -0.2812160000000001 0.5748533621780265
0.8302497198574672 -0.190714 0.2839504422726878
0.6729269429011288 -0.18918200000000002 0.5061877444425669
0.7028700546002744 0.224229 0.4799798004794765
0.649849422448571 -0.12360900000000002 0.5282131479294905
0.6271687700692873 -0.373195 0.595247867893477
0.5779206721822348 0.126621 0.6574123451333548
0.8417500789051773 0.08308399999999999 0.23156675756290668
0.765458369425948 -0.05057699999999998 0.3637876516255959
0.8174687086163945 0.235612 0.3036196212249363
0.6967386309956836 -0.3586 0.450246689482121
0.6402712603027056 0.058155999999999985 0.5564428027256001
0.750940208890942 -0.27148199999999995 0.37264073417800636
0.8511313106321984 -0.111014 0.25181497677556663
0.7633517983977159 -0.173026 0.3535400722283424
0.7510770755393951 0.007950000000000013 0.3859195657350577
0.8087665892265208 0.067303 0.27784265066739433
0.6717581971488116 -0.022616999999999998 0.507986371242779
0.6409064741815409 -0.020436999999999983 0.5419757874035602
0.7203736614866839 0.04980200000000001 0.4331702045191819
0.7589436696749441 0.24751 0.3884517272043454
0.7479348113185967 -0.094493 0.390755314339637
0.6794130731741274 -0.26838599999999996 0.4962059945918799
0.6070269093423162 -0.15758100000000003 0.6274764218240414
0.5831138567728806 -0.270365 0.6567523846743288
0.6513015045683552 0.194119 0.5503237490863429
0.829968022163319 0.196318 0.28438395745017475
0.7090251129881946 -0.06600299999999998 0.45063491267527306
0.7685803691386177 0.169711 0.3454936280442705
0.729441280616269 0.168152 0.4057262435747267
0.7429263679827933 -0.19538099999999997 0.39846299617998604
0.7677157650678359 0.05219599999999999 0.36031366056113046
0.5953171121567472 0.239958 0.6454970691729254
0.6673468268048215 0.050766000000000006 0.5012857342067827
0.7589150278224163 0.09647699999999998 0.3738574461448248
0.8033851226108116 0.03758800000000001 0.30542074454757406
0.7081363259955936 0.109702 0.4385132396190574
0.5965207295771986 0.03586 0.6436447770509355
0.7682048456182515 0.210678 0.3402646436222577
0.7221236939395752 0.255113 0.42450678028774613
0.6052108582502543 0.07633099999999998 0.6302712111597554
0.792355218628875 0.133729 0.3089056178808902
0.6049559638142316 0.135361 0.5973013800739508
0.8042896065030476 -0.041086999999999985 0.3040288002639601
0.6302919696483062 -0.06007699999999999 0.5718003084812564
0.6754948100123501 -0.06051400000000001 0.48874649636511824
0.7358703038837231 -0.303421 0.40932183863348043
0.6090664616955741 -0.18259399999999998 0.5909755802693824
0.6127893782563362 -0.23963600000000002 0.6074075009508366
0.6636647009227429 -0.306445 0.5204417570191655
0.7802682668943928 -0.36226200000000003 0.360868780272803
0.6505103495336808 0.16054 0.5271960223776689
0.82129025095175 0.154577 0.290276172975736
0.6378747138958965 0.233241 0.5800035750669306
0.7175854583203871 -0.14298099999999997 0.4239716144585556
0.6605861864702528 -0.219126 0.5251793987073696
0.5993622220794409 -0.034965000000000024 0.6001029079436073
0.7328607753545919 0.218536 0.3946569628061048
0.8199375137463472 -0.33955299999999994 0.29982028414719236
0.6979240640118892 -0.31935700000000006 0.4538016486329538
0.5887530619193639 -0.344165 0.6164297435738766
0.5980125831295735 -0.054786999999999975 0.6413489075036252
0.7608986898551766 -0.370148 0.3906773509584611
0.7086038242965205 -0.24236600000000003 0.4377937888989726
0.6706198597811238 0.130407 0.4962487406455363
0.5830384424625747 -0.22430900000000004 0.6567785128545386
0.6056521992191836 -0.32644599999999996 0.5904230255279208
0.7661818522147483 -0.29372499999999996 0.3491847959578058
0.8414636855117502 0.08084 0.26669284871783316
0.6991797559831985 -0.129255 0.4522968421094467
0.6083537719780773 0.179456 0.5920723652832179
0.7894184746531693 -0.10322900000000002 0.3269145444402707
0.7974382044920686 0.227932 0.3344453174624158
0.6644572775407875 0.244096 0.5390946679797777
0.6267496666586032 0.021032999999999996 0.5637622310040769
0.7040445833809349 0.193163 0.46571058161005696
0.7534717783745621 0.16193 0.38223426746609185
0.7627012238390835 -0.018201000000000023 0.35454126588776114
0.6453799596843954 -0.309536 0.5485808330851396
0.7801969935858901 -0.13625700000000002 0.3276163677270118
0.5992548863068615 0.207341 0.639437080415288
0.8059735865568811 -0.06606600000000001 0.28214090753354193
0.8372164253069431 -0.024868999999999974 0.27322911720624926
0.6011079885463162 -0.24985799999999997 0.636585271675185
0.7874852765509683 -0.19442399999999999 0.3298896157163323
0.7370014536188327 -0.12041799999999997 0.4075810697583102
0.6095665475481669 0.10816700000000001 0.6235680770614361
0.7412765021841845 0.09301399999999999 0.4010020367166024
0.8468224801383414 -0.268785 0.2584459980977469
0.6364218175335263 0.198787 0.5788221618622422
0.8063259074220723 -0.23135699999999998 0.2827824767098206
0.657823151640416 0.128076 0.5294315369376144
0.6597675830465253 -0.338621 0.5463118152382508
0.6550076003461793 -0.369735 0.5536371316609324
0.6150225379639553 -0.15137 0.5952990112547487
0.7251596936131421 -0.171935 0.41231533886426786
0.647760495904383 -0.197392 0.544917336353146
0.7828597723698404 -0.31713300000000005 0.32351851729687847
0.823577082223584 -0.160047 0.2895153393972433
0.687157203524049 0.141748 0.4707988003130261
0.6643604996759872 -0.055840999999999974 0.5193709661455661
0.7964014218720947 0.088451 0.3026787635133498
0.7862815548055285 -0.012950000000000017 0.31825260759742324
0.6661421196447408 -0.13363399999999998 0.5031397033700782
0.780141416864801 0.106132 0.32770189683359524
0.6666342414123131 -0.094644 0.5158718194615173
0.780141416864801 -0.24670600000000004 0.32770189683359524
0.7479930080637706 -0.12251299999999998 0.3771762923888906
0.7177064771872339 0.246797 0.4541449196045595
0.5723138147632018 -0.30578 0.6546217074136509
0.5910235344368022 -0.09880300000000003 0.6129356280137446
0.6923863191347654 -0.089113 0.4627515176083013
0.5927905508264468 -0.18839100000000003 0.6493852894398638
0.6629017788573145 -0.24519399999999997 0.5081263856921578
0.7307501622359267 -0.028204000000000007 0.41720141720764925
0.6175609249486449 0.246767 0.6095253638272093
0.6238695891436159 0.06468299999999999 0.5816839514155682
0.6722175224025195 0.094504 0.5072794983324858
0.8494253232426857 -0.04585899999999998 0.25444038493941923
0.6862042262183136 -0.20045200000000002 0.47226537293473747
0.6511696420093469 0.058227 0.5261814123878057
0.6279059847301728 -0.24878499999999998 0.5754721904197777
0.7525307882047478 0.131242 0.38368239263344206
0.7936019112662108 -0.37329000000000007 0.33567095170036676
0.6579468370883303 -0.173574 0.5292411927494334
0.772488070811719 0.225383 0.3728420166738414
0.7660936876297716 0.021705000000000002 0.362809936544455
0.7256881091151972 -0.35101299999999996 0.405695248679294
0.7639081104784224 -0.251323 0.3526839426418546
0.797969012328699 -0.26354000000000005 0.3002663395953032
0.7020282307367174 -0.33219100000000007 0.4812753148880209
0.7745456038688587 -0.042644000000000015 0.3363135039376406
0.7572066519914469 -0.34103900000000004 0.3963591669016948
0.6982158350510558 -0.3777650000000001 0.47925239592376434
0.6685993742904801 0.194123 0.49355125007426487
0.7220321408773379 0.07469199999999998 0.4171284474112222
0.7740891072892123 -0.07537100000000002 0.35050548448556884
0.7533168228041205 -0.34459100000000004 0.36317638193880447
0.7866178438061252 0.042512999999999995 0.33122454059555717
0.7299257742064369 -0.07736899999999997 0.4184700989553046
0.5949062767356419 -0.26919 0.6069603298420378
0.6755540961849316 -0.360648 0.5220173563652706
0.7440437916475495 -0.21952900000000003 0.38325389008023636
0.6845444481258319 0.221526 0.5081817655944092
0.6343996388555875 -0.12613199999999997 0.5519894010390528
0.6357891612078059 -0.08660499999999999 0.5633404736153641
0.7986860610047126 -0.315868 0.2991628464162454
0.6060843892002682 0.021579000000000015 0.5955648038020445
0.7533779564414625 -0.150841 0.36888919277747095
0.8293016427991664 0.05410199999999998 0.2462404843054409
0.6939327639935886 -0.27751999999999993 0.4738610962366121
0.7059094430633233 -0.16105200000000003 0.44194027352696724
0.7536466815850488 -0.06831100000000001 0.3819651023365496
0.7351171894749574 0.027915999999999996 0.3969913739347227
0.6836897563489228 0.009039999999999992 0.48962444598821375
0.7177084906803799 0.217387 0.4179753836392497
0.6405393362514888 0.092147 0.5560302505644326
0.622017472318802 -0.03361799999999998 0.5710447828734667
0.7994156416864621 -0.19641400000000003 0.2980400672621737
0.6361764593209981 -0.246033 0.5492549851903389
0.837028445220906 -0.126498 0.2735184068314581
0.6120618177129291 -0.007865999999999984 0.6065101756722017
0.5748752277415015 0.05168699999999998 0.6377868646001702
0.7151001988778897 -0.320093 0.4219893820041051
0.7281601870449343 -0.36139899999999997 0.44105986438071665
0.73922758271909 0.233723 0.4240278328814596
0.6668982907292988 -0.358652 0.49616911155224247
0.5787541559516389 0.11030200000000001 0.6318174360730331
0.5898400807803879 -0.13575500000000001 0.6539258787746648
0.7178770679961866 0.180253 0.43701230615021747
0.8023335238686335 -0.13350500000000004 0.30703908940743846
0.6156445703300302 -0.346169 0.614214379179681
0.7857433277536922 0.144866 0.33257036624326836
0.8368181254724705 0.169077 0.273842075803431
0.7043707307068929 -0.03165800000000002 0.44430825585041644
0.7150474547239802 -0.26641200000000004 0.42787744365920233
0.5836252920941631 -0.29929599999999995 0.6243210614371844
0.6128724816755436 -0.104385 0.5986078137506166
0.822898332737987 0.106372 0.2560947790169054
0.5885428297677568 0.093911 0.6550339815723456
0.6107036872703404 0.204354 0.5826491005560022
0.7660891161281596 -0.321981 0.3435206193170005
0.7946893326965146 0.21467 0.29950667025260513
0.7420686385696245 -0.245794 0.386293527446562
0.6986196298137897 -0.184004 0.453158841340504
0.7426761684129035 -0.293175 0.3853585769187129
0.6001778921918972 0.10793900000000001 0.5988476425263963
0.7463748490393969 -0.017037000000000024 0.3931559989685447
0.8217709970915795 0.015700999999999993 0.2578296782475062
0.8127408696542133 -0.350988 0.2717264810260207
0.6261790797446101 0.21252 0.5588334369757592
0.7389753044140334 -0.32299300000000003 0.3852470840406134
0.701059011973754 0.042519 0.44940478437801024
0.627362204655202 -0.194361 0.5763090340312517
0.8320041970795825 0.147353 0.24208142186765466
0.6227771251653428 0.148558 0.5833651853243911
0.6747912748635947 0.222985 0.4840223013760788
0.589033669873883 -0.017164999999999986 0.6159979054376952
0.7543332175514448 -0.180162 0.3809085663140475
0.6351462148265778 0.132607 0.5643299279856439
0.6835289154286275 -0.12236799999999998 0.4763825093398847
0.654546636902131 0.250251 0.5151775362301007
0.7558279097426797 0.255096 0.363700179979081
0.725212105440332 -0.22705000000000003 0.42572414112250007
0.8045482330006731 0.192864 0.28926222035069893
0.8507831388206689 -0.22828200000000004 0.2523507914726928
0.6816508535026896 -0.150769 0.4927621902709145
0.809023767779012 -0.279634 0.2774468689192824
0.8370322593096082 0.118117 0.2735125371868887
0.6145216982793494 -0.215223 0.5825803114937542
0.8090886072869494 -0.142631 0.27734708496160165
0.7669702788364746 -0.143304 0.3479714565732338
0.6794839062500253 -0.227659 0.49609698690701853
0.6403654184556431 -0.28177500000000005 0.5428084384117702
0.7836241200825143 -0.33777300000000005 0.35570433157233416
0.573303823196195 -0.17443800000000004 0.6402051581627863
0.7932696145027622 0.017628000000000005 0.32098788046642523
0.6069980312421424 -0.13250299999999998 0.6275208634186387
0.6639728882756082 0.219097 0.5398401128400987
0.61383101790101 0.162663 0.609774238124805
0.6045608285614366 -0.08868199999999998 0.6312715662985213
0.6210481489186286 -0.166717 0.5725365111147613
0.7042611036560514 0.201015 0.43867007334984737
0.7195786964271824 0.135591 0.4343936061515872
0.7498394636473432 0.216651 0.36852782074484314
0.6474050318230653 -0.327505 0.5653370103291646
0.7259629360448508 -0.053427 0.4245686596629699
0.5925693336817193 -0.292777 0.6497257288248923
0.5827260117484498 0.155695 0.6568867581725502
0.6648154659711781 -0.282012 0.5186708014004953
0.7643880325669783 -0.3735490000000001 0.34613848079497805
0.6563846953298721 -0.036326000000000025 0.5316452314609522
0.7601359767519466 0.077591 0.358489021121047
0.7258101599536677 0.197914 0.4055074200530714
0.5907102342934072 -0.21494200000000002 0.6134177773890928
0.5944458653232018 -0.110682 0.6468378636967198
0.8329691651021359 -0.33557600000000004 0.27976538569466536
0.7283677722328497 -0.38139800000000007 0.4228755858580543
0.575802051296136 0.202151 0.6363605409697923
0.6133337774463115 0.185822 0.6177705452681188
0.8417224986736852 0.207796 0.2662945514077629
0.7904981976635082 0.202757 0.34512555501686815
0.8282484094475445 -0.20236700000000002 0.2478613447272637
0.7006412011509441 0.10511500000000001 0.46353722995959107
0.8326782010402427 -0.026083000000000023 0.2410441718201664
0.6148752105709181 0.23902 0.5762293864383224
0.7465698081080353 -0.04551299999999997 0.3793665083339507
0.6973528074948446 -0.25462099999999993 0.45510840185821627
0.6940510007433569 -0.05834400000000001 0.47367913725495897
0.6015613202320633 -0.310216 0.6358876224920724
0.6206231504632405 0.042623999999999995 0.5731905572239294
0.7064455949608897 -0.08792899999999998 0.44111516920463223
0.7762979051926124 -0.170939 0.33361682151830174
0.8281149199238643 -0.00011100000000002774 0.2872357661902778
0.8349508566178362 -0.22883400000000004 0.2767156860805064
0.692755300324238 0.168633 0.47567313936726857
0.8143547740450586 0.17526 0.2692427828524878
0.7503146983437812 0.062012999999999985 0.37360335588739724
0.8135276616664958 0.08932099999999998 0.27051565720340714
