-0.049252 -0.362207 0.195021
-0.04113 -0.355541 -0.054009
-0.087093 -0.362207 -0.131482
0.182366 -0.355541 -0.082085
0.342234 -0.362207 0.128864
-0.304242 -0.355541 0.141614
0.340211 -0.362207 -0.151721
-0.157037 -0.355541 0.013971
0.007444 -0.362207 0.190558
-0.456461 -0.355541 -0.127076
-0.340631 -0.355541 -0.153442
-0.279908 -0.362207 -0.041636
0.186096 -0.362207 0.056181
-0.357813 -0.355541 0.094386
0.360816 -0.362207 -0.041584
-0.316597 -0.362207 0.158899
-0.325906 -0.362207 -0.081996
0.201578 -0.355541 0.209502
-0.022788 -0.362207 0.234613
-0.202642 -0.355541 0.183338
0.127753 -0.355541 -0.14305
-0.37837 -0.355541 0.027866
0.174283 -0.362207 -0.003642
0.440321 -0.355541 -0.173398
0.000485 -0.362207 0.244446
0.34767 -0.355541 0.060822
0.136969 -0.355541 0.251193
0.02592 -0.362207 -0.02813
0.075219 -0.362207 0.095425
0.215137 -0.355541 0.136976
0.039724 -0.362207 0.020765
0.030342 -0.355541 -0.165927
0.034652 -0.362207 -0.01187
-0.246987 -0.362207 0.183901
-0.386815 -0.362207 -0.113626
0.339503 -0.355541 -0.019731
-0.1489 -0.362207 -0.094262
-0.099985 -0.355541 0.173178
-0.173389 -0.362207 0.088226
0.257233 -0.355541 0.130473
0.361758 -0.356552 0.141919
-0.059388 -0.355541 0.089937
-0.338936 -0.355541 0.023447
0.252032 -0.355541 0.027306
-0.118877 -0.355541 0.073166
-0.112831 -0.355541 -0.026948
0.066832 -0.362207 0.013652
-0.021657 -0.355541 -0.138465
0.327064 -0.362207 -0.100053
0.057938 -0.362207 -0.16648
0.108932 -0.362207 -0.05299
0.057479 -0.362207 -0.109065
0.219027 -0.355541 -0.018549
0.146563 -0.362207 0.233574
-0.01403 -0.362207 -0.173675
0.131899 -0.355541 -0.08289
-0.061122 -0.362207 -0.117514
-0.003011 -0.362207 0.286686
0.072074 -0.355541 0.211738
-0.268955 -0.355541 -0.079586
-0.200937 -0.362207 0.081268
0.114368 -0.355541 0.229249
0.425562 -0.355541 0.035823
0.258414 -0.355541 -0.080212
-0.405972 -0.355541 -0.144711
-0.138526 -0.355541 0.034892
-0.23848 -0.362207 0.111689
0.094804 -0.355541 0.204392
-0.25758 -0.355541 0.149238
0.017998 -0.355541 0.053506
-0.092577 -0.362207 0.241334
-0.206995 -0.355541 0.037995
-0.368899 -0.355541 0.066934
-0.303427 -0.355541 -0.112954
-0.197841 -0.362207 -0.000555
0.200011 -0.355541 0.094025
-0.164156 -0.355541 0.159596
-0.250181 -0.022228 -0.104072
-0.000342 -0.015562 0.07745
0.212109 -0.015562 0.012553
0.435559 -0.022228 -0.08948
-0.186524 -0.015562 0.065059
-0.072905 -0.015562 -0.082931
-0.342183 -0.022228 0.084819
0.120741 -0.015562 0.188055
0.086053 -0.022228 -0.06143
-0.099034 -0.015562 0.168129
0.298067 -0.022228 0.105018
0.3057 -0.015562 -0.066792
-0.356908 -0.022228 -0.047412
0.202037 -0.022228 -0.11302
0.002738 -0.015562 0.213683
0.115729 -0.022228 0.061377
-0.090897 -0.015562 0.023777
-0.267719 -0.015562 0.002487
-0.230236 -0.015562 0.157671
0.201581 -0.022228 0.125831
-0.163971 -0.022228 -0.046258
0.001172 -0.015562 -0.022028
0.380966 -0.015562 -0.013548
-0.398121 -0.015562 -0.12608
0.338554 -0.015562 -0.146501
0.010006 -0.015562 -0.114125
0.303937 -0.022228 0.022022
0.108592 -0.022228 -0.148122
-0.1845 -0.015562 -0.157181
0.06676 -0.015562 0.129657
-0.266157 -0.015562 0.08914
-0.072992 -0.015562 0.097287
-0.326556 -0.022228 -0.123512
-0.064052 -0.022228 0.256935
-0.167728 -0.022228 0.192388
0.224594 -0.015562 0.192979
0.166822 -0.022228 -0.051206
-0.011254 -0.022228 0.147187
0.060221 -0.022228 0.011446
0.265891 -0.022228 -0.132559
-0.332184 -0.022228 0.014061
-0.137235 -0.022228 -0.106276
0.35577 -0.015562 0.074805
-0.275841 -0.022228 -0.168333
-0.144208 -0.015562 0.114094
0.137113 -0.022228 0.124093
0.071586 -0.015562 0.233484
-0.122064 -0.015562 0.23534
-0.298319 -0.022228 -0.061402
0.238815 -0.015562 -0.066058
0.447094 -0.015562 -0.147446
0.376777 -0.015562 -0.101002
0.235824 -0.015562 0.067019
0.153003 -0.015562 0.006172
0.124868 -0.022228 0.260017
-0.033656 -0.015562 0.029305
-0.219736 -0.015562 -0.037519
-0.079183 -0.022228 -0.143863
-0.060699 -0.022228 -0.028391
0.262691 -0.015562 0.1516
0.132926 -0.022228 -0.097917
0.180339 -0.015562 0.072845
-0.159045 -0.015562 0.007748
0.272721 -0.015562 -0.021606
-0.049931 -0.022228 0.189194
0.436603 -0.015562 -0.031722
0.172691 -0.015562 0.175645
-0.13302 -0.015562 0.056475
0.055718 -0.022228 -0.143308
-0.3874 -0.015562 -0.001801
0.038347 -0.022228 0.175695
-0.113096 -0.022228 -0.02564
0.064102 -0.015562 0.065229
-0.186955 -0.015562 -0.101572
0.394836 -0.022228 -0.148651
-0.197773 -0.022228 0.112918
0.036846 -0.022228 -0.055735
0.162394 -0.022228 -0.149084
-0.135423 -0.022228 -0.15605
-0.414045 -0.015562 -0.076318
-0.027192 -0.022228 -0.068778
-0.381754 -0.015562 0.046797
-0.299913 -0.015562 0.055566
0.336287 -0.022228 -0.027931
-0.219401 -0.022228 0.202941
-0.032939 -0.022228 -0.131598
0.10759 -0.022228 -0.02031
0.020251 -0.022228 0.034482
-0.359899 -0.015562 -0.15449
0.36539 -0.015562 0.030052
-0.20296 -0.022228 0.017304
-0.433863 -0.022228 -0.152574
0.149421 -0.022228 0.221752
-0.298624 -0.015562 0.119583
0.078771 -0.022228 -0.105124
0.219432 -0.022228 -0.153616
-0.230621 -0.022228 -0.149963
0.397654 -0.015562 0.059152
-0.053663 -0.022228 0.139108
0.376052 -0.022228 -0.058485
0.313585 -0.022228 0.063881
0.242133 -0.015562 0.114427
0.01033 -0.015562 -0.156539
0.023231 -0.015562 0.271533
-0.239894 -0.015562 0.056699
0.320313 -0.022228 -0.109577
-0.145111 -0.015562 0.155618
-0.440701 -0.022228 -0.111277
-0.336848 -0.022228 -0.083342
0.222582 -0.015562 -0.026874
0.080702 -0.015562 0.180707
-0.258305 -0.015562 -0.061853
-0.034881 -0.022228 0.22682
0.027431 -0.022228 0.133711
-0.237682 -0.022228 0.119316
0.251367 -0.022228 0.031274
0.034981 -0.022228 0.093028
0.314915 -0.022228 0.140317
0.091467 -0.015562 0.099387
-0.404744 -0.015562 -0.038664
-0.088948 -0.022228 0.204932
0.109162 -0.022228 0.023223
-0.333715 -0.022228 0.133944
0.345596 -0.015562 0.111425
-0.100278 -0.015562 -0.11126
0.099914 -0.022228 0.146623
-0.113593 -0.022228 -0.063254
0.109002 -0.022228 0.222926
0.468445 -0.022228 -0.050049
-0.194584 -0.022228 0.149601
-0.046464 -0.022228 0.063117
-0.088815 -0.015562 0.131471
-0.037433 -0.015562 0.105086
0.297345 -0.022228 -0.150858
-0.364597 -0.015562 -0.10563
0.071541 -0.022228 -0.02839
-0.321634 -0.015562 -0.034712
0.411866 -0.022228 -0.116035
0.183841 -0.022228 -0.0097
0.284694 -0.022228 0.178369
0.211503 -0.015562 0.160213
0.344891 -0.022228 -0.074991
-0.119303 -0.022228 0.090197
-0.123692 -0.015562 0.200282
-0.009739 -0.022228 0.26155
0.182264 -0.022228 0.029683
0.167135 -0.015562 -0.095755
0.419202 -0.015562 0.020386
-0.215953 -0.022228 0.082345
-0.290049 -0.022228 -0.095145
0.272052 -0.022228 0.082926
0.140173 -0.015562 0.037753
-0.213013 -0.015562 -0.070875
-0.261421 -0.022228 0.17699
0.034678 -0.015562 0.239616
-0.280441 -0.022228 -0.02796
0.148886 -0.015562 0.084837
0.403006 -0.015562 -0.077423
-0.037416 -0.015562 0.279221
0.205053 -0.022228 -0.054237
0.078206 -0.015562 0.265968
-0.157674 -0.015562 -0.081127
0.494703 -0.01679 -0.164322
-0.084 -0.015562 0.05586
-0.028197 -0.022228 -0.009005
0.255966 -0.022228 -0.101317
-0.188517 -0.022228 0.217717
0.135408 -0.015562 -0.055675
-0.374389 -0.015562 -0.073747
0.417575 -0.015562 -0.172828
-0.330132 -0.022228 0.046958
-0.300627 -0.022228 0.019905
-0.307739 -0.022228 -0.177975
0.005697 -0.015562 -0.059329
-0.066689 -0.022228 0.004078
0.461848 -0.022228 -0.117937
-0.210455 -0.015562 -0.122846
0.046309 -0.015562 -0.113905
0.19897 -0.015562 0.245173
-0.364785 -0.015562 0.020419
0.335536 -0.022228 0.02323
0.209169 -0.022228 0.083051
-0.193341 -0.015562 -0.02084
0.365335 -0.015562 -0.130598
0.266687 -0.022228 -0.163684
0.248265 -0.022228 -0.003545
-0.118634 -0.022228 0.13729
-0.393771 -0.015562 -0.156561
0.023826 -0.015562 -0.086628
0.262063 -0.022228 0.210257
-0.273773 -0.022228 -0.123662
-0.158799 -0.015562 0.077985
0.275745 -0.015562 0.012774
-0.46302 -0.022228 -0.171572
0.223725 -0.015562 0.226971
-0.03051 -0.015562 -0.10218
-0.14802 -0.022228 0.221316
0.193981 -0.022228 -0.082
-0.131116 -0.022228 -0.000391
-0.065499 -0.022228 0.22331
0.293268 -0.015562 -0.122305
0.031824 -0.015562 0.006834
0.40943 -0.015562 -0.048657
0.052378 -0.015562 0.211222
-0.008956 -0.022228 0.107867
0.178004 -0.015562 0.204463
-0.09341 -0.015562 0.241442
-0.026476 -0.015562 -0.040332
-0.057512 -0.022228 -0.057439
-0.376987 -0.022228 0.079165
0.276492 -0.022228 0.054051
0.349195 -0.01985 -0.178608
-0.299384 -0.022228 -0.137163
-0.24743 -0.015562 -0.029139
0.142007 -0.022228 -0.019706
0.143975 -0.015562 0.171111
0.137159 -0.022228 -0.126315
-0.017488 -0.015562 0.193338
0.080838 -0.022228 0.031379
0.122617 -0.022228 0.093708
-0.055843 -0.015562 -0.115234
0.265573 -0.022228 -0.048321
-0.301906 -0.015562 0.09139
-0.273011 -0.022228 0.060771
-0.225217 -0.022228 -0.010758
-0.208296 -0.022228 0.174145
-0.172865 -0.015562 0.124005
0.106984 -0.015562 -0.106217
-0.119671 -0.022228 0.025181
-0.140831 -0.015562 -0.025809
-0.032652 -0.015562 0.163997
-0.347525 -0.022228 -0.009301
-0.356359 -0.022228 0.056118
-0.378293 -0.022228 -0.02969
-0.013891 -0.015562 -0.169938
-0.184093 -0.015562 -0.06389
0.029545 -0.015562 -0.136771
-0.085939 -0.015562 -0.036946
0.165948 -0.015562 0.251117
0.057216 -0.015562 -0.088772
0.065496 -0.022228 0.093917
0.206314 -0.015562 0.056718
-0.178896 -0.022228 -0.131296
0.092394 -0.015562 0.001367
0.285752 -0.015562 0.137
0.422159 -0.015562 -0.006715
-0.184616 -0.015562 0.037913
0.046848 -0.022228 0.039099
0.162824 -0.015562 0.128591
0.183845 -0.022228 -0.165284
0.08426 -0.015562 0.209807
0.184909 -0.015562 0.145683
0.166005 -0.015562 0.049868
-0.414076 -0.015562 -0.103008
0.01336 -0.015562 0.169282
0.178551 -0.022228 -0.127898
-0.166409 -0.015562 -0.01837
0.30876 -0.022228 -0.004058
0.306211 -0.022228 -0.041195
-0.2478 -0.022228 0.018351
0.389903 -0.015562 0.020617
-0.262177 -0.015562 0.125998
0.053042 -0.022228 0.15419
0.003363 -0.022228 0.014746
0.244415 -0.015562 0.17
-0.28382 -0.015562 0.165869
0.223457 -0.015562 0.035655
0.14341 -0.022228 -0.168756
-0.4283 -0.022228 -0.054246
0.099481 -0.015562 0.251906
0.435741 -0.022228 -0.064032
-0.249801 -0.015562 -0.128805
-0.102126 -0.022228 -0.085919
-0.396091 -0.022228 0.021019
0.054579 -0.015562 0.275033
-0.32838 -0.015562 -0.147763
-0.331898 -0.022228 -0.056688
-0.330539 -0.015562 0.109946
-0.013658 -0.022228 0.042656
-0.003247 -0.015562 0.237878
0.02646 -0.015562 0.206055
0.457958 -0.015562 -0.08089
-0.136953 -0.015562 0.179128
0.047054 -0.022228 0.114702
0.093093 -0.015562 0.053923
-0.175234 -0.022228 0.164952
-0.161905 -0.022228 -0.106091
-0.349988 -0.015562 -0.127071
-0.317782 -0.022228 -0.100549
0.037444 -0.022228 0.068616
-0.068539 -0.022228 0.173495
0.261816 -0.022228 0.128237
0.115469 -0.022228 0.165181
-0.039418 -0.022228 0.256044
0.303245 -0.015562 0.160352
-0.300964 -0.015562 0.14898
0.373725 -0.015562 0.056955
0.193521 -0.022228 0.101145
0.342146 -0.015562 -0.097794
0.23128 -0.015562 0.146797
-0.313444 -0.022228 -0.000488
-0.10242 -0.022228 -0.148537
0.071363 -0.015562 -0.159735
0.24359 -0.022228 -0.124758
0.385969 -0.015562 -0.036638
-0.19082 -0.015562 0.088268
-0.212246 -0.015562 0.135697
0.11321 -0.022228 -0.052893
-0.43723 -0.015562 -0.174659
-0.278809 -0.015562 -0.050539
0.26383 -0.015562 -0.070552
0.196677 -0.022228 0.176832
-0.007434 -0.022228 -0.127924
-0.267339 -0.015562 -0.089938
-0.126502 -0.015562 -0.045196
-0.098681 -0.022228 0.079636
-0.121006 -0.022228 -0.122707
0.444245 -0.022228 -0.006951
-0.238578 -0.022228 -0.071752
0.263317 -0.022228 0.10426
-0.423068 -0.015562 -0.124504
0.337816 -0.022228 0.138091
0.317086 -0.022228 0.040902
-0.249448 -0.015562 -0.161377
0.0124 -0.015562 0.113146
-0.110335 -0.015562 -0.171424
-0.318315 -0.015562 0.069146
0.005237 -0.022228 0.286496
-0.256285 -0.022228 0.207436
0.078496 -0.015562 0.150673
0.299795 -0.022228 0.082021
0.018449 -0.015562 0.056187
0.286224 -0.020186 -0.178608
-0.217282 -0.015562 0.057991
-0.424842 -0.015562 -0.012809
0.23629 -0.022228 0.093717
-0.208157 -0.022228 -0.148446
0.105181 -0.015562 -0.173253
0.253984 -0.015562 0.052473
-0.277503 -0.015562 0.109817
-0.203053 -0.015562 -0.169491
0.36681 -0.022228 0.112237
-0.113442 -0.015562 0.110599
0.093794 -0.015562 -0.081182
-0.453317 -0.015562 -0.139699
0.241547 -0.022228 -0.154887
0.081477 -0.015562 0.078962
-0.10767 -0.022228 -0.004183
-0.139439 -0.015562 0.032551
0.35742 -0.022228 -0.034321
0.427446 -0.016818 0.055161
0.242554 -0.022228 -0.033214
-0.441632 -0.015562 -0.090348
0.076749 -0.022228 -0.126973
-0.235019 -0.015562 0.179015
-0.229404 -0.015562 -0.105427
0.350705 -0.015562 0.009068
0.196893 -0.022228 -0.139665
-0.212426 -0.022228 0.037848
0.129243 -0.015562 -0.146487
-0.124145 -0.022228 0.158256
0.166856 -0.015562 -0.021332
0.150146 -0.022228 -0.084158
-0.093211 -0.015562 -0.065532
-0.261578 -0.015562 0.043838
0.473335 -0.015562 -0.138402
0.214565 -0.022228 0.104912
-0.381045 -0.015562 -0.139393
-0.10611 -0.022228 0.267512
0.12255 -0.022228 0.139663
-0.38983 -0.022228 -0.060662
-0.218343 -0.015562 0.113347
0.116772 -0.022228 0.117836
0.065126 -0.022228 0.195627
0.156981 -0.015562 -0.122876
-0.128633 -0.022228 -0.086921
-0.249309 -0.022228 0.101633
-0.168891 -0.015562 0.213487
-0.415219 -0.022228 -0.162546
-0.014183 -0.022228 0.171829
-0.107154 -0.022228 0.221932
-0.047159 -0.015562 -0.089193
0.141911 -0.022228 0.247561
0.231755 -0.022228 0.016239
-0.300739 -0.022228 -0.033606
-0.282003 -0.022228 0.029687
0.015716 -0.022228 0.189254
0.089307 -0.022228 0.128569
0.065152 -0.022228 -0.06145
-0.027161 -0.015562 0.067408
-0.030984 -0.022228 0.140409
0.116388 -0.022228 -0.124753
0.285325 -0.022228 -0.054715
-0.172635 -0.022228 -0.172818
-0.137653 -0.022228 0.075507
-0.052752 -0.022228 0.11723
0.009048 -0.015562 0.254354
-0.237164 -0.015562 0.077069
0.351423 -0.022228 -0.117047
0.40573 -0.022228 0.034372
0.431028 -0.015562 -0.108333
-0.395154 -0.022228 -0.080437
-0.047373 -0.015562 -0.00737
-0.165872 -0.015562 0.148211
-0.041336 -0.015562 0.206325
-0.202318 -0.022228 -0.055003
0.326914 -0.022228 0.004883
0.303281 -0.022228 -0.098668
0.372487 -0.015562 0.086163
0.46763 -0.022228 -0.029896
0.014309 -0.022228 -0.035704
0.159706 -0.015562 0.101773
-0.048979 -0.015562 0.042298
-0.248887 -0.022228 -0.010353
-0.342861 -0.015562 0.033083
0.038762 -0.015562 0.288038
-0.351467 -0.015562 -0.174213
0.172689 -0.015562 -0.069019
0.167426 -0.022228 0.157653
-0.319184 -0.015562 -0.077144
-0.101777 -0.022228 0.039004
0.288875 -0.022228 0.038526
0.181826 -0.015562 -0.109044
0.150343 -0.015562 0.203136
0.223905 -0.015562 -0.079078
-0.344806 -0.015562 -0.105968
0.00836 -0.022228 0.149528
0.316106 -0.022228 0.097015
-0.284487 -0.022228 -0.008666
0.36131 -0.015562 -0.013247
-0.284123 -0.015562 0.081171
-0.085951 -0.022228 0.00035
0.253695 -0.015562 0.08106
0.131613 -0.015562 -0.004554
-0.072654 -0.015562 0.030715
-0.051471 -0.022228 0.237025
0.039371 -0.015562 0.260629
-0.341159 -0.015562 -0.038205
-0.0645 -0.015562 0.153754
0.117712 -0.022228 0.240236
0.016229 -0.022228 -0.002501
0.066566 -0.015562 0.042516
0.039345 -0.015562 -0.153379
0.201295 -0.015562 -0.160641
0.399166 -0.019232 -0.178608
-0.071534 -0.015562 0.070467
0.105984 -0.022228 0.268685
0.075256 -0.022228 -0.009611
0.117002 -0.022228 0.005765
-0.283965 -0.022228 -0.077063
0.346245 -0.015562 0.037525
0.050173 -0.022228 -0.00467
-0.008804 -0.022228 -0.03859
0.212104 -0.022228 -0.012568
0.470673 -0.015562 -0.102567
0.302084 -0.015562 0.183298
0.381039 -0.022228 0.038231
-0.308974 -0.022228 0.040439
0.217627 -0.015562 -0.104817
-0.36599 -0.022228 0.037978
-0.229751 -0.022228 -0.168755
-0.411075 -0.015562 -3.6e-05
-0.382694 -0.022228 -0.117702
-0.280133 -0.015562 0.188314
-0.156177 -0.022228 0.129365
0.330069 -0.015562 0.057943
-0.121091 -0.015562 -0.140196
-0.01453 -0.022228 0.009272
0.277175 -0.015562 -0.112798
0.046545 -0.022228 0.133369
-0.300996 -0.022228 -0.16061
-0.290171 -0.022228 0.13478
-0.091783 -0.01693 0.278123
-0.434109 -0.015562 -0.073338
-0.246264 -0.022228 0.164245
-0.204165 -0.022228 -0.100168
-0.128767 -0.015562 0.252575
0.189921 -0.022228 -0.043607
-0.101052 -0.022228 -0.049681
0.252892 -0.015562 0.195685
-0.425897 -0.015562 -0.037201
0.136339 -0.022228 0.073054
-0.180349 -0.015562 -0.0412
-0.203733 -0.015562 0.190658
-0.312597 -0.015562 -0.051936
0.231196 -0.015562 -0.004913
-0.264693 -0.015562 0.021136
-0.373213 -0.015562 -0.167146
-0.077498 -0.022228 -0.05875
0.190504 -0.015562 -0.064568
0.398829 -0.015562 -0.095303
-0.198906 -0.022228 0.050267
0.218663 -0.015562 0.125147
-0.231437 -0.015562 -0.132928
-0.083462 -0.015562 0.15854
-0.144859 -0.022228 -0.06992
0.422174 -0.015562 -0.155212
-0.01971 -0.015562 0.283436
-0.041624 -0.015562 -0.030306
0.291187 -0.022228 0.000418
-0.356579 -0.015562 -0.070496
-0.101465 -0.022228 0.097431
0.312732 -0.022228 0.115401
-0.041611 -0.022228 -0.147283
0.435254 -0.022228 0.016098
-0.266072 -0.015562 -0.10887
0.13318 -0.015562 0.21834
0.220175 -0.017438 0.244376
-0.019716 -0.015562 -0.116898
0.125703 -0.015562 -0.022179
0.185174 -0.015562 0.124461
-0.193406 -0.015562 -0.118414
-0.15105 -0.015562 0.062168
-0.071827 -0.015562 -0.011337
-0.267828 -0.022228 -0.014185
0.324397 -0.015562 -0.125284
0.104151 -0.022228 -0.037513
0.130719 -0.015562 0.05253
-0.121568 -0.022228 0.044986
-0.411301 -0.022228 -0.023895
0.097606 -0.022228 0.07939
0.127565 -0.022228 -0.081306
-0.13882 -0.022228 0.205794
0.274582 -0.015562 0.030161
0.001257 -0.015562 -0.099067
0.440017 -0.015562 -0.13154
0.092535 -0.022228 -0.163328
-0.212495 -0.015562 0.217368
0.275411 -0.022228 -0.147037
-0.128941 -0.022228 0.106679
0.033956 -0.022228 0.220135
-0.090638 -0.015562 0.189073
0.071392 -0.022228 0.249415
0.055418 0.324417 0.034284
-0.170291 0.31775 0.057662
0.260608 0.31775 0.009431
0.107751 0.31775 0.210955
-0.246014 0.324417 -0.084566
-0.067458 0.31775 -0.061275
-0.055518 0.324417 0.13989
0.177102 0.324417 -0.102702
-0.270473 0.31775 0.150931
0.364579 0.324417 -0.07471
0.168049 0.324417 0.098126
-0.287202 0.324417 0.037859
-0.147987 0.31775 0.215312
0.06371 0.31775 -0.082756
-0.359105 0.324417 -0.040386
0.295859 0.324417 0.102897
0.012393 0.324417 0.21549
-0.051197 0.31775 0.044983
-0.160709 0.324417 -0.043261
0.066579 0.31775 0.127399
0.132874 0.31775 -0.022512
0.374473 0.31775 0.01606
-0.032895 0.324417 -0.142917
0.278095 0.324417 -0.115795
-0.192034 0.31775 -0.15011
0.212309 0.324417 0.167262
-0.185436 0.324417 0.14305
-0.320858 0.324417 -0.109398
0.346969 0.324417 -0.153685
-0.397662 0.324417 -0.11862
0.002368 0.31775 -0.031081
0.432786 0.31775 -0.105116
-0.121872 0.31775 -0.111835
0.188015 0.31775 0.027034
-0.232579 0.31775 -0.014774
-0.109041 0.31775 0.092407
-0.112163 0.324417 0.007695
-0.081098 0.324417 0.229481
0.215943 0.31775 -0.047381
0.419753 0.324417 -0.032915
-0.004876 0.324417 0.092829
0.018198 0.324417 0.289357
0.1206 0.324417 0.046447
0.103838 0.324417 -0.134664
0.291525 0.31775 -0.051941
0.232252 0.324417 0.07429
0.136379 0.31775 0.153768
0.21623 0.31775 -0.152521
-0.113603 0.324417 0.161633
-0.298405 0.324417 -0.051247
0.001807 0.31775 -0.092118
0.349358 0.31775 0.076239
-0.339297 0.31775 0.072019
0.070101 0.324417 -0.024355
0.036489 0.324417 -0.14536
-0.361996 0.324417 0.018203
0.064439 0.31775 0.250395
-0.227493 0.324417 0.068045
-0.282554 0.31775 0.093978
0.163373 0.324417 0.203483
0.121584 0.31775 -0.082113
0.314088 0.324417 0.013297
0.060997 0.31775 0.184088
-0.028549 0.324417 0.250436
0.159913 0.324417 -0.15541
-0.009648 0.31775 0.167364
0.004781 0.31775 0.022881
0.11645 0.31775 0.103435
-0.194593 0.31775 -0.083696
0.294631 0.324417 0.154219
0.456179 0.324417 -0.155359
-0.359791 0.31775 -0.156552
0.247828 0.31775 0.229064
-0.086607 0.324417 -0.148987
0.342919 0.31775 0.130265
0.390181 0.324417 -0.128341
-0.217826 0.31775 0.178997
-0.173326 0.324417 0.003196
-0.283813 0.324417 -0.1517
-0.236526 0.324417 -0.131547
-0.228047 0.324417 0.115503
0.295485 0.31775 0.056319
0.347081 0.324417 -0.021353
0.256978 0.31775 0.127491
0.11089 0.324417 0.257793
-0.053837 0.324417 0.093794
-0.064319 0.324417 -0.106771
-0.107312 0.324417 -0.038044
-0.149136 0.324417 0.114851
-0.395165 0.324417 -0.073367
0.225155 0.324417 -0.090853
-0.045312 0.324417 0.202372
0.391062 0.31775 0.059869
0.038491 0.324417 0.07554
0.331733 0.31775 -0.112825
-0.279498 0.324417 -0.005384
0.167369 0.324417 -0.060166
-0.400581 0.324417 -0.027322
-0.327654 0.31775 -0.011135
-0.056411 0.31775 0.002372
-0.216672 0.324417 0.024367
0.218082 0.324417 -0.002631
0.214308 0.31775 0.124933
-0.113441 0.31775 0.050268
-0.436855 0.324417 -0.136383
0.306382 0.31775 -0.147285
0.020701 0.324417 0.139713
0.173514 0.31775 -0.011902
0.174061 0.324417 0.140517
0.458093 0.324417 -0.071127
0.25901 0.324417 0.172184
0.400077 0.324417 -0.168005
-0.154764 0.324417 -0.082458
-0.181734 0.324417 0.193847
-0.318527 0.31775 0.134021
-0.160895 0.324417 -0.173536
0.089677 0.31775 0.009148
-0.199828 0.324417 -0.041621
-0.28641 0.31775 -0.087901
0.414127 0.31775 0.021845
-0.029422 0.324417 -0.066233
0.080608 0.31775 0.088295
-0.077544 0.31775 0.181864
0.253592 0.324417 -0.028079
0.145096 0.31775 0.017536
0.260672 0.31775 -0.074873
0.40189 0.324417 -0.083199
0.207928 0.31775 0.221937
0.025085 0.324417 0.251878
-0.092491 0.31775 0.126267
0.164547 0.31775 0.240507
-0.34232 0.31775 -0.072912
0.380573 0.31775 -0.035977
0.100379 0.324417 0.148443
-0.150364 0.324417 0.164606
0.105107 0.324417 -0.045848
0.034381 0.324417 -0.014109
-0.083047 0.324417 0.269253
-0.11962 0.324417 -0.072402
-0.432093 0.31775 -0.100853
0.249509 0.31775 -0.138674
-0.019147 0.31775 0.13277
-0.240616 0.324417 -0.049161
-0.145692 0.31775 0.031674
-0.407512 0.31775 -0.157003
-0.363867 0.31775 -0.110662
-0.179531 0.31775 0.098233
0.042061 0.31775 -0.110512
0.288773 0.324417 -0.011117
0.001919 0.324417 -0.139137
-0.010152 0.324417 0.053807
0.022125 0.31775 0.181697
0.304313 0.324417 -0.092608
-0.114408 0.31775 0.249329
-0.262163 0.324417 0.061761
0.112486 0.324417 -0.171898
0.147523 0.31775 -0.123861
-0.128738 0.324417 -0.144923
0.253266 0.324417 0.04723
-0.116569 0.31775 0.194866
0.436206 0.31775 -0.003891
0.205514 0.324417 -0.12091
-0.428344 0.31775 -0.061952
-0.322319 0.324417 0.043843
0.032492 0.31775 0.107758
-0.165956 0.324417 -0.130274
0.18587 0.31775 0.070655
-0.083618 0.324417 0.037346
0.218624 0.31775 0.03951
0.021171 0.31775 -0.065492
-0.196574 0.31775 0.223608
-0.037954 0.324417 -0.024009
-0.331296 0.324417 0.103173
0.071499 0.324417 -0.138568
0.120798 0.324417 0.182231
-0.371081 0.31775 0.056307
-0.393021 0.324417 0.0112
0.151319 0.324417 0.05441
0.396755 0.324417 -0.004729
-0.145034 0.324417 0.084052
0.316156 0.31775 -0.033163
0.091414 0.324417 -0.0948
-0.331474 0.324417 -0.146259
0.337039 0.31775 0.047977
0.325887 0.31775 0.102912
-0.208378 0.324417 -0.17535
0.238871 0.31775 0.194303
-0.241144 0.324417 0.145059
-0.093176 0.31775 -0.178092
0.141895 0.324417 0.118895
-0.246252 0.31775 0.02129
-0.187931 0.31775 0.03135
0.080779 0.324417 0.050841
0.12856 0.31775 0.074873
0.279517 0.324417 -0.159472
0.041315 0.31775 0.221137
-0.016895 0.31775 0.212595
0.079384 0.324417 0.218568
0.358591 0.324417 -0.12596
-0.269981 0.31775 -0.058257
-0.13336 0.31775 -0.012311
-0.244235 0.31775 0.193015
0.022125 0.31775 0.051496
-0.265102 0.31775 -0.10879
-0.091674 0.324417 -0.082626
-0.211528 0.324417 -0.115469
0.426408 0.31775 -0.067815
-0.2848 0.31775 0.1769
-0.023702 0.324417 0.027564
0.092119 0.31775 0.184528
0.276759 0.324417 0.080465
0.23448 0.324417 0.145327
-0.050413 0.31775 0.168105
0.4697 0.324417 -0.110447
0.283049 0.31775 0.029777
0.048525 0.31775 -0.17857
0.420526 0.31775 0.058793
0.333102 0.324417 -0.084632
-0.262498 0.324417 -0.030228
-0.128028 0.324417 0.136568
0.380225 0.324417 0.091727
0.050593 0.324417 -0.044887
0.13208 0.324417 -0.150262
0.131857 0.324417 0.223749
-0.087691 0.31775 -0.019111
-0.367378 0.324417 -0.083331
-0.372774 0.31775 0.084002
0.053146 0.324417 0.006326
0.20965 0.324417 0.19482
0.426748 0.324417 -0.16112
0.204958 0.324417 0.089203
-0.416063 0.31775 -0.002684
0.349975 0.324417 -0.051638
0.373197 0.324417 -0.172771
-0.259625 0.324248 -0.178608
-0.054288 0.324417 0.259314
0.371322 0.324417 0.042461
0.243331 0.31775 0.098028
-0.082979 0.324417 0.091005
-0.369576 0.31775 -0.016507
-0.319389 0.31775 0.017997
-0.269058 0.324417 0.125004
0.058316 0.324417 0.101485
0.147432 0.324417 -0.081249
0.080501 0.31775 -0.053561
-0.425766 0.324417 -0.035881
0.152091 0.31775 0.175192
-0.037974 0.324417 -0.103742
-0.060799 0.324417 -0.167518
0.350413 0.31775 0.004023
-0.290598 0.324417 0.069738
-0.431418 0.31775 -0.168178
-0.203615 0.324417 -0.015567
0.188885 0.31775 0.180116
-0.07859 0.31775 0.150485
-0.138637 0.31775 0.057599
-0.203378 0.31775 0.121415
0.179253 0.324417 -0.137744
0.072243 0.324417 0.161623
-0.226872 0.31775 -0.154713
-0.293057 0.324417 0.134805
-0.12117 0.31775 -0.168758
0.38229 0.324417 -0.10373
0.192645 0.324417 0.243956
-0.067442 0.324417 0.117075
0.068822 0.324417 -0.107046
-0.171471 0.31775 0.229046
0.479894 0.31775 -0.140487
-0.207002 0.31775 0.155246
-0.145865 0.31775 0.240879
-0.00308 0.31775 -0.175239
-0.173064 0.31775 -0.064638
-0.039603 0.324417 0.114941
0.288246 0.324417 0.129621
-0.089745 0.324417 0.205597
0.25068 0.31775 -0.113337
0.395468 0.31775 -0.056429
0.203026 0.324417 -0.067868
-0.206047 0.324417 0.054982
-0.141089 0.324417 -0.058857
0.182535 0.324417 -0.040221
0.45227 0.31775 -0.127114
-0.103135 0.324417 -0.130214
0.24582 0.324417 -0.055913
-0.25309 0.324417 -0.150222
0.19879 0.324068 -0.178608
-0.080641 0.31775 0.007557
0.022542 0.31775 -0.171092
0.094248 0.31775 -0.156408
-0.233826 0.324417 0.041943
0.10158 0.324417 0.077393
-0.2141 0.324417 -0.061482
-0.034909 0.324417 0.061963
0.41282 0.324417 -0.117435
0.314201 0.31775 0.14153
0.192815 0.324417 0.001142
0.440503 0.324417 -0.045373
0.186658 0.324417 0.119906
-0.240331 0.31775 -0.108782
-0.007734 0.31775 0.260404
0.315149 0.31775 0.070086
-0.211483 0.324417 0.085913
0.057141 0.324417 0.060488
0.205845 0.324417 0.058584
-0.253906 0.31775 -0.00133
0.12073 0.31775 -0.105973
0.097862 0.324417 0.237811
-0.298167 0.324417 0.158078
-0.062122 0.324417 0.065005
0.231383 0.31775 -0.022921
-0.309763 0.324417 -0.155802
0.027908 0.31775 -0.091499
-0.17141 0.324417 0.122906
-0.090154 0.31775 -0.054527
0.039907 0.31775 0.166069
0.106643 0.324417 0.123877
-0.154632 0.324417 0.193726
-0.145411 0.31775 0.007895
-0.057066 0.31775 0.236923
0.311276 0.31775 -0.009685
0.402449 0.324417 0.082113
0.263456 0.324417 0.195231
-0.003297 0.324417 0.116826
0.288154 0.324417 -0.074104
-0.129629 0.31775 0.103469
0.077601 0.31775 0.269582
-0.338939 0.31775 -0.096363
-0.026502 0.31775 0.190428
0.322125 0.324417 -0.162885
0.241718 0.324417 0.020866
-0.344951 0.31775 -0.174173
-0.30925 0.31775 -0.085071
-0.318151 0.31775 -0.041618
0.309935 0.31775 -0.119781
-0.261959 0.31775 0.084105
0.005918 0.324417 0.239483
0.040804 0.324417 0.286641
-0.365792 0.324417 -0.132321
-0.221984 0.324417 0.214483
-0.339204 0.324417 0.026779
-0.100296 0.31775 0.071487
0.273394 0.324417 0.105478
-0.130162 0.31775 -0.040216
-0.221051 0.31775 -0.03777
0.136849 0.31775 0.244701
0.019875 0.31775 -0.114216
0.24117 0.31775 -0.00187
0.025072 0.324417 0.029704
-0.016944 0.31775 -0.107575
0.202678 0.324417 -0.09873
0.171106 0.324417 0.040032
-0.205846 0.31775 0.197746
-0.317287 0.324417 -0.063011
-0.283329 0.31775 -0.03402
-0.309101 0.324417 0.102867
-0.346874 0.324417 -0.020017
0.239068 0.31775 -0.158253
0.161234 0.324417 0.074188
0.162094 0.324417 0.261489
-0.006475 0.324417 -0.050174
-0.140584 0.324417 -0.121452
0.185222 0.31775 0.224364
0.226574 0.324417 -0.11467
-0.028854 0.31775 0.007313
0.45595 0.324417 -0.093441
0.043543 0.31775 0.26144
0.376078 0.31775 -0.006691
-0.389928 0.31775 -0.144307
-0.023081 0.31775 0.083115
0.152828 0.31775 0.139647
0.131918 0.324417 -0.064314
-0.131569 0.324417 0.175314
0.051211 0.324417 -0.066444
0.235768 0.324417 0.17404
0.361379 0.322151 0.14235
0.046211 0.324417 0.125333
-0.388295 0.31775 -0.092647
-0.049163 0.31775 0.023683
-0.299621 0.31775 -0.104686
0.348037 0.31775 0.029707
-0.189663 0.324417 0.244231
-0.115269 0.31775 0.120932
0.279566 0.324417 -0.138246
0.282111 0.324417 -0.03414
0.144248 0.31775 -0.172512
-0.125843 0.31775 0.267147
0.285486 0.31775 0.008777
0.0117 0.31775 0.069864
0.307714 0.324417 -0.063687
-0.114112 0.31775 0.2158
-0.253864 0.324417 0.110411
-0.012953 0.324417 -0.018256
-0.449549 0.319935 -0.178608
-0.102985 0.31775 -0.102748
-0.210368 0.31775 -0.135302
-0.093488 0.31775 0.248411
0.368546 0.324417 0.071162
0.436589 0.324417 -0.084823
-0.348775 0.324417 0.114459
0.358559 0.324417 0.118353
0.20258 0.31775 0.150203
-0.048477 0.324417 -0.085866
0.297908 0.324417 0.174691
0.191709 0.324417 0.205203
-0.176683 0.324417 -0.091707
-0.079758 0.31775 -0.13063
0.027471 0.324417 0.005384
-0.009249 0.324417 -0.156709
-0.028822 0.324417 0.163708
-0.381131 0.324417 -0.033869
0.149889 0.31775 -0.100403
-0.003955 0.31775 0.196788
-0.344782 0.324417 0.053607
0.09716 0.31775 -0.065206
0.114495 0.31775 0.161455
-0.282947 0.321395 -0.178608
0.402842 0.324417 0.044725
0.385816 0.324417 -0.153551
-0.426038 0.31775 -0.120211
-0.18668 0.31775 -0.024381
-0.139948 0.324417 -0.175139
-0.227772 0.31775 -0.079059
0.359644 0.31775 0.09353
-0.158468 0.31775 -0.008588
0.277891 0.31775 0.171681
0.115878 0.31775 -0.011957
0.165174 0.31775 -0.087354
-0.084033 0.324417 -0.104122
-0.030113 0.31775 -0.164495
-0.03329 0.324417 0.221407
-0.069573 0.324417 -0.042894
0.198622 0.324417 -0.14684
0.117015 0.31775 0.140377
-0.30876 0.31775 -0.177848
-0.195366 0.31775 -0.106654
-0.00122 0.31775 0.004243
0.151158 0.324417 0.22046
-0.305508 0.31775 0.031729
0.0896 0.324417 -0.034017
0.248014 0.31775 0.15744
0.090378 0.324417 0.103603
-0.169733 0.31775 0.020983
-0.011862 0.324417 -0.125611
0.017679 0.31775 0.121874
-0.447473 0.31775 -0.15228
0.260716 0.324417 0.214206
0.37557 0.31775 -0.13882
0.332847 0.324417 0.000434
0.077958 0.31775 0.033156
-0.17683 0.31775 -0.165435
0.035296 0.31775 -0.03188
-0.131819 0.31775 0.157588
0.139659 0.324417 -0.038864
0.082297 0.31775 0.137906
-0.070335 0.31775 0.04899
-0.288229 0.324417 -0.067137
-0.127461 0.324417 0.018594
-0.16592 0.31775 0.209784
-0.235869 0.31775 0.17399
0.225051 0.31775 0.206927
0.223025 0.324417 0.020159
-0.290181 0.31775 0.111053
0.239652 0.31775 -0.081245
0.214034 0.324417 -0.02207
-0.134942 0.31775 0.197604
-0.104066 0.31775 -0.161634
0.234834 0.324417 0.045577
0.425622 0.31775 0.03953
-0.436264 0.31775 -0.078621
0.06312 0.31775 -0.007694
-0.096314 0.324417 0.054819
0.040931 0.324417 0.020414
0.232524 0.324417 -0.142431
0.10674 0.324417 0.058438
-0.044336 0.31775 0.079633
0.288631 0.324417 0.191503
0.27867 0.321347 0.211105
0.268268 0.31775 -0.019512
-0.026178 0.31775 0.047404
-0.220388 0.324417 0.144938
0.08129 0.31775 0.243623
-0.01405 0.31775 0.279452
-0.333513 0.31775 0.005992
0.001818 0.31775 -0.114153
-0.184542 0.31775 -0.133702
-0.33362 0.324417 -0.055365
0.066463 0.31775 -0.15452
-0.07087 0.324417 0.246352
-0.138047 0.324417 0.25564
0.245443 0.324417 0.114597
0.082015 0.31775 -0.169567
-0.0374 0.31775 0.096551
-0.276715 0.324417 0.023336
0.026318 0.31775 0.230927
0.061767 0.324417 0.274475
0.385782 0.324417 -0.075503
0.219568 0.31775 -0.06736
-0.177766 0.324417 0.072406
0.164482 0.31775 0.162449
0.321994 0.324417 -0.142064
0.263971 0.324417 -0.129781
0.181283 0.324417 -0.084055
-0.065083 0.324417 0.019582
0.452676 0.31775 -0.010483
0.200104 0.31775 -0.039414
-0.154721 0.324417 0.147441
-0.029655 0.324417 0.145339
0.002031 0.324417 0.17884
0.462936 0.31775 -0.029071
-0.050536 0.324417 0.277921
0.132034 0.31775 -0.133922
0.066097 0.318757 -0.178608
0.131486 0.324417 0.206188
0.288152 0.31775 -0.09105
0.161776 0.31775 -0.134077
-0.265999 0.324417 -0.162302
-0.106706 0.31775 0.147011
0.304029 0.31775 0.116808
-0.157996 0.324417 0.041943
0.479987 0.320033 -0.071973
0.082875 0.318125 0.286043
0.213639 0.324417 -0.169762
0.056491 0.684394 0.332198
0.180123 0.944939 -0.19036
0.437973 0.684394 0.114772
-0.118566 0.711626 -0.173063
0.534486 0.847234 -0.193061
0.069365 0.664395 0.036859
-0.188927 0.684394 0.294634
-0.097251 0.951044 -0.19283
-0.156022 0.664395 0.072908
-0.469391 0.684394 -0.013738
-0.365556 0.71024 -0.193061
0.367186 0.741365 -0.193061
0.253507 0.664395 0.091271
-0.254769 0.857256 -0.193061
0.205135 0.684394 -0.06303
-0.008032 0.664395 0.179198
-0.274394 0.664395 -0.069578
0.359013 0.664395 -0.036095
0.35223 0.895884 -0.186391
0.156311 0.684394 0.207201
-0.510834 0.684394 -0.18667
0.232474 0.809066 -0.193061
-0.065542 0.664395 -0.040504
0.338426 0.679608 0.220233
-0.316671 0.684073 0.219398
-0.316719 0.684394 0.060554
0.519659 0.711835 -0.193061
-0.244941 0.664395 -0.191448
-0.076272 0.829485 -0.173063
-0.126554 0.664395 0.185798
0.040551 0.684394 -0.082775
-0.428294 0.684394 0.093666
0.282614 0.664395 -0.148417
0.243075 0.675402 0.277203
0.50604 0.684394 -0.015854
-0.232037 0.684394 0.150955
-0.051561 0.684394 0.070665
-0.170993 0.684394 -0.055402
0.198985 0.709707 -0.193061
-0.203687 0.768314 -0.173063
-0.375389 0.664395 -0.057474
0.155328 0.684394 0.104738
0.438317 0.823337 -0.193061
0.346051 0.684394 0.059001
-0.502987 0.781869 -0.175657
0.128294 0.664395 -0.125585
0.15283 0.684394 0.304655
-0.187529 0.919626 -0.186255
-0.229241 0.684394 0.014967
0.256394 0.89725 -0.189198
0.267354 0.684394 0.005247
0.014466 0.814628 -0.193061
0.062319 0.684394 0.128657
-0.317747 0.790465 -0.193061
-0.349639 0.664395 0.142939
0.268022 0.664395 0.175897
0.173179 0.664395 0.012464
0.027456 0.664395 0.255646
-0.334319 0.89073 -0.193061
-0.312411 0.664395 -0.143036
-0.155329 0.834474 -0.193061
0.421296 0.664395 -0.102598
0.112768 0.684394 -0.045349
-0.177031 0.664395 -0.133708
-0.388245 0.684394 0.019453
0.287197 0.73228 -0.193061
-0.039197 0.664395 -0.116915
0.416647 0.684394 0.021651
-0.414811 0.777126 -0.173063
0.362137 0.664395 0.145917
-0.395635 0.664395 -0.132612
0.353562 0.819196 -0.193061
-0.494589 0.684394 -0.085852
-0.411356 0.886605 -0.176172
0.156787 0.777837 -0.193061
-0.006481 0.664395 0.014231
0.084173 0.664395 0.204563
0.447298 0.749415 -0.193061
0.296174 0.664395 -0.075861
0.459712 0.893465 -0.185359
-0.123589 0.684394 -0.000902
-0.06622 0.684394 0.141221
0.480151 0.68045 0.055211
0.347283 0.684394 -0.124325
-0.268826 0.738317 -0.173063
0.049123 0.684394 -0.156862
-0.11188 0.664395 -0.106087
-0.444943 0.713197 -0.173063
-0.315301 0.664395 -0.006886
-0.080532 0.684394 0.234412
0.512618 0.684394 -0.088422
0.117278 0.920801 -0.193061
0.214264 0.664395 -0.12667
-0.079812 0.76534 -0.193061
0.121542 0.684394 -0.189075
0.089077 0.684394 0.273928
-0.191043 0.703379 -0.193061
-0.237974 0.684394 0.080699
-0.124456 0.684394 0.30925
0.072893 0.851748 -0.193061
0.018029 0.684394 0.072287
0.208612 0.664395 0.148889
0.003801 0.951044 -0.190248
-0.239429 0.684394 -0.117986
0.515561 0.787534 -0.193061
-0.182781 0.684394 0.232656
-0.171918 0.664395 0.132515
-0.122148 0.886281 -0.193061
0.467621 0.684394 -0.165599
0.117674 0.664395 0.153024
0.054412 0.664395 -0.022722
-0.290886 0.664395 0.125126
0.441457 0.684394 -0.048688
0.125632 0.684394 0.048618
0.187804 0.880895 -0.193061
0.285614 0.844046 -0.193061
0.229215 0.684394 0.217166
-0.449021 0.830022 -0.193061
-0.140749 0.780589 -0.173063
-0.016481 0.684394 0.331008
-0.480069 0.664395 -0.140405
0.403344 0.870085 -0.173063
-0.010566 0.664395 -0.060438
0.536445 0.684394 -0.144378
0.215949 0.684394 0.046643
0.037348 0.75346 -0.193061
-0.369979 0.822048 -0.193061
-0.056829 0.703426 -0.193061
-0.023657 0.684394 0.238826
-0.261803 0.799839 -0.193061
-0.103344 0.664395 0.052039
0.005767 0.684394 0.12734
0.104454 0.806252 -0.173063
0.284072 0.664395 0.241376
-0.299499 0.684655 -0.193061
-0.225902 0.664395 -0.036601
0.352782 0.684394 -0.183616
0.003989 0.684394 -0.188729
-0.115101 0.684394 0.115821
-0.212306 0.828656 -0.173063
0.311714 0.784067 -0.193061
-0.374529 0.684394 0.085616
-0.0927 0.664395 -0.162846
0.089929 0.664395 0.086951
0.303255 0.664395 0.111002
0.133225 0.664395 0.250887
0.486653 0.836064 -0.173063
0.18635 0.825272 -0.173063
-0.125447 0.664395 0.260518
-0.272461 0.664395 0.040275
0.166181 0.684394 -0.156084
0.383672 0.664395 0.098088
0.207032 0.763152 -0.193061
0.074769 0.950949 -0.193061
0.301902 0.682666 -0.193061
0.376331 0.684394 -0.080458
-0.488817 0.731415 -0.193061
-0.356306 0.756822 -0.173063
-0.29131 0.664395 0.179171
0.039029 0.684394 0.190291
-0.057626 0.684394 0.005988
0.155619 0.684394 -0.087219
-0.181731 0.664395 0.182737
-0.335675 0.684394 -0.102096
-0.507074 0.832248 -0.179164
0.341222 0.684394 0.008788
-0.04711 0.950539 -0.193061
0.218151 0.684394 -0.003485
-0.181268 0.872149 -0.173063
-0.393606 0.684394 0.131505
0.084319 0.684394 -0.105732
0.157518 0.664395 -0.034064
0.252118 0.684394 -0.048825
0.414353 0.684394 -0.146982
0.243483 0.723103 -0.173063
0.152522 0.724467 -0.193061
-0.145203 0.946175 -0.186443
0.098122 0.684394 0.003348
-0.179399 0.684394 -0.007703
0.013175 0.664395 -0.117363
-0.247843 0.684394 0.26995
0.103903 0.680318 0.32502
0.471351 0.790625 -0.173063
-0.405599 0.684394 -0.025179
0.407857 0.716098 -0.193061
0.077443 0.702213 -0.193061
0.403363 0.680756 0.163019
-0.291594 0.884382 -0.173357
0.024056 0.856487 -0.173063
0.303003 0.664395 -0.029093
0.234072 0.858867 -0.173063
0.193577 0.664395 0.085556
-0.054615 0.664395 0.186868
-0.07219 0.684394 -0.090009
-0.109587 0.664395 -0.059469
-0.264255 0.684394 0.215152
0.463118 0.684394 -0.104504
-0.162713 0.734189 -0.173063
-0.225428 0.892105 -0.184592
0.399014 0.774632 -0.193061
-0.272306 0.664395 -0.024303
0.258973 0.778245 -0.173063
-0.229962 0.714968 -0.173063
-0.188325 0.684394 0.048825
0.257815 0.664395 0.046657
0.211754 0.915506 -0.1781
0.414219 0.664395 -0.018182
-0.322285 0.7174 -0.173063
0.255027 0.664395 -0.108533
-0.434079 0.664395 -0.155164
-0.350636 0.684394 -0.151948
-0.217677 0.664395 -0.150568
-0.211585 0.664395 0.10906
0.008595 0.895597 -0.193061
-0.027428 0.664395 0.10065
0.5023 0.888337 -0.191179
-0.198446 0.664395 -0.096178
-0.17864 0.79696 -0.193061
0.500671 0.673328 -0.193061
0.334251 0.851796 -0.173063
0.369168 0.684394 0.191078
-0.156599 0.684394 -0.176723
0.026831 0.684394 0.293207
0.304074 0.684394 0.052056
0.37607 0.664395 0.02203
-0.276601 0.664395 -0.116488
0.169438 0.664395 0.164585
0.495403 0.750482 -0.193061
0.199725 0.684394 0.187187
0.271336 0.684394 0.12967
-0.369613 0.682535 0.175097
0.536354 0.754451 -0.177769
-0.049446 0.684394 -0.152306
-0.361139 0.664395 0.044311
-0.14246 0.664395 -0.032699
-0.370102 0.863477 -0.193061
-0.312095 0.684394 -0.068045
-0.158073 0.684394 -0.102943
-0.414546 0.684394 -0.065385
-0.077452 0.683177 0.328153
-0.062184 0.664395 0.267697
-0.438237 0.684394 0.040145
-0.458419 0.751859 -0.173063
0.23236 0.684394 -0.165607
-0.404072 0.713189 -0.173063
-0.054202 0.857907 -0.193061
-0.475768 0.664395 -0.18207
0.085342 0.664395 -0.180947
-0.239077 0.664395 0.19063
0.034435 0.664395 0.016536
0.007577 0.664395 -0.024388
0.033462 0.664395 0.155752
-0.02569 0.664395 0.142425
-0.202959 0.664395 0.262793
-0.275403 0.664395 -0.159166
0.068846 0.664395 -0.062628
-0.139083 0.664395 0.034168
0.057839 0.684394 0.070438
0.295324 0.684394 -0.116439
0.3894 0.838924 -0.193061
-0.291434 0.684394 0.090817
0.136769 0.684394 -0.007148
-0.451139 0.89616 -0.189103
0.106892 0.684394 0.230306
-0.117734 0.684394 0.218004
-0.45811 0.684394 -0.050944
0.410161 0.664395 -0.060095
0.262775 0.684394 -0.192378
0.150852 0.664395 0.071958
-0.129199 0.684394 -0.147979
0.305208 0.817641 -0.173063
0.311244 0.875236 -0.193061
-0.086501 0.684394 0.173883
-0.378484 0.789405 -0.173063
0.006909 0.776713 -0.193061
-0.427594 0.673406 -0.193061
-0.13151 0.664395 0.14783
-0.073919 0.926489 -0.173063
0.32835 0.664395 -0.162052
0.107932 0.716043 -0.173063
-0.165999 0.664395 0.271913
-0.35729 0.684394 -0.002367
0.336714 0.717328 -0.193061
-0.078128 0.887138 -0.193061
-0.119609 0.818783 -0.193061
0.388529 0.664395 -0.128259
-0.431313 0.684394 0.003148
0.343502 0.785305 -0.173063
-0.027032 0.664395 0.29405
-0.151155 0.664395 0.232353
-0.046742 0.664395 0.039423
-0.011057 0.684394 0.045503
0.347721 0.664395 0.108243
0.145892 0.940065 -0.176232
0.016171 0.664395 0.220089
0.203452 0.664395 -0.17775
0.173983 0.90898 -0.173063
0.061099 0.684394 0.249582
-0.040941 0.684394 -0.06771
0.187857 0.684394 -0.026833
0.036603 0.664395 0.111089
0.378103 0.684394 -0.011597
-0.012614 0.664395 -0.143798
0.107342 0.684394 0.123786
-0.28659 0.818435 -0.173063
-0.048629 0.808496 -0.193061
-0.09356 0.664395 0.297121
0.455981 0.705817 -0.193061
0.040854 0.700355 -0.193061
0.498496 0.681239 0.019759
0.495824 0.664395 -0.12078
-0.081943 0.664395 0.08153
-0.232043 0.793478 -0.173063
0.542637 0.81089 -0.186228
0.074167 0.664395 0.156663
0.112254 0.835628 -0.193061
-0.305503 0.756238 -0.193061
-0.256951 0.698621 -0.193061
0.210432 0.677326 0.292971
0.517709 0.684394 -0.050222
0.266417 0.820658 -0.173063
0.059412 0.727047 -0.173063
0.101558 0.664395 -0.078093
0.436926 0.866441 -0.193061
-0.312951 0.684394 0.145656
0.042869 0.939415 -0.175984
0.33459 0.684394 -0.064123
-0.134342 0.914423 -0.173063
0.171498 0.684394 0.042492
0.378964 0.706866 -0.173063
0.542487 0.684394 -0.188955
-0.193972 0.664395 0.019532
-0.188183 0.684394 0.090608
-0.008557 0.684394 -0.09702
0.264966 0.684394 0.215567
0.425273 0.788459 -0.173063
0.096765 0.664395 -0.142433
-0.086103 0.723937 -0.193061
0.187503 0.684394 0.224619
-0.330171 0.664395 -0.044733
-0.175118 0.76108 -0.193061
-0.464997 0.805271 -0.173063
0.090715 0.778931 -0.193061
0.48702 0.713204 -0.173063
0.190845 0.664395 -0.088656
0.368061 0.664395 -0.158581
0.244472 0.752406 -0.193061
0.317025 0.684394 0.149581
-0.27653 0.681061 0.248215
-0.2378 0.664395 0.047393
-0.101163 0.664395 -0.01958
0.41968 0.664395 0.092173
0.038288 0.684394 -0.047576
-0.194773 0.684394 0.150407
-0.377394 0.897714 -0.191141
0.234065 0.664395 -0.080456
0.118779 0.664395 0.199349
-0.357198 0.664395 -0.18855
-0.346627 0.664395 0.108133
0.072585 0.92129 -0.173063
0.212555 0.684394 0.10686
0.23385 0.684394 0.162177
-0.091214 0.684394 0.268897
-0.38098 0.684394 -0.168499
-0.329952 0.664395 0.029436
-0.098218 0.684394 -0.190467
-0.080769 0.684394 0.110065
-0.33959 0.667907 0.182618
-0.100061 0.684394 0.024504
-0.006294 0.859966 -0.193061
-0.406586 0.684394 -0.105586
0.121865 0.684394 -0.153955
-0.113816 0.767303 -0.193061
0.310316 0.709395 -0.173063
-0.369273 0.684394 -0.096933
0.41651 0.75366 -0.173063
0.391189 0.664395 0.065111
0.020398 0.664395 -0.150926
-0.227436 0.664395 -0.070213
-0.26815 0.684394 0.139768
0.121727 0.664395 0.100927
0.125843 0.744893 -0.193061
-0.455606 0.856166 -0.173063
0.175162 0.739093 -0.173063
-0.298967 0.845905 -0.193061
0.163241 0.684394 -0.122719
-0.22417 0.859919 -0.173063
0.128594 0.664395 0.290533
-0.253118 0.684394 -0.042737
-0.204064 0.733998 -0.193061
-0.41271 0.825189 -0.193061
0.49605 0.684394 -0.14838
-0.008473 0.664395 0.072289
-0.243882 0.760182 -0.173063
-0.199547 0.684394 -0.035325
0.412974 0.684394 -0.185022
-0.465277 0.67723 0.018319
0.224696 0.664395 -0.029016
0.138666 0.664395 0.025782
-0.040674 0.752099 -0.173063
0.33395 0.684394 -0.028256
-0.114798 0.664395 0.084537
-0.045357 0.684394 0.211407
0.307122 0.664395 0.078102
-0.14884 0.664395 -0.069323
0.287045 0.684394 -0.04976
0.323264 0.664395 0.027729
-0.037889 0.684394 0.165481
0.057291 0.664395 0.223456
-0.152585 0.684394 0.098731
-0.004323 0.664395 0.26393
-0.490175 0.684394 -0.044805
-0.270199 0.664395 0.072842
-0.049624 0.684394 0.306387
0.079617 0.664395 0.297799
-0.151634 0.684394 0.190331
0.44457 0.668338 -0.193061
0.391002 0.896791 -0.186445
0.340292 0.759201 -0.193061
-0.137686 0.730403 -0.193061
0.315739 0.664395 -0.131226
-0.197758 0.853114 -0.193061
-0.020975 0.684394 -0.00634
0.29024 0.75721 -0.173063
0.385119 0.807225 -0.193061
0.436724 0.664395 0.006905
-0.063774 0.684394 -0.120908
0.096325 0.684394 0.03598
0.056776 0.684394 0.002005
-0.15696 0.867631 -0.193061
0.068687 0.810113 -0.193061
-0.352499 0.684394 -0.066624
0.24875 0.664395 0.139344
0.447662 0.684394 0.08297
0.162816 0.664395 0.23078
-0.144525 0.664395 -0.123288
0.503459 0.853776 -0.193061
-0.207799 0.684394 -0.17428
-0.194675 0.664395 -0.061138
0.16262 0.857705 -0.193061
-0.437423 0.768369 -0.193061
-0.458427 0.684394 -0.082927
0.005596 0.724295 -0.193061
0.274462 0.711742 -0.173063
-0.04943 0.684394 0.111321
-0.242113 0.735656 -0.193061
0.298552 0.684394 0.004273
-0.29921 0.664395 -0.047759
0.237707 0.684394 0.020675
0.467216 0.684394 -0.019985
0.116452 0.664395 -0.019169
-0.400618 0.859409 -0.193061
0.100278 0.684394 0.168657
-0.160294 0.664395 0.005653
-0.399062 0.684394 0.062471
0.286264 0.684394 0.095243
-0.336908 0.744204 -0.193061
0.000353 0.684394 0.203228
-0.132043 0.684394 0.056153
-0.030347 0.930246 -0.173063
0.135327 0.664395 -0.076358
0.174639 0.708265 -0.173063
-0.314894 0.664395 -0.092252
0.163319 0.664395 0.126267
0.452193 0.684394 0.043841
0.294096 0.684394 0.186216
-0.119567 0.684394 -0.080046
0.069559 0.684394 -0.134403
-0.329806 0.686464 -0.193061
-0.082217 0.684394 0.20392
0.213636 0.741323 -0.173063
0.368215 0.764132 -0.173063
0.182409 0.684394 -0.192137
0.285194 0.684394 0.264031
-0.152746 0.675655 0.303133
-0.334491 0.664395 0.080473
-0.503071 0.675387 -0.124281
0.250606 0.684394 -0.14159
-0.216998 0.684394 0.058107
0.030492 0.684394 0.044854
0.178894 0.684394 0.277139
-0.25543 0.684394 0.105247
0.364762 0.684394 0.082595
0.434075 0.710958 -0.173063
-0.007307 0.808989 -0.173063
-0.312057 0.684394 0.015817
0.117529 0.684394 -0.093899
-0.25295 0.684394 0.172481
0.151944 0.912823 -0.193061
-0.406979 0.743027 -0.173063
-0.378342 0.760433 -0.193061
-0.315087 0.684394 0.187741
-0.234882 0.684394 0.221085
0.434719 0.684394 -0.120414
0.150982 0.688251 -0.193061
-0.220563 0.681663 0.281937
0.399083 0.684394 -0.102364
-0.152368 0.901487 -0.193061
-0.35675 0.795278 -0.193061
0.084436 0.664395 0.128505
-0.053343 0.684394 0.246653
0.373199 0.664395 -0.102332
0.134338 0.684394 0.136316
-0.182205 0.664395 -0.17119
0.44725 0.789472 -0.193061
-0.023674 0.874462 -0.173063
-0.381315 0.664395 -0.028474
-0.254741 0.895478 -0.186266
-0.157912 0.664395 0.161106
-0.432888 0.800493 -0.173063
0.216187 0.846502 -0.193061
-0.158418 0.709363 -0.193061
0.019124 0.664395 -0.086132
0.139917 0.825392 -0.193061
0.22286 0.664395 0.180779
-0.126483 0.684394 -0.182294
-0.044729 0.671024 -0.193061
0.25045 0.684394 0.250206
0.056681 0.90035 -0.193061
-0.335888 0.86927 -0.173063
-0.203594 0.684394 -0.13435
0.127184 0.684394 0.077923
0.256647 0.848257 -0.193061
0.216946 0.883579 -0.193061
-0.298991 0.684394 -0.020634
0.494532 0.772816 -0.173063
-0.075666 0.69355 -0.173063
0.45786 0.845008 -0.193061
0.31939 0.684394 0.09726
0.466187 0.814885 -0.193061
-0.466857 0.694079 -0.173063
0.422355 0.681061 0.139034
0.000295 0.664395 0.318278
-0.418243 0.664395 0.033621
-0.048851 0.684394 -0.027741
-0.228786 0.814221 -0.193061
-0.017989 0.82708 -0.193061
-0.469309 0.684394 -0.111339
0.451596 0.664395 -0.070747
0.12859 0.867939 -0.193061
-0.32677 0.7624 -0.173063
0.287964 0.684394 0.153254
0.484596 0.684394 -0.066842
0.081386 0.664395 0.239273
-0.1118 0.664395 -0.136681
0.223868 0.682309 -0.193061
-0.033617 0.684394 0.274422
-0.09128 0.804611 -0.193061
-0.193394 0.664395 0.209044
-0.504612 0.67346 -0.160815
0.273299 0.684394 0.060318
-0.275326 0.855823 -0.173063
0.390907 0.664395 -0.038792
-0.297174 0.789339 -0.173063
-0.440316 0.664395 -0.039956
0.274405 0.664395 -0.027816
0.145721 0.664395 -0.15581
0.475046 0.750756 -0.173063
-0.013635 0.91348 -0.193061
0.270072 0.684394 -0.072678
-0.166437 0.81313 -0.173063
0.430056 0.684394 -0.074761
-0.019491 0.664395 -0.033432
0.077024 0.684394 -0.162379
0.071973 0.684394 0.176748
0.229506 0.83083 -0.173063
-0.185355 0.664395 0.068762
0.127861 0.789376 -0.173063
-0.416127 0.664395 -0.087833
0.083902 0.664395 -0.010838
-0.084803 0.664395 0.133624
0.348474 0.664395 0.193498
-0.044815 0.684394 -0.097799
-0.2452 0.664395 -0.156695
-0.516319 0.736186 -0.189081
0.104143 0.664395 -0.108525
0.401357 0.684394 0.048125
0.35317 0.664395 0.038381
-0.210842 0.786733 -0.193061
-0.312381 0.664395 0.097817
0.306243 0.681061 0.245721
0.133981 0.703813 -0.173063
