-0.420468 0.415846 -0.19089
0.077259 0.390322 0.188125
0.434344 0.394616 0.274185
0.546138 0.390322 0.219433
-0.443904 0.415846 0.2486
0.444869 0.415846 -0.205243
-0.14706 0.390322 -0.213888
0.273476 0.390322 -0.187381
-0.168682 0.390322 0.068552
0.410754 0.415846 0.009289
0.299362 0.415846 -0.041686
0.375752 0.415846 0.090578
-0.300876 0.415846 0.146117
-0.579925 0.415846 -0.233315
-0.53692 0.415846 0.085872
-0.129613 0.415846 0.186953
0.235678 0.415846 0.122943
-0.267799 0.390322 -0.171732
0.446193 0.415846 0.141364
-0.2801 0.415846 0.016857
-0.061247 0.415846 0.164038
0.0555 0.415846 0.085945
-0.017981 0.390322 0.052214
-0.262544 0.415846 0.083783
-0.51888 0.415846 0.260897
-0.349652 0.415846 0.231662
0.477297 0.415846 -0.264298
-0.528938 0.415846 -0.032869
-0.386719 0.415846 0.021016
-0.552383 0.390322 0.180774
0.185304 0.390322 -0.003486
-0.295462 0.390322 -0.231547
-0.551596 0.390322 -0.164675
0.344249 0.415846 -0.278983
-0.3511 0.390322 -0.102474
0.173394 0.390322 -0.109755
0.562241 0.390322 -0.092402
0.171235 0.415846 -0.218847
0.177104 0.390322 0.129704
-0.426467 0.415846 0.167055
-0.12353 0.415846 -0.160886
0.013988 0.415846 -0.181736
0.053975 0.415846 -0.050883
0.45909 0.415846 -0.08336
0.137279 0.415846 0.183599
-0.134576 0.415846 0.012861
-0.477057 0.390322 0.13125
-0.234495 0.414884 0.274185
-0.14326 0.415846 0.24625
-0.032698 0.402171 0.274185
0.548567 0.390322 -0.007086
-0.10113 0.415846 0.070096
-0.305288 0.415846 -0.132838
-0.399541 0.415846 -0.078885
-0.246345 0.390322 0.162955
0.258677 0.390322 0.016918
-0.220795 0.390322 -0.064692
0.274007 0.390322 -0.246045
0.302393 0.406499 0.274185
0.283782 0.390322 0.077878
-0.408761 0.390322 -0.026682
0.391717 0.390322 -0.219298
-0.349576 0.415846 0.115107
-0.105222 0.390322 -0.034966
-0.495384 0.390322 -0.13128
-0.297341 0.390322 -0.036733
0.498574 0.415846 -0.188016
0.020365 0.415846 0.168505
0.597521 0.402198 -0.20814
0.33004 0.415846 0.189054
0.229832 0.415846 -0.210446
0.416893 0.390322 0.212899
0.226377 0.415846 0.238886
0.09441 0.415846 -0.008628
-0.563237 0.415846 0.227801
-0.32029 0.396592 0.274185
0.466059 0.390322 0.006349
-0.540179 0.415846 0.023283
0.488655 0.415846 0.104091
0.488422 0.390322 0.259444
-0.07153 0.415846 -0.130815
-0.020128 0.390322 0.192413
-0.189882 0.415846 -0.174236
0.426909 0.390322 -0.034799
0.139448 0.390322 0.230729
0.510693 0.415846 0.178481
-0.063157 0.415846 -0.062227
-0.02262 0.415846 0.002703
-0.533083 0.390322 -0.257751
-0.397248 0.415846 -0.135876
0.05785 0.390322 -0.193142
-0.062491 0.390322 0.107983
-0.53364 0.415846 0.139706
-0.217918 0.390322 0.082578
0.263855 0.390322 -0.103582
0.547136 0.415846 0.270118
-0.444965 0.415846 0.01718
0.347575 0.415846 -0.025532
-0.151178 0.390322 -0.099153
-0.099096 0.390322 -0.264457
0.06443 0.390322 0.245469
0.257263 0.390322 0.170369
0.083058 0.390322 -0.083079
-0.163013 0.390322 0.137745
0.170719 0.415846 0.070506
0.564963 0.415846 0.181024
-0.32823 0.415846 -0.2041
0.327001 0.415846 0.081384
0.066382 0.415846 0.147035
-0.040142 0.415846 -0.236294
-0.184551 0.390322 -0.258985
0.576126 0.415846 0.12034
0.515574 0.415846 -0.112487
-0.236698 0.415846 0.211288
0.337543 0.390322 -0.148077
-0.589359 0.413037 -0.121038
0.339677 0.415846 0.13277
0.001599 0.390322 -0.092379
-0.320301 0.390322 0.18967
-0.401934 0.390322 -0.228188
-0.194915 0.415846 0.035602
-0.186335 0.390322 0.254323
0.406815 0.390322 0.129781
-0.237669 0.415846 -0.277956
0.214259 0.415846 -0.108138
0.107077 0.390322 0.083951
-0.475066 0.390322 -0.247191
0.58674 0.390322 -0.266477
0.380137 0.390322 -0.109171
-0.46637 0.415846 0.092414
0.375932 0.390322 0.050478
-0.516168 0.415846 -0.081307
0.018221 0.415846 0.033373
-0.168645 0.390322 -0.018621
0.084806 0.415846 -0.162387
0.144017 0.415846 0.005475
-0.244946 0.390322 0.037453
-0.145033 0.415846 0.102588
0.549534 0.390322 0.073387
-0.22967 0.415846 -0.101983
-0.231258 0.415846 -0.15086
-0.432089 0.390322 -0.15446
0.485815 0.390322 -0.227331
-0.385297 0.415846 0.260118
-0.502753 0.415846 -0.17212
0.455294 0.415846 0.240184
-0.489219 0.415846 -0.002735
0.424673 0.390322 -0.174107
0.437903 0.390322 -0.128538
0.308206 0.415846 -0.170484
-0.339036 0.390322 0.02794
0.529562 0.390322 -0.168116
0.331711 0.415846 -0.072468
-0.366924 0.390322 0.082185
0.255738 0.415846 -0.032463
0.515408 0.390322 -0.062141
-0.175312 0.415846 0.171915
0.141501 0.390322 -0.23968
0.47738 0.415846 0.047717
-0.386161 0.390322 0.131643
-0.45212 0.415846 -0.065225
0.046782 0.415846 -0.22786
0.011686 0.415846 0.085286
-0.11198 0.390322 0.266721
-0.381025 0.406004 -0.280968
0.127032 0.390322 -0.192586
0.430109 0.415846 0.098995
-0.438757 0.415846 -0.230307
0.418388 0.415846 -0.097953
-0.033002 0.390322 -0.187261
-0.259722 0.390322 -0.01553
-0.441997 0.414294 -0.280968
0.100752 0.415846 0.228944
-0.378356 0.415846 -0.199081
0.161315 0.399166 -0.280968
0.394467 0.415846 0.254087
0.367972 0.390322 -0.177734
0.187568 0.390322 -0.069733
-0.386712 0.415846 0.19752
0.430672 0.390322 0.172779
0.44663 0.390322 -0.250268
-0.059277 0.415846 0.065013
0.188725 0.390322 0.24666
-0.027066 0.415846 0.225103
-0.40378 0.415846 0.064041
0.374762 0.390322 -0.265811
0.010286 0.415846 -0.124923
0.0379 0.415846 -0.012382
-0.183977 0.415846 -0.098254
-0.29791 0.390322 -0.099282
0.213108 0.390322 0.09915
0.198359 0.415846 -0.03352
-0.554628 0.390322 -0.212551
0.084686 0.390322 -0.274987
-0.132973 0.415846 -0.242831
-0.295062 0.415846 0.211333
0.554752 0.415846 -0.194547
0.37347 0.415846 0.218553
0.566852 0.390322 0.029132
-0.25234 0.390322 -0.250056
0.257648 0.390322 0.262097
-0.077549 0.415846 -0.020875
0.41452 0.415846 0.049075
0.311893 0.390322 -0.202913
-0.100631 0.390322 -0.181401
0.50545 0.390322 0.012968
0.41895 0.415846 -0.235628
-0.334611 0.390322 -0.013474
0.172901 0.415846 0.213667
-0.281149 0.390322 0.059533
0.144235 0.390322 0.107224
-0.26677 0.415846 0.123332
-0.259157 0.415846 -0.200775
0.579419 0.415846 0.217871
-0.443117 0.390322 0.073231
-0.569725 0.390322 0.042109
0.322805 0.390322 -0.004646
0.360672 0.415846 -0.239509
0.030314 0.390322 0.113496
0.331535 0.390322 -0.252068
-0.498141 0.390322 0.239597
-0.118371 0.390322 -0.125591
0.382847 0.390322 -0.000248
0.24125 0.390322 0.063964
0.271565 0.415846 -0.157437
-0.520271 0.390322 0.2027
-0.052694 0.390322 -0.108572
0.200127 0.390322 -0.221562
-0.128339 0.415846 -0.081258
0.151301 0.415846 -0.128534
-0.589359 0.394893 -0.15845
0.334654 0.415846 0.22732
-0.134462 0.415846 0.14876
0.358454 0.390322 0.183383
-0.238902 0.390322 0.242975
-0.421857 0.390322 -0.096683
-0.392448 0.390322 -0.174323
-0.565496 0.415846 0.118627
0.28257 0.415846 -0.082664
0.214737 0.390322 0.020414
-0.315301 0.415846 -0.058213
-0.10482 0.415846 0.229986
0.221272 0.390322 -0.017654
-0.452477 0.390322 0.177063
0.018267 0.390322 -0.042314
-0.14881 0.415846 -0.126756
0.04306 0.390322 0.214537
0.045386 0.390322 -0.258779
0.245965 0.415846 -0.244328
0.431536 0.390322 0.027168
0.520518 0.415846 0.22915
-0.292681 0.415846 -0.258762
0.51846 0.415846 0.141928
0.366846 0.390322 0.130787
-0.231548 0.415846 -0.022403
-0.0883 0.390322 0.164843
-0.306974 0.390322 -0.187523
-0.505833 0.390322 0.070018
0.099494 0.415846 -0.128417
0.535174 0.390322 0.167611
0.163908 0.390322 0.18389
0.510508 0.415846 -0.248269
0.28137 0.415846 0.181406
0.145093 0.390322 -0.07776
0.450011 0.415846 -0.166793
0.402097 0.390322 0.091339
-0.360905 0.415846 -0.131253
-0.503164 0.390322 -0.037885
-0.127145 0.390322 0.073018
0.493443 0.390322 -0.099227
-0.037788 0.390322 -0.066418
0.272894 0.390322 0.116724
0.106832 0.415846 0.042627
-0.112378 0.390322 -0.227642
0.172511 0.415846 0.03448
0.572819 0.390322 -0.128322
0.09759 0.415846 -0.049775
0.119084 0.415846 -0.08703
0.342117 0.390322 -0.095392
-0.26012 0.390322 0.195969
0.310386 0.390322 0.237415
-0.453356 0.390322 -0.210035
-0.167537 0.415846 -0.228148
-0.13044 0.390322 0.211879
0.210387 0.415846 -0.244868
0.532829 0.415846 -0.026143
-0.211129 0.390322 0.167251
0.032279 0.415846 -0.086567
-0.131107 0.390322 0.037233
-0.589359 0.407656 0.199236
-0.513473 0.390322 0.001285
-0.12732 0.415846 -0.199279
-0.407259 0.415846 -0.259457
-0.045659 0.390322 -0.005237
-0.311488 0.390322 0.230965
0.460257 0.390322 -0.059051
0.062206 0.415846 0.044489
0.234603 0.415846 0.178842
-0.373796 0.390322 0.231776
0.095112 0.390322 0.015352
-0.330342 0.390322 -0.228385
-0.253194 0.390322 -0.106631
0.225449 0.390322 -0.157576
-0.320432 0.415846 0.012882
0.040149 0.415846 -0.158561
0.26756 0.415846 0.038974
0.29908 0.415846 -0.005817
0.184898 0.390322 -0.178919
0.260179 0.415846 0.096666
0.016868 0.390322 -0.147631
0.375305 0.415846 0.022154
-0.145015 0.415846 -0.031638
0.273156 0.415846 -0.210906
-0.383999 0.390322 -0.113479
0.303947 0.415846 -0.259907
-0.099787 0.415846 -0.05781
0.376594 0.390322 -0.144173
-0.199389 0.415846 0.235022
0.404224 0.415846 -0.066497
0.515225 0.390322 0.076863
-0.528783 0.415846 -0.149503
-0.416326 0.393397 0.274185
0.070928 0.390322 -0.009926
-0.168729 0.415846 0.009464
-0.151775 0.390322 0.181163
-0.478876 0.415846 -0.147637
0.570746 0.390322 0.142405
-0.34604 0.415846 0.182696
0.242634 0.390322 0.201218
-0.060208 0.390322 -0.225799
0.001865 0.415846 0.197747
-0.498766 0.415846 0.124951
-0.080807 0.415846 0.136165
-0.364846 0.390322 -0.056914
0.042306 0.390322 0.163805
0.132087 0.390322 0.1418
0.527048 0.415846 0.007387
-0.477177 0.415846 0.232052
-0.091049 0.415846 -0.218623
-0.056348 0.415846 0.019375
0.466663 0.390322 0.101992
-0.012779 0.390322 -0.026176
0.192328 0.415846 0.106468
0.224645 0.390322 0.141875
-0.550233 0.390322 -0.037988
-0.446491 0.390322 -0.005697
0.487851 0.415846 0.221229
-0.062294 0.390322 0.263534
0.028458 0.391772 0.274185
0.196076 0.415846 0.140206
0.570493 0.415846 0.007808
0.108579 0.390322 -0.024935
-0.453426 0.415846 0.051244
-0.271859 0.415846 -0.132932
-0.357286 0.390322 -0.203614
0.514168 0.415846 -0.145851
-0.007077 0.415846 -0.247491
-0.475268 0.415846 -0.089091
-0.17983 0.415846 0.107001
0.06649 0.415846 0.224506
0.500127 0.390322 0.121757
0.047294 0.415846 0.193935
0.112626 0.390322 0.211494
0.32685 0.390322 0.168388
0.255731 0.406047 -0.280968
0.582493 0.415846 -0.105754
-0.077267 0.415846 -0.098415
-0.209035 0.390322 -0.182217
0.3453 0.390322 -0.05703
-0.180367 0.390322 -0.078027
-0.189654 0.390322 -0.043765
0.086155 0.415846 -0.254602
-0.526874 0.390322 0.103588
0.291807 0.390322 -0.158272
-0.42448 0.390322 0.146898
-0.312425 0.390322 0.100627
-0.551828 0.390322 0.000604
0.559129 0.415846 0.091117
0.453655 0.415846 0.025496
-0.356845 0.408931 0.274185
0.376146 0.415846 -0.19606
-0.048401 0.415846 -0.153552
-0.018288 0.415846 -0.093921
0.442768 0.390322 -0.094803
0.520627 0.415846 0.098991
0.282003 0.390322 -0.032273
0.179816 0.415846 -0.260453
0.396251 0.415846 0.195705
-0.505136 0.415846 0.093324
0.007946 0.390322 0.016566
-0.221419 0.390322 0.117509
-0.151254 0.415846 -0.177253
0.248117 0.415846 -0.183961
-0.513757 0.390322 0.137507
-0.17058 0.415846 0.203701
0.10808 0.415846 -0.187986
-0.401491 0.390322 -0.057963
0.079957 0.390322 0.133079
-0.358339 0.415846 -0.084493
-0.438189 0.390322 0.035272
0.241944 0.415846 0.007529
-0.533798 0.415846 0.176172
-0.476724 0.390322 -0.062773
0.078835 0.390322 -0.046148
-0.207583 0.390322 -0.097807
0.496063 0.390322 0.051375
-0.095937 0.415846 0.026401
0.429214 0.390322 0.243098
0.553009 0.415846 -0.127386
-0.442022 0.415846 0.216885
0.549443 0.390322 -0.215672
0.484905 0.415846 -0.064872
0.481375 0.415846 -0.113699
-0.311808 0.415846 0.055746
-0.547924 0.415846 0.056132
0.463322 0.415846 -0.036185
-0.382627 0.390322 -0.253491
-0.20303 0.415846 0.071263
0.157357 0.390322 -0.018257
-0.484191 0.415846 0.152988
-0.589359 0.401344 0.245059
-0.277391 0.390322 0.168418
-0.030959 0.390322 -0.252328
0.260007 0.415846 0.230044
-0.528785 0.415846 0.219087
-0.512133 0.390322 -0.20015
-0.444964 0.390322 -0.256403
-0.388617 0.390322 0.053583
0.134885 0.415846 -0.273948
-0.035296 0.390322 0.025987
-0.264445 0.390322 -0.062992
0.218409 0.390322 -0.126962
0.08891 0.390322 -0.196552
-0.318834 0.390322 0.146799
0.0674 0.390322 -0.158461
-0.050484 0.390322 0.199368
-0.382846 0.415846 0.090215
0.504636 0.415846 0.266754
0.514912 0.390322 -0.216326
-0.118016 0.390322 0.155696
-0.2674 0.415846 0.252509
-0.070766 0.390322 0.051833
-0.110113 0.390322 -0.004444
0.585801 0.390322 0.104797
-0.210533 0.390322 -0.230226
-0.396998 0.415846 -0.014045
-0.482575 0.390322 0.100975
-0.067131 0.390322 -0.045559
0.585715 0.415846 0.150579
0.115759 0.390322 0.252829
0.230245 0.415846 0.076946
0.493959 0.390322 0.175951
0.246879 0.390322 -0.227571
-0.333897 0.415846 -0.170324
-0.332603 0.415846 -0.119415
0.286978 0.390322 0.005782
-0.014751 0.415846 -0.191544
0.597521 0.412999 0.072787
0.424874 0.415846 0.227302
-0.309835 0.390322 -0.148516
-0.000141 0.390322 -0.173633
-0.556132 0.390322 0.070185
0.315685 0.415846 0.020245
0.259296 0.415846 -0.063333
-0.558326 0.390322 0.243274
0.581509 0.415846 -0.251123
-0.293601 0.415846 -0.178395
-0.255242 0.390322 0.268363
0.120842 0.415846 0.154466
0.367066 0.415846 -0.118535
0.434306 0.415846 -0.064679
-0.239438 0.415846 0.135994
0.481043 0.415846 0.012958
0.276032 0.415846 -0.113848
-0.585143 0.415846 -0.191084
-0.445308 0.415846 0.143632
0.33823 0.415846 -0.169108
-0.322658 0.415846 -0.256813
-0.16946 0.390322 0.222618
0.200795 0.415846 -0.001253
-0.463929 0.390322 -0.152238
0.092531 0.390322 -0.240395
-0.112865 0.415846 -0.019759
0.318538 0.415846 -0.219647
-0.215132 0.415846 -0.04734
0.550329 0.390322 -0.248089
0.394951 0.390322 0.269432
0.419146 0.415846 -0.188404
0.217328 0.390322 0.174582
-0.191777 0.390322 0.096751
-0.475042 0.415846 0.030837
-0.147322 0.390322 0.260903
-0.047394 0.390322 0.23057
0.281352 0.390322 0.045301
-0.090362 0.415846 0.097753
0.376315 0.415846 -0.159311
0.49875 0.415846 0.076185
0.351786 0.390322 0.001539
0.480355 0.390322 -0.03646
0.531132 0.415846 0.199904
-0.237112 0.415846 0.174759
-0.429498 0.390322 -0.067519
0.010259 0.415846 -0.27146
0.082954 0.415846 0.096898
0.29032 0.415846 0.057803
0.464462 0.415846 0.189733
-0.340391 0.390322 0.126644
0.427889 0.390322 -0.005376
-0.248774 0.415846 0.023296
0.297093 0.390322 -0.11887
0.076382 0.415846 0.253939
0.127806 0.415846 -0.166187
0.291738 0.415846 0.223612
0.066889 0.415846 -0.023599
-0.25259 0.415846 -0.055083
0.289243 0.415846 0.093581
-0.418945 0.415846 -0.036602
-0.466558 0.415846 -0.221444
-0.101186 0.390322 0.211902
-0.03696 0.415846 0.19549
-0.331303 0.415846 0.14029
-0.511797 0.390322 -0.094669
-0.538868 0.415846 -0.245033
-0.339236 0.415846 0.046059
-0.024401 0.415846 0.039855
0.519852 0.390322 -0.125723
0.061187 0.415846 -0.083562
-0.501936 0.415846 -0.106638
0.167357 0.415846 -0.097273
-0.580043 0.390322 0.16192
0.540065 0.415846 -0.275211
0.359103 0.415846 -0.05804
0.597521 0.412839 0.263962
-0.420271 0.415846 0.197659
-0.494025 0.415846 0.062868
0.260026 0.390322 -0.012061
0.148718 0.415846 0.094294
0.008924 0.390322 0.16114
-0.333235 0.415846 0.255453
0.164408 0.390322 -0.207199
-0.010926 0.415846 -0.144719
0.378719 0.415846 0.124388
0.188529 0.415846 -0.121152
-0.061534 0.390322 0.079113
0.304141 0.415846 0.129751
-0.152469 0.390322 0.017929
-0.452672 0.390322 -0.105497
0.442576 0.390322 0.198951
0.321862 0.415846 0.255227
-0.095215 0.415846 -0.147083
0.213639 0.390322 0.232377
-0.205341 0.415846 0.0065
-0.047981 0.415846 -0.018025
-0.380999 0.415846 -0.168223
0.450577 0.415846 -0.126101
-0.089913 0.390322 -0.122768
0.497377 0.415846 -0.221824
-0.57158 0.390322 -0.263393
0.459088 0.390322 0.036952
-0.050873 0.415846 0.257061
0.330366 0.415846 0.045018
0.347056 0.415846 0.105319
0.089602 0.415846 0.190024
-0.097695 0.415846 0.172916
0.018001 0.415846 0.113449
-0.226804 0.415846 -0.250101
-0.36109 0.390322 -0.00341
-0.210043 0.415846 -0.081651
0.210328 0.415846 0.203324
0.516339 0.390322 0.269168
0.34437 0.415846 0.164789
-0.467621 0.415846 -0.256449
-0.251401 0.390322 0.087615
0.013335 0.390322 0.243672
0.062189 0.390322 -0.101896
-0.270966 0.390322 -0.199652
-0.446679 0.415846 -0.180942
0.037212 0.390322 -0.212068
-0.024836 0.390322 -0.105998
-0.271215 0.415846 0.193782
0.037558 0.415846 -0.196696
-0.017828 0.415846 0.128544
0.552473 0.390322 0.260202
0.431929 0.390322 0.144957
-0.490581 0.390322 0.174537
-0.173225 0.390322 -0.136473
0.148428 0.413352 0.274185
-0.574872 0.390322 -0.025041
0.014766 0.415846 -0.02783
0.327201 0.390322 -0.122258
-0.29612 0.390322 0.036122
0.595709 0.415846 -0.166208
-0.540977 0.390322 -0.13903
0.443818 0.415846 -0.274084
-0.323997 0.415846 -0.01537
0.142341 0.415846 0.038688
-0.101128 0.390322 0.059361
-0.282138 0.415846 0.048859
0.430647 0.390322 -0.227669
0.538616 0.390322 -0.047103
0.178562 0.390322 -0.043715
0.138178 0.390322 -0.038009
-0.046559 0.415846 -0.116835
0.199777 0.415846 0.245912
0.267408 0.415846 0.265289
0.259759 0.390322 -0.048414
0.548089 0.415846 0.026248
-0.228743 0.390322 0.217446
0.581447 0.415846 0.032884
0.116963 0.415846 0.009325
-0.38328 0.390322 -0.086196
0.590003 0.390322 -0.024717
0.350971 0.390322 -0.206761
-0.214483 0.390322 0.255082
0.400115 0.390322 -0.130443
-0.472284 0.415846 -0.024028
0.226835 0.410581 0.274185
-0.170212 0.415846 -0.201176
0.065261 0.415846 -0.198009
0.26603 0.415846 0.122993
0.200297 0.390322 -0.146941
-0.424626 0.415846 0.081138
-0.295902 0.390322 -0.009828
0.549362 0.415846 0.227423
0.016154 0.390322 0.213264
-0.439612 0.390322 0.09993
-0.418983 0.415846 0.25873
-0.440581 0.415846 -0.154128
-0.105837 0.415846 0.261001
0.463023 0.415846 0.162198
0.375822 0.415846 0.063816
-0.46992 0.390322 0.007236
0.315068 0.390322 -0.098425
-0.087738 0.390322 -0.211375
0.281779 0.390322 -0.074735
0.589927 0.390322 -0.096533
0.073897 0.390322 0.2146
-0.41818 0.390322 -0.18139
-0.356963 0.390322 -0.260797
-0.526568 0.415846 0.111321
0.532548 0.415846 -0.175221
-0.126183 0.415846 -0.107832
-0.450422 0.390322 0.131512
-0.147698 0.390322 0.095507
-0.449466 0.404428 0.274185
0.351674 0.390322 -0.279817
0.019096 0.415846 -0.063486
0.451389 0.415846 -0.244643
0.30773 0.390322 0.089366
-0.348088 0.390322 0.224571
-0.071914 0.390322 -0.14226
0.384436 0.390322 0.235791
-0.130103 0.415846 0.079123
-0.31682 0.390322 -0.117626
0.061998 0.390322 0.085958
-0.344745 0.390322 0.054015
0.50049 0.390322 -0.019508
-0.053316 0.415846 0.227033
0.147525 0.415846 -0.230193
-0.405982 0.390322 0.101297
0.393151 0.390322 -0.170277
0.43941 0.415846 -0.025443
0.532097 0.390322 0.041918
-0.166034 0.415846 -0.2543
-0.412928 0.390322 -0.265354
-0.471066 0.390322 0.195472
-0.512477 0.390322 -0.062312
0.134005 0.415846 0.23221
0.078814 0.415846 0.122683
0.4282 0.415846 0.167995
-0.191331 0.390322 0.031604
-0.499924 0.390322 -0.176417
0.574671 0.415846 -0.027021
0.529723 0.390322 0.195186
-0.500948 0.415846 -0.132607
0.173128 0.390322 -0.231618
-0.307179 0.415846 0.262809
0.086956 0.415846 -0.080828
-0.566235 0.415846 0.083001
0.14775 0.390322 -0.131035
-0.427789 0.415846 -0.073966
-0.26379 0.415846 -0.171504
-0.233925 0.390322 -0.019247
0.593056 0.390322 0.0325
-0.383225 0.390322 0.198124
0.369319 0.415846 0.248473
-0.25878 0.415846 -0.102366
-0.544075 0.390322 0.212463
-0.033572 0.415846 0.064224
-0.358355 0.390322 -0.129608
-0.112527 0.415846 0.110703
0.390775 0.415846 -0.265455
0.478146 0.415846 0.251827
0.348689 0.390322 -0.027694
-0.01554 0.415846 -0.271689
0.457314 0.390322 0.241255
0.57282 0.390322 -0.154355
0.324824 0.415846 -0.037244
-0.061317 0.390322 0.162626
0.549874 0.415846 -0.102068
0.354592 0.390322 0.222711
0.348745 0.390322 0.155418
-0.089432 0.390322 0.111714
-0.019712 0.390322 0.255805
0.067417 0.390322 0.159815
-0.17043 0.415846 -0.030964
-0.334653 0.390322 -0.143072
0.221965 0.415846 -0.14682
0.250548 0.390322 -0.198111
0.402486 0.415846 -0.014624
0.383417 0.415846 -0.22843
0.356052 0.415846 0.005818
-0.139436 0.390322 0.235471
-0.11149 0.390322 -0.059414
-0.488871 0.396614 -0.280968
-0.589359 0.396523 -0.208331
0.577511 0.390322 -0.195367
-0.586663 0.390322 0.063184
-0.015587 0.390322 0.007611
0.231166 0.390322 -0.087972
-0.437076 0.415846 0.102957
-0.161567 0.415846 0.265985
0.270751 0.390322 0.199517
-0.364002 0.415846 0.208102
-0.321484 0.415846 0.233483
0.052653 0.390322 0.124516
0.254855 0.415846 -0.100743
0.337739 0.412892 0.274185
-0.004739 0.390322 -0.257294
0.516645 0.390322 -0.090238
0.249455 0.390322 0.140295
0.579572 0.415846 -0.194807
-0.243531 0.390322 -0.166834
-0.279771 0.415846 0.230782
-0.259318 0.415846 0.150685
-0.052961 0.415846 -0.214981
0.555144 0.390322 0.196425
0.357274 0.415846 0.039043
-0.295008 0.415846 -0.072303
0.101994 0.390322 0.189216
-0.565246 0.415846 -0.253157
0.151412 0.390322 0.252288
0.378168 0.390322 -0.241398
0.281884 0.390322 0.171111
-0.421415 0.415846 -0.119104
-0.036785 0.390322 -0.154725
0.308397 0.415846 -0.080329
-0.087634 0.390322 0.263431
0.370063 0.415846 -0.015729
0.407132 0.415846 -0.21419
-0.499324 0.409525 0.274185
-0.232847 0.390322 -0.093059
-0.287892 0.390322 0.268151
0.000586 0.415846 0.154194
-0.163029 0.415846 -0.085728
-0.56697 0.415846 -0.012614
0.553152 0.415846 0.128547
0.404848 0.390322 -0.04521
-0.189687 0.415846 0.261481
-0.015747 0.415846 -0.224756
-0.469243 0.415846 -0.123994
0.455926 0.390322 0.141111
0.205766 0.390322 -0.085828
0.474579 0.415846 -0.18432
-0.470484 0.415846 -0.049375
0.426451 0.415846 0.070176
0.03745 0.390322 0.251779
0.362443 0.390322 0.271563
-0.142705 0.415846 -0.22071
0.040364 0.415846 0.220116
0.31543 0.390322 -0.162975
-0.043942 0.415846 -0.047715
-0.064301 0.415846 0.187867
0.232966 0.415846 -0.264531
-0.214013 0.390322 -0.206489
0.344714 0.415846 -0.109885
-0.070468 0.415846 0.111095
0.418396 0.390322 -0.114674
0.174157 0.415846 0.18977
0.475275 0.415846 0.071628
-0.368898 0.415846 0.175842
0.547046 0.390322 0.0971
-0.024671 0.390322 0.223363
0.616664 0.593917 -0.30382
0.616664 -0.735876 -0.046355
0.616664 0.420302 0.237199
0.616664 0.237933 -0.117549
0.616664 -0.438907 -0.305229
0.616664 -0.155906 -0.072441
0.597521 0.115245 0.17493
0.616664 -0.383389 0.090441
0.616664 0.533463 -0.028201
0.616664 0.065261 -0.302163
0.616664 -0.729338 -0.305935
0.597521 -0.192017 -0.298703
0.602996 0.368254 -0.306492
0.616664 -0.533444 -0.108545
0.616664 -0.076983 0.116908
0.597521 0.630174 0.157912
0.616664 -0.581646 0.101803
0.616664 0.303015 0.085193
0.616664 0.106245 -0.00667
0.616664 0.475312 -0.184015
0.616664 0.678846 -0.10642
0.597521 -0.226071 0.073015
0.616664 -0.016416 -0.151381
0.597521 -0.279484 0.208735
0.597521 0.46177 0.099287
0.597521 0.370519 -0.04192
0.616664 -0.658214 -0.180203
0.607487 0.75631 -0.306492
0.597521 -0.467467 0.197738
0.616664 -0.316511 -0.244922
0.616664 -0.306639 -0.0338
0.616664 0.67579 0.024682
0.616664 -0.022913 -0.004192
0.597521 0.121431 -0.18757
0.616664 0.34927 -0.181269
0.616664 -0.483179 0.006004
0.616664 0.236453 0.194816
0.616664 0.778631 0.155836
0.616664 -0.545639 -0.236419
0.597521 -0.250126 -0.143535
0.597521 -0.642199 0.205042
0.597521 -0.621212 -0.03042
0.616664 -0.436058 -0.171236
0.597521 0.180498 0.080546
0.616664 -0.115352 -0.207804
0.597521 0.601747 -0.186047
0.597521 -0.082441 0.225904
0.616664 -0.702395 0.089302
0.616664 0.029217 0.093083
0.616664 -0.178801 0.168274
0.597521 -0.405352 -0.070393
0.616664 0.524909 0.22047
0.616664 0.264769 -0.244872
0.616664 0.574101 0.071721
0.616664 -0.035893 -0.291857
0.616664 -0.134834 0.032505
0.597521 0.2432 -0.017928
0.597521 0.074947 -0.098928
0.597521 0.694138 -0.222198
0.597521 0.334291 0.191698
0.616664 0.004771 0.191661
0.616664 0.452522 -0.085538
0.616664 -0.48553 0.100067
0.616664 -0.36857 0.216866
0.616664 0.151695 -0.278946
0.616664 0.790295 -0.148489
0.616664 0.704629 0.108582
0.597521 0.160068 -0.073291
0.616664 0.454668 0.008123
0.616664 0.57157 -0.104816
0.616664 0.712066 0.225785
0.616664 0.758692 -0.001194
0.597521 -0.225605 -0.019398
0.616664 -0.234721 -0.225969
0.616664 -0.297782 0.12916
0.597521 -0.550867 0.201877
0.616664 -0.35119 -0.165933
0.616664 -0.058227 -0.079588
0.616664 0.611958 0.235387
0.616664 -0.312306 0.049274
0.616664 0.623713 -0.037507
0.597521 0.376273 0.057387
0.597521 0.320577 -0.110471
0.616664 -0.649122 -0.101182
0.616664 0.408417 0.152537
0.616664 0.061419 0.250761
0.597521 0.525937 0.142182
0.616664 0.42601 -0.255446
0.616664 -0.583327 -0.168726
0.616664 0.538985 -0.23443
0.597521 -0.209833 0.23798
0.616664 -0.110709 -0.282627
0.616664 -0.708171 0.234949
0.597521 0.106243 0.085536
0.597521 -0.574889 0.030319
0.597521 -0.149574 -0.143786
0.611173 -0.275613 -0.306492
0.616664 -0.545977 -0.035535
0.616664 -0.670125 0.021697
0.597521 -0.411829 0.006291
0.59871 -0.54151 -0.306492
0.616664 0.196311 -0.176239
0.616664 -0.412795 0.157763
0.597521 -0.642842 0.134687
0.597521 0.163869 0.224418
0.597521 0.514325 0.043076
0.616664 -0.417046 -0.239821
0.597521 0.46597 0.185018
0.616664 0.632168 -0.246848
0.610364 0.2142 -0.306492
0.597521 -0.308838 -0.108156
0.616664 -0.144041 0.103705
0.597521 0.715305 -0.049912
0.597521 0.18584 0.153761
0.597521 -0.482906 -0.215907
0.597521 -0.066242 0.043732
0.597521 0.280312 0.14551
0.616664 0.297383 0.018211
0.597521 0.181103 0.007276
0.597521 -0.097265 -0.028866
0.616664 0.293726 0.240623
0.616664 0.08425 -0.239025
0.616664 0.046314 -0.172566
0.616664 -0.238278 -0.082142
0.616664 0.299505 -0.0518
0.597521 -0.464533 -0.097442
0.616664 0.689433 -0.284758
0.597521 0.286062 -0.16498
0.597521 0.532319 -0.161228
0.597521 -0.052025 -0.201233
0.597521 0.751282 0.062491
0.616664 0.331287 -0.242611
0.597521 -0.17215 -0.238234
0.597521 0.735131 -0.172711
0.597521 0.646043 0.094539
0.597521 0.053328 0.156636
0.597521 0.036135 0.025457
0.597521 -0.143126 0.24415
0.597521 0.592571 0.013173
0.616664 0.146444 -0.134194
0.616664 0.360606 0.252416
0.616664 -0.721345 0.15138
0.597521 -0.021244 0.243633
0.616664 -0.618759 -0.228964
0.616664 -0.525743 0.145839
0.616664 -0.113438 0.177291
0.597521 -0.357117 0.145627
0.616664 -0.496254 -0.155502
0.597521 -0.711397 -0.099509
0.597521 -0.645433 0.072301
0.616664 0.398285 -0.120365
0.597521 -0.056721 0.16903
0.597521 -0.680484 -0.038982
0.616664 0.250992 0.058109
0.597521 -0.607621 0.260863
0.616664 0.023696 -0.079085
0.616664 -0.191943 0.024637
0.597521 0.196845 -0.230543
0.597521 -0.20422 -0.181125
0.597521 -0.244512 0.139251
0.616664 -0.434818 0.055318
0.616664 0.688934 0.173359
0.616664 -0.354065 0.002476
0.597521 0.671069 -0.169899
0.616664 -0.749712 0.045288
0.597521 -0.520319 0.045983
0.597521 -0.15332 -0.019502
0.597521 0.481622 -0.038982
0.597521 -0.59512 -0.117346
0.597521 -0.39033 -0.131096
0.597521 0.49864 -0.110322
0.597521 0.630974 -0.127616
0.597521 0.069532 -0.043067
0.597521 -0.300729 -0.177091
0.597521 -0.681766 -0.255769
0.597521 0.42516 -0.035326
0.616664 0.732893 -0.115601
0.597644 0.432112 -0.306492
0.597521 0.334121 0.135843
0.597521 0.48178 0.246231
0.597521 -0.013687 0.054789
0.597521 -0.068658 -0.150235
0.616664 0.39751 0.012358
0.597521 -0.436246 0.106822
0.616664 -0.269251 0.018218
0.616664 -0.71615 -0.184036
0.616664 0.526132 0.092811
0.597521 -0.500387 -0.052733
0.616664 -0.308902 0.246915
0.616664 -0.589179 -0.066406
0.616664 0.38937 0.103435
0.616664 0.231079 -0.066722
0.616664 0.250391 -0.196037
0.597521 0.659006 0.233875
0.597521 0.342391 0.000343
0.597521 0.432428 0.049478
0.616664 -0.326977 0.188042
0.616664 -0.223831 0.191256
0.616664 -0.015545 0.145383
0.597521 0.116648 0.242223
0.607564 -0.752958 0.214048
0.597521 -0.414774 0.212306
0.616664 0.123274 0.128633
0.597521 -0.684921 -0.142015
0.616283 0.790558 0.107517
0.616664 0.378441 0.201651
0.616664 0.622828 0.055782
0.597521 -0.273237 0.086246
0.616664 0.757456 -0.065915
0.616664 0.287387 -0.305296
0.597521 0.597057 0.12202
0.616664 -0.735507 -0.247631
0.616664 0.190361 -0.106963
0.597521 0.09805 -0.14499
0.616664 -0.36994 -0.228326
0.597521 -0.33994 0.100514
0.597521 -0.448203 -0.02538
0.616664 0.102869 0.041207
0.597521 -0.192865 -0.123197
0.616664 0.189357 -0.040638
0.616664 0.479105 -0.251708
0.597521 0.738358 0.136296
0.597521 0.576732 0.209633
0.616664 0.105518 -0.067479
0.597521 -0.17802 0.076687
0.616664 -0.205217 0.120825
0.597521 0.272514 -0.091505
0.597521 0.572777 -0.045983
0.616664 -0.101637 0.076689
0.597521 -0.583868 -0.256249
0.597521 -0.561724 0.250663
0.616664 0.533645 -0.297553
0.597521 -0.049229 -0.250488
0.597521 0.249466 0.235449
0.597521 -0.034781 0.1074
0.616664 0.151625 -0.232329
0.597521 -0.536939 -0.167131
0.616664 -0.349768 -0.28142
0.597521 -0.527678 0.097265
0.597521 0.638941 -0.292828
0.616664 0.534039 -0.078058
0.616664 -0.350881 -0.078932
0.597521 0.699904 0.067033
0.616664 -0.615525 0.039771
0.597521 -0.459759 0.152522
0.597521 0.580705 -0.252112
0.597521 -0.124985 -0.105467
0.616664 -0.746991 0.258625
0.616664 -0.393176 -0.189579
0.616664 -0.722275 -0.003325
0.597521 -0.267147 -0.043859
0.616664 0.660817 -0.062767
0.614472 -0.386631 -0.306492
0.616664 0.213972 0.033189
0.616664 -0.373606 0.042593
0.597521 0.137873 0.018309
0.616664 -0.110598 -0.153654
0.597521 0.363332 -0.091256
0.597521 0.076223 -0.199782
0.597521 -0.033981 -0.042615
0.611213 -0.752958 -0.092849
0.6069 -0.752958 0.120214
0.616664 0.681022 -0.019191
0.616664 0.475916 0.136435
0.616664 -0.161048 -0.200069
0.597521 0.22992 0.152845
0.597521 0.0697 0.115727
0.597521 -0.62834 -0.154093
0.616664 0.737141 -0.251072
0.597521 0.332363 0.05507
0.616664 -0.401771 0.251541
0.597521 0.572302 0.253289
0.616664 0.429217 -0.151459
0.597521 0.050193 0.200026
0.616664 0.596677 -0.147798
0.597521 -0.519578 -0.006107
0.616664 0.562402 -0.18488
0.616664 -0.264167 -0.194963
0.616664 -0.089163 -0.246056
0.597521 0.455127 -0.222381
0.616664 0.151962 -0.016749
0.597521 -0.162343 0.206425
0.616664 -0.442123 -0.127825
0.597521 -0.658148 0.244222
0.597521 -0.58223 -0.206199
0.616664 -0.679818 0.203917
0.616664 0.169514 0.044801
0.616664 0.756969 0.249541
0.597521 0.407532 -0.077597
0.597521 0.021848 0.240139
0.597521 -0.338037 -0.20051
0.597521 -0.150748 -0.2936
0.597521 -0.511591 0.188302
0.597521 0.061192 0.074773
0.597521 0.602709 -0.085125
0.597521 -0.021615 -0.083079
0.616664 0.513739 0.176788
0.597521 0.582716 0.160785
0.616664 0.730647 0.188865
0.616664 0.782062 -0.27559
0.597521 0.070059 -0.001597
0.597521 -0.210456 -0.05848
0.597521 -0.13689 0.139513
0.616664 -0.40972 -0.030163
0.597521 -0.349889 0.250436
0.597521 0.305199 -0.217266
0.616664 0.466471 0.062022
0.597521 0.385072 -0.17087
0.616664 0.287029 -0.129021
0.597521 -0.09481 -0.078245
0.616664 0.181929 0.118443
0.597521 -0.608084 0.183493
0.597521 0.293153 0.183745
0.616664 0.494966 0.009642
0.597521 0.192611 0.196198
0.616664 -0.224735 -0.26999
0.616664 0.336287 -0.14342
0.616664 0.651586 -0.211973
0.616664 -0.667467 0.109802
0.616664 -0.136576 -0.252286
0.616664 -0.638526 -0.060628
0.597521 -0.469928 -0.178008
0.597521 0.046539 -0.273181
0.597521 -0.340043 -0.133284
0.616664 -0.672304 -0.222613
0.597521 0.492787 -0.149307
0.597521 0.723724 -0.011519
0.616664 -0.474524 -0.249031
0.597521 0.369463 0.15267
0.616664 0.489756 -0.073584
0.597521 0.29099 -0.018856
0.616664 -0.270064 0.241368
0.616664 -0.445126 0.014326
0.616664 0.713903 0.036195
0.606382 0.32488 -0.306492
0.597521 0.186538 0.25601
0.597521 -0.444127 -0.213204
0.616664 0.017765 -0.017777
0.602405 -0.58019 -0.306492
0.616664 -0.523369 0.221365
0.616664 -0.582884 0.140474
0.597521 -0.497434 -0.122053
0.616664 0.3765 -0.229549
0.597521 -0.586833 -0.013162
0.616664 0.341925 -0.059052
0.597521 -0.595327 0.066164
0.597521 -0.000454 -0.262057
0.597521 0.457197 -0.276618
0.597521 -0.63085 0.010387
0.597521 0.217031 0.069257
0.616664 -0.463367 -0.054801
0.616664 0.63873 0.015303
0.597521 0.704371 0.264115
0.597521 -0.667318 0.173472
0.616664 0.194531 -0.274531
0.597521 0.545511 0.021342
0.616664 0.738106 -0.205411
0.597521 -0.102577 0.268362
0.597521 0.325815 0.234444
0.597521 0.706095 -0.088393
0.616664 -0.517328 -0.211499
0.614032 -0.752958 -0.214308
0.597521 0.654369 0.196462
0.597521 0.111004 -0.109675
0.616664 -0.684136 -0.082043
0.597521 -0.519354 -0.260413
0.597521 -0.278179 0.171327
0.616664 0.697646 -0.13872
0.597521 0.528531 -0.198336
0.597521 0.12968 -0.046526
0.597521 -0.563892 -0.097084
0.616664 0.439117 0.131099
0.616664 -0.261855 -0.271967
0.597521 0.53032 -0.265094
0.616664 -0.027975 0.209229
0.597521 -0.334216 -0.049481
0.616664 -0.309189 0.092725
0.597521 0.387715 0.233762
0.616664 0.565549 -0.009772
0.616664 0.115924 -0.26525
0.597521 -0.685487 0.049295
0.597521 0.248382 -0.147267
0.616664 -0.390461 -0.269901
0.616664 0.151458 0.097824
0.616664 -0.064314 0.251539
0.597521 -0.726765 0.182279
0.616664 -0.667472 -0.289171
0.597521 -0.265052 -0.232958
0.597521 0.265589 -0.046751
0.597521 0.49619 0.112915
0.597521 -0.057989 -0.110624
0.616664 0.551534 0.124691
0.597521 0.19206 -0.137853
0.616664 0.102811 0.203257
0.597521 -0.062572 -0.018039
0.616664 0.470032 -0.128496
0.616664 0.747372 0.106833
0.616664 0.487047 0.20749
0.597521 0.19814 -0.07016
0.616664 0.356908 0.081108
0.616664 0.005767 0.029241
0.616664 0.214909 -0.006289
0.616664 -0.292515 -0.217186
0.616664 -0.233475 0.014754
0.597521 -0.023184 -0.119221
0.616664 -0.168499 0.267156
0.597521 0.690527 0.20353
0.597521 -0.227905 -0.110494
0.597521 0.666057 -0.13431
0.616664 -0.651669 -0.257183
0.616664 -0.137246 0.068101
0.616664 0.606418 -0.222173
0.616664 0.042824 -0.208039
0.616664 0.671217 0.076014
0.616664 0.021281 -0.289354
0.616664 -0.264249 -0.117173
0.616664 0.425217 -0.186738
0.597521 0.490603 -0.222153
0.597521 -0.715037 0.263974
0.597521 -0.051747 0.076334
0.597521 -0.084122 0.146716
0.597521 0.658346 -0.260791
0.597521 0.548436 0.16936
0.616664 -0.002028 0.111039
0.597521 -0.327288 -0.300622
0.616664 -0.238032 -0.171379
0.616664 0.073746 0.182287
0.597521 0.788966 -0.041737
0.597521 -0.622387 -0.088966
0.616664 -0.714639 0.030806
0.597521 -0.235563 0.271298
0.616664 0.244753 0.016626
0.616664 0.755546 -0.145131
0.597521 -0.316875 0.218843
0.616664 0.057704 -0.071259
0.616664 -0.647557 -0.013527
0.616664 -0.194596 -0.082874
0.616664 -0.296557 -0.067046
0.616664 -0.616389 0.149508
0.597521 0.693582 0.144819
0.616664 0.437771 0.19134
0.616664 0.314719 -0.178931
0.616664 -0.134233 0.271776
0.615748 -0.752958 0.165277
0.61231 -0.752958 -0.178696
0.597521 -0.5564 0.078375
0.597521 0.396158 0.17828
0.616664 -0.716956 -0.218801
0.59849 0.142525 -0.306492
0.597521 0.383682 0.268743
0.616664 -0.273647 -0.159142
0.616664 -0.190896 -0.156315
0.616664 0.399345 -0.050713
0.616664 0.219687 -0.146217
0.597521 -0.273662 -0.010607
0.616664 0.615136 -0.277436
0.597521 -0.641756 -0.202752
0.597521 0.448121 0.234871
0.597521 -0.552348 -0.268585
0.616664 0.629933 -0.079111
0.597521 -0.158763 -0.105673
0.616664 0.674347 0.124751
0.616664 -0.048867 -0.17362
0.616664 0.354838 0.038743
0.616664 0.615477 0.181449
0.597521 -0.412594 -0.156387
0.616664 0.377214 -0.274704
0.616664 -0.424817 -0.274685
0.616664 0.744688 -0.031772
0.616664 0.302707 0.129554
0.616664 -0.572836 0.225573
0.597521 -0.39026 0.141196
0.597521 0.155924 -0.205289
0.597521 -0.106795 -0.180764
0.616664 -0.407483 0.03327
0.616664 -0.145073 0.166777
0.616664 -0.394238 0.185405
0.616664 0.138845 0.158018
0.616664 -0.125435 0.208147
0.616664 -0.103771 0.021092
0.616664 0.760835 -0.180768
0.616664 -0.138516 -0.041988
0.616664 -0.00998 -0.213947
0.616664 0.327485 0.261177
0.616664 -0.109841 0.11826
0.616664 -0.193836 -0.205623
0.616664 -0.028253 0.176603
0.616664 0.233941 -0.255273
0.597521 -0.501398 0.072428
0.597521 -0.435598 -0.05848
0.616664 -0.166348 -0.265218
0.597521 0.344655 0.104273
0.597521 0.269768 0.260747
0.616664 -0.486329 0.215789
0.616664 -0.544042 0.002858
0.616664 -0.553178 0.162621
0.616664 0.306486 0.211155
0.597521 0.782683 0.069155
0.597521 -0.620125 0.112035
0.597521 -0.194243 -0.266705
0.597521 -0.117895 -0.004309
0.616664 0.674258 0.272906
0.616664 0.788659 0.245862
0.616664 0.775688 0.192644
0.616664 -0.357038 0.177556
0.597521 0.357322 0.21571
0.597521 0.478823 0.039881
0.616664 -0.532168 -0.140287
0.616664 -0.016784 0.268564
0.616664 0.571357 -0.073162
0.616664 0.135382 0.225366
0.597521 -0.064502 -0.050874
0.602841 0.472825 -0.306492
0.616664 -0.281553 0.06258
0.616664 -0.570925 -0.12391
0.597521 0.221256 0.249507
0.597521 0.374734 -0.140164
0.597521 -0.427495 0.13709
0.616664 -0.250794 0.174965
0.597521 0.324942 -0.077376
0.597521 -0.574392 -0.042055
0.616664 0.102242 -0.21334
0.597521 0.630367 -0.199088
0.597521 0.628799 0.253597
0.597521 0.532291 -0.053336
0.616664 -0.62175 0.079573
0.597521 0.66412 -0.037295
0.616664 0.552086 -0.146312
0.616664 -0.201094 -0.022867
0.616664 -0.015381 -0.182636
0.616664 -0.171043 0.229568
0.616664 0.610693 0.142568
0.597521 0.226971 -0.22252
0.616664 -0.693655 -0.119034
0.616664 -0.557156 0.121034
0.597521 0.63344 0.122981
0.597521 0.067099 -0.141942
0.597521 0.497547 0.158466
0.616664 0.30869 0.049204
0.616664 0.39568 -0.299589
0.597521 -0.682346 -0.183096
0.616664 -0.644751 0.164557
0.616664 0.123006 0.068051
0.616664 -0.352912 0.080167
0.597521 -0.374721 -0.160808
0.616664 0.575951 -0.226306
0.616664 0.715096 0.155542
0.616664 0.277089 0.101682
0.616664 -0.224841 -0.134327
0.616664 -0.299073 0.011096
0.616664 -0.603668 -0.145812
0.616664 0.065917 0.051452
0.597521 -0.102724 -0.305015
0.616664 0.522073 -0.139809
0.616664 -0.247485 0.041804
0.616664 -0.084195 -0.099318
0.616664 0.397491 0.047104
0.597521 0.215547 -0.110238
0.597521 -0.096573 0.043793
0.597521 0.368425 0.019587
0.602266 0.099051 -0.306492
0.597521 -0.703114 0.205232
0.616664 -0.268311 -0.077639
0.597521 -0.363581 -0.114431
0.616664 -0.141544 -0.165638
0.616664 -0.333871 0.024785
0.616664 -0.725134 0.114345
0.597521 -0.726575 -0.163356
0.597521 0.669806 -0.085212
0.597521 0.485422 0.075142
0.597521 0.279419 -0.201999
0.597521 0.087398 0.233896
0.616664 0.353963 -0.02595
0.616664 0.432498 -0.218469
0.597521 0.542128 0.235642
0.616664 0.442804 -0.020685
0.616664 -0.466091 0.077405
0.597521 0.145043 0.135717
0.616664 0.044246 0.226384
0.597521 0.666991 0.158288
0.601719 -0.752958 -0.018568
0.616664 0.461428 0.274344
0.597521 -0.198165 0.09913
0.616664 -0.256882 0.205997
0.597521 -0.554323 -0.195948
0.616664 -0.455171 -0.280369
0.597521 0.107087 -0.244331
0.597521 0.45874 -0.168542
0.616664 0.166215 0.169451
0.616664 -0.450333 0.12453
0.616664 0.327194 -0.211996
0.597521 -0.618336 -0.259733
0.597521 -0.651718 -0.234611
0.616664 0.242936 0.134419
0.616664 -0.514539 -0.17873
0.597521 0.56608 0.107495
0.616664 0.522033 0.021331
0.597521 0.126926 -0.015275
0.616664 0.279164 0.067942
0.597521 0.426028 -0.005902
0.616664 0.60921 0.027995
0.597521 -0.078207 0.094672
0.597521 0.229817 -0.187571
0.616664 0.50983 -0.280445
0.597521 -0.397774 0.073567
0.616664 -0.598081 -0.038506
0.616664 0.169452 -0.302228
0.616664 0.747519 0.025852
0.597521 0.752764 -0.266728
0.597521 -0.140447 -0.208082
0.616664 0.177512 -0.200653
0.616664 -0.303058 -0.29817
0.597521 0.258047 0.190485
0.616664 0.110342 -0.168551
0.616664 0.693022 -0.17125
0.616664 -0.707361 -0.052387
0.616664 -0.71629 -0.274923
0.616664 0.08333 -0.127265
0.616664 0.59409 -0.041075
0.616664 0.692367 -0.045933
0.597521 0.565162 0.042718
0.616664 0.116266 -0.130794
0.597521 -0.225141 -0.248259
0.616664 0.715573 -0.272306
0.597521 -0.623134 -0.125615
0.616664 0.787607 -0.304002
0.616664 0.228429 0.229039
0.616664 0.098528 0.161203
0.616664 0.616614 -0.104701
0.597521 0.631203 -0.156427
0.597521 0.349231 -0.254402
0.597521 -0.657467 0.042857
0.616664 -0.24023 0.118235
0.616664 -0.082364 -0.287379
0.616664 -0.714729 0.060103
0.597521 0.552695 0.071057
0.597521 -0.351896 -0.260111
0.597521 -0.153897 0.022875
0.597521 0.679516 0.046879
0.597521 -0.518796 0.125667
0.597521 0.419083 0.100789
0.616664 0.521595 0.256858
0.616664 0.370469 0.174148
0.616664 0.772605 -0.206837
0.597521 -0.287641 -0.086315
0.616664 -0.553904 0.033042
0.597521 -0.207079 0.272792
0.616664 0.461956 -0.046736
0.597521 0.550495 -0.106159
0.597521 0.406187 -0.139903
0.597521 -0.300559 0.07162
0.616664 -0.330711 0.275331
0.616664 0.76329 -0.10552
0.616664 -0.373487 0.12857
0.597521 -0.042272 0.276622
0.597521 0.622337 0.078916
0.616664 -0.029473 -0.234551
0.597521 -0.082896 -0.266473
0.616664 -0.337908 -0.020804
0.597521 0.133107 -0.222665
0.597521 -0.375535 0.02181
0.597521 -0.272819 0.138393
0.616664 -0.443361 0.165378
0.597521 -0.189148 0.197415
0.616664 -0.572667 -0.273774
0.597521 0.712457 -0.119203
0.616664 -0.106423 0.247976
0.616664 0.679981 0.221386
0.597521 -0.692509 -0.227148
0.597521 0.348328 -0.115338
0.597521 -0.459474 -0.304071
0.601128 -0.361897 -0.306492
0.616664 -0.043603 0.146226
0.597521 -0.329928 -0.089698
0.597521 -0.322523 -0.225363
0.597521 0.503493 -0.257076
0.616664 0.559864 -0.253057
0.616664 0.02231 -0.186867
0.616664 -0.494488 0.126525
0.616664 -0.086323 0.205996
0.597521 0.375071 -0.196883
0.616664 0.346475 0.151841
0.616664 0.046045 0.179574
0.616664 0.086686 0.10481
0.616664 -0.59153 -0.237578
0.607356 -0.607549 -0.306492
0.597521 0.441949 0.171029
0.616664 -0.72126 -0.081955
0.616664 0.561693 0.270527
0.616664 -0.484236 -0.093406
0.616664 0.090193 -0.275649
0.616664 0.230257 -0.284806
0.616664 -0.598785 0.235066
0.616664 -0.724203 0.202036
0.616664 0.506346 0.061327
0.616664 0.714874 -0.220347
0.597521 -0.50882 -0.229434
0.616664 0.004262 0.081386
0.597521 -0.440473 0.192322
0.597521 0.138243 -0.105807
0.616664 0.584551 0.237785
0.597521 0.271346 -0.293857
0.597521 -0.569819 -0.154407
0.616664 0.450393 -0.2989
0.597521 0.49532 -0.195144
0.616664 0.444165 0.033446
0.597521 -0.526667 -0.039008
0.597521 -0.536656 0.021025
0.616664 -0.171023 0.006974
0.616664 -0.376604 -0.013044
0.597521 -0.465278 -0.001735
0.616664 -0.746456 -0.152517
0.616664 0.59183 0.092489
0.616664 0.273544 0.178734
0.597521 0.087606 0.065609
0.597521 -0.181491 0.245958
0.616664 -0.34129 0.216929
0.597521 -0.44359 -0.262244
0.616664 0.271788 0.027611
0.616664 0.444348 -0.119383
0.597521 -0.655577 -0.154098
0.597521 0.157984 -0.035145
0.616664 -0.23074 0.217533
0.616664 -0.669578 -0.059173
0.597521 0.730496 0.231072
0.616664 0.211497 0.184329
0.616664 0.722985 -0.148209
0.616664 0.290829 -0.077399
0.616664 -0.40829 -0.13781
0.597521 0.014067 0.214269
0.616664 0.177622 -0.239586
0.597521 0.065163 -0.170143
0.616664 0.681412 -0.259004
0.597521 0.313892 0.114227
0.616664 0.755989 0.170453
0.597521 -0.013267 0.164142
0.597521 0.392435 -0.239697
0.616664 -0.214583 0.087989
0.601196 0.790558 0.137382
0.616664 0.387441 -0.026335
0.597521 -0.205915 -0.00113
0.597521 -0.322039 -0.160808
0.616664 -0.456682 -0.227156
0.616664 -0.487801 -0.183656
0.616664 0.719622 0.253225
0.616664 -0.015366 -0.040629
0.597521 -0.125436 0.104996
0.597521 -0.034531 -0.161695
0.616664 -0.46844 -0.123218
0.616664 0.665601 -0.296829
0.616664 -0.262704 0.10161
0.616664 0.654217 0.255273
0.616664 0.507632 0.138894
0.597521 0.246806 -0.098559
0.597521 -0.482268 -0.033183
0.597521 -0.42453 0.070752
0.616664 0.643483 0.223765
0.616664 -0.597 -0.19511
0.597521 0.173892 -0.115309
0.597521 -0.73176 0.041002
0.616664 0.057359 0.102028
0.616664 -0.084266 -0.0419
0.616664 -0.638086 0.116964
0.597521 -0.199382 -0.223108
0.597521 0.065997 -0.23826
0.616664 -0.049944 -0.268616
0.597521 0.657606 -0.108584
0.597521 -0.390108 0.167541
0.597521 -0.228146 0.173732
0.616664 0.774864 -0.247148
0.597521 0.132681 -0.250387
0.616664 0.463997 0.24343
0.597521 0.093067 -0.173571
0.616664 -0.420515 0.229311
0.616664 -0.003225 -0.279755
0.616664 0.51225 -0.241459
0.616664 0.479676 -0.285314
0.597521 0.224035 -0.050282
0.616664 -0.178842 -0.103787
0.616664 -0.545811 0.23483
0.597521 -0.725695 -0.200893
0.597521 -0.230166 -0.208792
0.598002 -0.216935 -0.306492
0.616664 -0.134438 -0.225556
0.616664 0.197158 0.086452
0.597521 0.053609 -0.119667
0.616664 -0.395969 -0.085344
0.597521 0.698372 -0.268404
0.597521 0.113633 -0.083812
0.616664 0.473006 -0.023218
0.597521 0.610809 -0.025589
0.597521 0.454224 -0.19642
0.597521 0.413954 0.199344
0.616664 0.052574 -0.000417
0.616664 -0.280411 -0.241309
0.616664 -0.510905 0.087081
0.597521 0.591319 0.068932
0.616664 0.137436 -0.19442
0.597521 -0.183123 0.039628
0.597521 0.420044 -0.231255
0.597521 0.750924 -0.047994
0.597521 -0.355181 -0.019156
0.597521 0.441278 -0.098741
0.597521 -0.25176 -0.092906
0.616664 0.295093 -0.10458
0.616664 -0.419691 -0.214234
0.597521 -0.529751 0.162531
0.616664 0.5971 -0.068966
0.597521 0.217915 -0.272985
0.597521 0.321117 -0.151255
0.616664 0.702726 -0.005523
0.597521 0.185846 0.032423
0.616664 -0.137568 -0.090269
0.597521 -0.253752 0.236769
0.597521 -0.248042 -0.259576
0.616664 0.192271 0.056383
0.616664 -0.736575 0.01781
0.597521 0.624883 -0.223979
0.616664 0.548796 -0.050327
0.616664 -0.529328 -0.293195
0.616664 0.587979 0.197274
0.597521 -0.431536 -0.083528
0.597521 -0.150185 -0.053796
0.597521 0.154045 0.08144
0.597521 -0.313187 0.123017
0.616664 0.500612 -0.015048
0.616664 -0.637233 0.05789
0.597521 0.461827 0.127774
0.597521 -0.562563 -0.222109
0.616664 -0.680109 0.268175
0.616664 -0.50498 0.160145
0.616664 -0.712402 -0.026507
0.597521 -0.370008 0.235274
0.616664 -0.02967 0.058322
0.597521 0.617658 -0.306286
0.610296 -0.133298 -0.306492
0.616664 -0.055826 -0.126833
0.597521 0.279557 -0.22717
0.597521 -0.123458 -0.048308
0.597521 0.242611 0.032788
0.597521 -0.644798 -0.075624
0.597521 -0.082117 0.253809
0.616664 0.117855 0.104124
0.616664 -0.080573 -0.066721
0.616664 0.031781 0.252942
0.597521 -0.706447 -0.260213
0.597521 0.530679 0.001124
0.616664 -0.120536 -0.121033
0.616664 0.412459 -0.099685
0.597521 -0.705374 0.148782
0.597521 0.34108 0.167591
0.616664 -0.082184 0.051086
0.616664 -0.045324 -0.031244
0.597521 0.306869 0.250733
0.616664 0.669915 -0.195009
0.616664 0.194807 0.139789
0.616664 0.259855 0.279813
0.616664 0.305891 -0.013349
0.597521 0.688743 0.118174
0.616664 -0.685228 -0.167613
0.616664 -0.661125 0.071017
0.616664 0.462152 -0.151994
0.616664 0.772446 0.045168
0.597521 0.10745 0.026168
0.597521 0.255473 0.003574
0.597521 0.346572 -0.165804
0.616664 -0.607613 -0.082916
0.616664 0.558592 0.093719
0.597521 -0.661976 -0.110149
0.597521 0.192966 0.10733
0.597521 0.558019 0.193473
0.616664 -0.40339 0.13271
0.616664 0.407741 -0.012274
0.616664 0.17108 -0.062287
0.616664 0.076939 0.076937
0.597521 0.181066 -0.179293
0.616664 -0.505997 -0.10908
0.597521 0.289258 0.11491
0.597521 0.716076 0.183526
0.597521 -0.516759 -0.141823
0.597521 0.138774 0.256181
0.597521 0.433068 -0.075544
0.597521 0.246133 -0.245765
0.616664 0.32921 0.104305
0.616664 -0.657322 0.139985
0.616664 -0.606439 0.0988
0.597521 0.505806 0.088874
0.616664 0.50166 -0.052088
0.616664 0.347974 -0.091698
0.616664 -0.195465 0.232556
0.616664 -0.645702 0.023769
0.597521 0.695651 0.09116
0.616664 0.361647 0.105136
0.616664 0.193954 0.269362
0.616664 0.040601 0.051501
0.616664 0.255578 -0.086083
0.597521 -0.338862 0.003592
0.602007 0.790558 -0.128899
0.616664 0.277537 -0.037322
0.597521 -0.448154 0.085474
0.616664 0.525538 -0.214018
0.616664 0.695263 -0.237351
0.597521 -0.434766 -0.186373
0.597521 0.29269 0.032651
0.597521 -0.565218 0.108168
0.616664 -0.081056 -0.223028
0.597521 -0.598193 -0.165965
0.616664 -0.210193 -0.246002
0.616664 -0.541689 0.081821
0.597521 -0.282988 0.012037
0.597521 0.196022 0.22031
0.616664 0.159385 0.13115
0.616664 0.484056 -0.106622
0.597521 0.646767 -0.068086
0.616664 0.581652 -0.170008
0.597521 0.679758 -0.055922
0.616664 -0.634162 0.192396
0.597521 -0.363679 0.095328
0.616664 0.067629 -0.187578
0.597521 0.276129 -0.139213
0.616664 0.236195 0.252034
0.616664 0.376001 0.001156
0.597521 -0.673459 0.096233
0.616664 0.697847 0.278355
0.616664 0.497181 0.25762
0.597521 -0.214189 0.202459
0.616664 0.752938 0.133879
0.597521 -0.232218 -0.04795
0.616664 -0.156424 -0.2385
0.597521 -0.298002 0.143866
0.607412 0.706635 -0.306492
0.597521 -0.254686 0.016575
0.616664 0.266885 -0.213582
0.616664 0.544765 0.035913
0.616664 0.492475 -0.167141
0.616664 0.629481 -0.014141
0.597521 0.256404 -0.124617
0.616664 0.443291 -0.06336
0.616664 0.427901 0.167392
0.597521 0.359697 -0.232804
0.616664 0.690229 -0.208275
0.597521 0.490863 -0.004203
0.616664 -0.285128 -0.264807
0.616664 -0.693517 -0.211461
