0.273757 -0.547614 -0.095364
0.242951 -0.547614 -0.206813
0.592636 -0.52815 0.061639
0.376927 -0.52815 -0.056617
0.700029 -0.547614 0.022192
0.809953 -0.52815 -0.041672
0.589555 -0.547614 0.106457
-0.291894 -0.547614 0.008695
0.331574 -0.547614 -0.139272
0.739844 -0.547614 -0.017403
0.281136 -0.52815 -0.061791
0.442733 -0.52815 0.093883
0.704651 -0.547614 0.061645
-0.61929 -0.547614 -0.169536
0.540948 -0.52815 -0.030268
-0.047101 -0.547614 -0.025163
0.577996 -0.52815 -0.003156
0.676794 -0.52815 0.030955
0.230178 -0.547614 -0.097548
0.255219 -0.547614 -0.036762
-0.562763 -0.52815 0.119361
-0.630075 -0.547614 0.115034
-0.265114 -0.547614 0.075948
-0.611446 -0.547614 0.161754
-0.179912 -0.547614 -0.104494
-0.585661 -0.52815 -0.090285
-0.507711 -0.52815 -0.010449
0.033595 -0.52815 0.071951
-0.770602 -0.547614 -0.025452
0.410346 -0.547614 0.00923
0.264706 -0.52815 -0.008162
-0.105252 -0.52815 0.093593
0.807711 -0.547614 -0.191251
-0.162015 -0.547614 -0.2076
0.596737 -0.547614 0.176677
-0.069259 -0.547614 -0.004345
-0.799814 -0.547614 0.033649
0.097297 -0.52815 0.09496
-0.612224 -0.547614 -0.131085
-0.438968 -0.52815 -0.145775
-0.280025 -0.547614 -0.063733
-0.719198 -0.547614 -0.124516
0.20105 -0.547614 0.046733
-0.682569 -0.547614 0.003936
0.552485 -0.52815 0.13363
0.48169 -0.52815 0.083086
0.685775 -0.52815 -0.079524
-0.021178 -0.547614 -0.085319
0.440995 -0.547614 -0.150545
-0.460305 -0.547614 0.117831
-0.524629 -0.547614 -0.201184
0.078567 -0.52815 0.117892
-0.068615 -0.547614 0.151787
-0.391097 -0.52815 0.055265
0.707894 -0.547614 0.16937
-0.506361 0.594948 -0.235905
0.526443 0.600814 -0.231249
-0.002779 0.600814 0.01172
-0.197077 0.597061 -0.235905
0.534347 0.581349 0.117305
-0.812054 0.595998 -0.213717
0.211452 0.581349 -0.235322
-0.629483 0.581349 0.013605
0.812629 0.597611 -0.235905
0.727835 0.600814 -0.016878
0.257521 0.600814 -0.003297
-0.193903 0.600814 -0.027444
-0.812054 0.591161 -0.016181
0.449506 0.600814 -0.064886
0.105618 0.581349 0.13746
-0.653545 0.600814 -0.17225
-0.659643 0.581349 0.171077
0.129876 0.581349 -0.093321
-0.506602 0.581349 -0.081131
-0.46578 0.600814 0.081191
0.600229 0.600814 -0.094648
-0.360432 0.600814 -0.161803
0.359806 0.600814 -0.226646
-0.135138 0.600814 0.105703
-0.291928 0.600814 0.078123
0.822997 0.59777 0.087834
-0.098839 0.600814 -0.116066
0.662575 0.581349 0.093573
0.289235 0.581349 -0.122974
-0.767536 0.581349 0.107412
0.699986 0.600814 -0.163748
-0.386971 0.600814 0.189022
0.246047 0.581349 0.112451
-0.246938 0.581349 -0.128947
-0.724184 0.581349 -0.087765
0.580391 0.581349 0.015667
0.110832 0.581349 0.028635
0.105304 0.600814 -0.234353
-0.029493 0.600814 0.117483
-0.564895 0.600814 0.119292
0.027591 0.600814 -0.091082
-0.399823 0.600814 -0.066787
-0.090024 0.597796 -0.235905
-0.301842 0.581349 -0.042622
0.629488 0.589989 -0.235905
0.483146 0.600814 0.0317
0.357834 0.600814 -0.026039
0.352295 0.600814 0.168494
0.740987 0.600814 0.166859
0.822997 0.59076 -0.015602
-0.102124 0.581349 -0.008998
0.392272 0.600814 -0.138734
0.516046 0.581349 -0.129895
0.4482 0.581349 0.147741
-0.304916 0.600814 -0.233869
-0.731133 0.600814 0.019232
-0.543531 0.600814 0.022645
-0.812054 0.585354 -0.103536
-0.59325 0.581349 -0.082073
-0.726123 0.600814 -0.219774
-0.677979 0.600814 0.086554
-0.591716 0.597603 -0.235905
-0.452614 0.581349 -0.00392
0.322661 0.600814 0.049722
0.192472 0.581349 0.04499
-0.199782 0.600814 0.157454
0.215843 0.600814 -0.1555
0.784114 0.600814 -0.150608
-0.368436 0.600814 0.008556
0.076298 0.600814 -0.1565
-0.168806 0.581349 -0.16141
-0.20963 0.600814 0.076078
-0.439537 0.600814 -0.135337
-0.53725 0.581349 -0.16556
0.751168 0.600814 0.057211
0.726714 0.581349 -0.093524
0.652984 0.581349 -0.014988
0.05432 0.600814 0.082967
0.179039 0.600814 -0.028505
0.737098 0.582153 -0.235905
0.540217 0.600814 -0.047799
-0.463647 0.600814 0.156131
0.603058 0.600814 0.185823
0.618382 0.581349 -0.164201
-0.25063 0.581349 0.013713
-0.082362 0.600814 0.167256
0.232315 0.581349 -0.071394
-0.322672 0.600814 0.158733
-0.05303 0.600814 -0.061913
-0.677513 0.600814 -0.034628
0.210741 0.581349 0.172989
0.594687 0.600814 0.08793
-0.396464 0.600814 -0.231749
-0.034606 0.600814 -0.142976
0.086048 0.600814 -0.042889
-0.078802 0.581349 0.071796
0.146325 0.581349 -0.159644
-0.746529 0.600814 0.179676
-0.176464 0.600814 -0.096975
0.39902 0.600814 0.026946
-0.662717 0.600814 -0.106207
0.17765 0.581349 0.109787
0.289023 0.600814 -0.188566
-0.717334 0.600814 -0.153718
-0.157421 0.581349 0.040078
-0.312706 0.600814 -0.104698
-0.812054 0.593622 0.154326
0.813779 0.600814 0.159426
0.822997 0.585984 -0.086233
0.305963 0.581349 -0.058945
0.663748 0.600814 -0.089871
-0.242374 0.600814 -0.191311
0.052716 0.600814 0.16649
0.435726 0.600814 0.078216
0.39096 0.581349 -0.077826
0.440724 0.596547 -0.235905
-0.012365 0.600814 0.178027
-0.789984 0.581349 0.048768
-0.598635 0.600814 0.06662
0.2924 0.600814 0.151482
0.534762 0.600814 0.176338
-0.539971 0.600814 0.180473
0.693172 0.600814 0.034519
-0.259959 0.581349 0.15934
-0.297791 0.600814 -0.163745
-0.081706 0.581349 -0.175967
0.365637 0.600814 0.098769
0.655977 0.600814 0.150537
0.45571 0.581349 -0.131827
-0.596895 0.581349 -0.164799
-0.55772 0.581349 -0.031474
-0.231625 0.600814 -0.072838
-0.659729 0.600814 -0.230419
-0.705633 0.581349 0.134093
-0.392275 0.600814 0.125182
0.755183 0.581349 0.111797
0.538523 0.600814 0.062801
0.054536 0.600814 0.02556
0.57432 0.600814 -0.199867
-0.41928 0.600814 0.047823
-0.603987 0.581349 0.1558
-0.755344 0.581349 -0.028457
0.042292 0.600814 -0.231351
0.488576 0.581349 -0.028683
0.628392 0.600814 0.038348
-0.142321 0.600814 0.161525
0.344613 0.600814 -0.102683
0.156757 0.600814 0.15796
0.774657 0.581349 -0.04222
0.126856 0.581349 0.081643
-0.509701 0.600814 0.116456
-0.104986 0.581349 -0.065176
-0.453211 0.582091 -0.235905
-0.326661 0.581349 0.040973
-0.454668 0.581349 -0.065123
0.338862 0.600814 -0.167207
-0.034848 0.600814 -0.22732
0.109134 0.600814 0.19606
0.031705 0.581349 -0.04134
0.270815 0.600814 0.06318
-0.052334 0.600814 -0.008471
-0.491105 0.600814 0.03258
0.158024 0.600814 -0.226445
-0.130464 0.600814 -0.201375
0.405024 0.600814 0.174025
0.822362 0.581349 -0.186642
-0.503381 0.581349 -0.028587
-0.539609 0.581349 0.071228
0.484541 0.581349 0.100887
-0.354646 0.581349 -0.038115
0.794244 0.600814 0.027679
-0.021359 0.600814 0.066086
-0.491304 0.600814 -0.151253
0.310219 0.600814 -0.005541
0.440725 0.600814 -0.014087
0.501259 0.581349 -0.191309
0.709613 0.600814 0.090528
-0.722388 0.581349 0.070954
0.024759 0.581349 0.128978
0.172233 0.600814 -0.120809
-0.671349 0.600814 0.036428
-0.632646 0.600814 0.119742
0.77257 0.600814 -0.097566
-0.633232 0.600814 -0.05773
0.593034 0.581349 -0.049426
0.256508 0.600814 -0.234126
-0.155055 0.581349 -0.04954
0.492705 0.600814 -0.091844
0.408805 0.600814 0.125477
-0.242832 0.581349 0.105854
0.399874 0.581349 -0.207988
0.300549 0.600814 0.103997
-0.759858 0.600814 -0.113206
-0.349512 0.600814 0.091135
0.034022 0.581349 -0.145772
0.674021 0.600814 -0.222907
0.550216 0.581349 -0.089933
0.615786 0.581349 0.134577
0.777944 0.600814 -0.20404
0.351003 0.581349 0.016119
0.493003 0.600814 0.15504
0.549898 0.581349 -0.164986
0.433328 0.581349 -0.172597
-0.783847 0.600814 -0.15573
-0.40808 0.581349 -0.178887
-0.41842 0.581349 0.092018
-0.080842 0.600814 0.02962
-0.199393 0.581349 0.014381
-0.796635 0.581349 -0.058724
-0.394475 0.600814 -0.125455
0.53405 0.600814 0.016915
-0.546147 0.600814 -0.094237
-0.624267 0.600814 -0.131294
0.134849 0.600814 -0.016137
0.743801 0.581349 -0.140658
0.110395 0.581349 -0.188092
0.022208 0.581349 0.051539
0.243785 0.581349 -0.117638
-0.156102 0.600814 -0.001705
-0.350013 0.600814 -0.229086
0.06973 0.600814 -0.107769
-0.291325 0.600814 0.015707
-0.408837 0.600814 -0.011565
0.208705 0.581349 -0.000657
-0.169771 0.581349 0.083825
-0.313856 0.581349 0.112257
-0.607088 0.600814 -0.021238
-0.469521 0.581349 -0.108252
-0.574999 0.581349 -0.122946
0.690333 0.581349 -0.05987
0.57264 0.600814 -0.131978
-0.008563 0.600814 -0.060069
-0.246484 0.600814 -0.235431
0.236184 0.581349 0.03815
0.710436 0.600814 0.134686
-0.626927 0.581349 -0.208708
0.320837 0.581349 -0.214172
-0.244792 0.581349 0.058498
-0.098963 0.581349 0.120942
-0.508138 0.581349 0.157581
0.653403 0.600814 -0.184342
0.741858 0.581349 -0.188961
0.682616 0.581349 -0.124111
-0.140129 0.600814 -0.130106
0.115152 0.600814 -0.129192
0.153874 0.600814 0.042293
-0.048839 0.581349 -0.100366
-0.155976 0.585196 -0.235905
0.230451 0.600814 0.077306
0.201171 0.600814 -0.19867
0.262923 0.581349 -0.041683
0.783826 0.581349 0.076318
0.194938 0.600814 -0.076793
0.571202 0.600814 0.154496
-0.257849 0.600814 -0.039657
-0.581691 0.600814 0.187402
-0.539287 0.600814 -0.21021
0.087251 0.581349 0.06355
0.253926 0.600814 0.168311
0.21719 0.600814 0.135763
-0.033232 0.600814 -0.184723
-0.233264 0.581349 0.191447
-0.696246 0.600814 0.176043
0.728728 0.581349 0.024906
0.022385 0.600814 0.200887
-0.184269 0.600814 0.118872
-0.268575 0.600814 -0.09175
-0.194799 0.581349 -0.063996
0.245285 0.581349 -0.177164
0.059512 0.581349 -0.192907
0.566592 0.581349 0.192856
-0.050357 0.600814 0.192806
-0.196453 0.581349 -0.126383
-0.714976 0.581349 -0.02999
-0.039064 0.581349 0.035576
0.48073 0.591949 -0.235905
0.087957 0.600814 0.105077
0.130031 0.600814 -0.056072
-0.740756 0.600814 0.133336
0.439208 0.600814 0.026045
0.390117 0.581349 -0.007519
0.656532 0.600814 -0.050537
0.346855 0.581349 0.134107
-0.34728 0.581349 -0.098653
-0.804261 0.581349 0.092206
-0.422524 0.600814 0.171255
0.589932 0.595019 -0.235905
-0.273178 0.600814 0.122078
-0.468589 0.581349 0.115487
-0.19576 0.600814 -0.196616
-0.671835 0.600814 0.137753
0.013136 0.600814 0.084623
0.607725 0.600814 -0.0045
0.687883 0.600814 -0.026053
-0.744272 0.581349 -0.174038
-0.118141 0.600814 0.039932
0.164613 0.581349 0.001487
0.306929 0.581349 -0.157865
0.318081 0.581349 0.193902
-0.115118 0.600814 0.188684
0.165894 0.581349 0.189837
0.737059 0.600814 -0.054137
-0.292239 0.600814 0.182119
0.354354 0.600814 -0.065681
0.814461 0.581349 0.121268
-0.698417 0.581349 0.017573
-0.346015 0.581349 0.181607
-0.685173 0.581349 -0.15942
-0.42894 0.600814 -0.212371
-0.456127 0.581349 0.050291
0.648443 0.581349 -0.141387
-0.510061 0.600814 -0.183942
-0.762899 0.581349 0.013726
-0.328299 0.600814 0.008703
0.096874 0.581349 -0.075619
-0.07803 0.581349 -0.037645
-0.571072 0.581349 0.050424
0.43262 0.581349 -0.091889
0.272755 0.581349 0.030916
0.819338 0.600814 -0.12014
0.163609 0.600814 0.081445
-0.324654 0.581349 -0.147192
0.574344 0.581349 0.052169
0.714022 0.600814 -0.203263
-0.221977 0.600814 -0.1084
-0.526973 0.600814 -0.125456
-0.112856 0.600814 -0.154503
0.334806 0.581349 0.095819
0.140997 0.581349 0.128246
-0.812054 0.583938 -0.17931
-0.780604 0.600814 0.137351
-0.606516 0.581349 0.10344
0.487617 0.600814 -0.141738
-0.810908 0.581349 -0.141187
0.687689 0.581349 0.064711
0.322282 0.600814 -0.131671
-0.162418 0.581349 0.18428
-0.574877 0.600814 -0.057906
0.30899 0.600814 -0.097119
0.057253 0.600814 0.130836
-0.647834 0.581349 0.085229
0.623231 0.581349 0.067983
-0.474047 0.600814 -0.034917
-0.002021 0.600814 -0.15765
-0.723033 0.581349 -0.124352
-0.076757 0.600814 -0.143985
0.167117 0.581349 -0.091455
0.352371 0.581349 0.051781
0.793556 0.600814 -0.068864
0.652864 0.600814 0.065433
-0.186732 0.600814 0.044798
0.090675 0.600814 -0.007765
-0.578896 0.581349 -0.003099
-0.143126 0.600814 -0.085058
-0.698024 0.600814 -0.106569
-0.594667 0.600814 -0.193912
-0.078247 0.581349 0.201092
0.004552 0.600814 -0.221693
0.390334 0.600814 -0.04774
0.641771 0.600814 0.113558
-0.282295 0.581349 0.050939
-0.051949 0.600814 0.090945
-0.327613 0.600814 -0.188619
-0.371944 0.581349 -0.073516
0.38574 0.581349 0.073002
0.770209 0.600814 0.002987
-0.139874 0.600814 0.071581
0.557637 0.583128 -0.235905
-0.211261 0.581349 0.127539
-0.391942 0.600814 0.082033
0.629975 0.581349 -0.040782
-0.506948 0.600814 0.197935
0.681743 0.581349 0.003671
0.12244 0.581349 0.17121
0.622653 0.581349 -0.077637
0.558194 0.581349 0.08286
-0.619161 0.600814 -0.092729
0.822997 0.587109 0.198816
0.706717 0.581349 0.16225
0.4887 0.581349 0.182462
0.19725 0.600814 0.085581
0.31964 0.581349 0.155638
-0.703083 0.600814 0.047629
-0.754948 0.600814 -0.202459
-0.479385 0.600814 -0.078032
0.227012 0.581349 -0.028831
0.520291 0.581349 0.040579
-0.656374 0.581349 -0.132769
0.687209 0.581349 0.1204
-0.614935 0.600814 0.037448
-0.755653 0.600814 0.083004
-0.267373 0.600814 -0.146338
0.042839 0.600814 -0.016955
-0.372355 0.600814 0.151588
0.541937 0.600814 -0.193263
0.23196 0.600814 -0.211999
-0.540496 0.581349 0.104235
-0.504225 0.581349 0.055776
-0.303122 0.581349 -0.008152
-0.479055 0.600814 -0.0009
0.484475 0.600814 -0.00244
0.456292 0.581349 0.046367
-0.106408 0.581349 0.156245
-0.741975 0.600814 -0.051217
-0.438903 0.600814 0.134692
-0.781096 0.600814 -0.033461
0.521195 0.581349 -0.027289
-0.439889 0.600814 -0.086683
-0.447435 0.600814 -0.166915
-0.044226 0.600814 0.160868
0.275684 0.600814 -0.158989
-0.523051 0.600814 -0.01166
0.497122 0.581349 -0.059969
0.153977 0.581349 -0.046259
-0.069586 0.600814 0.137546
-0.191603 0.581349 0.20199
-0.305992 0.581349 -0.202709
-0.719178 0.600814 0.096495
-0.499781 0.600814 0.085797
0.110316 0.600814 -0.162502
0.568436 0.600814 -0.07209
0.407084 0.581349 -0.111304
-0.291408 0.581349 -0.080479
-0.123365 0.600814 -0.022914
0.212129 0.581349 -0.130403
0.706137 0.581349 -0.227306
0.087477 0.600814 0.038176
0.525314 0.600814 -0.159343
-0.226998 0.581349 -0.048074
-0.66752 0.581349 -0.057737
-0.291901 0.600814 0.150324
0.513091 0.600814 0.199593
0.286787 0.581349 -0.084279
0.061723 0.600814 -0.063328
-0.238945 0.600814 -0.008503
-0.432285 0.581349 0.026409
0.567733 0.581349 -0.013423
-0.812054 0.600742 0.068346
0.398889 0.596346 -0.235905
-0.533275 0.600814 -0.065267
-0.373144 0.600814 -0.207484
-0.799536 0.581349 0.018616
-0.747382 0.581349 -0.235282
-0.467365 0.581349 -0.144427
-0.812054 0.596797 0.189466
0.822997 0.595405 -0.056146
-0.422553 0.600814 -0.044956
0.076777 0.581349 0.161091
0.625776 0.581349 0.013859
0.407399 0.600814 0.091634
-0.682898 0.581349 0.110532
0.608876 0.600814 -0.124696
-0.48077 0.581349 0.182075
0.533451 0.600814 0.145136
0.765499 0.581349 0.166233
0.78941 0.600814 0.178829
0.079694 0.600814 0.185892
0.513051 0.600814 0.080617
-0.566508 0.600814 0.160306
-0.558925 0.600814 -0.176322
0.08767 0.581349 -0.217789
0.361794 0.581349 -0.174894
0.186217 0.581349 0.139622
-0.491308 0.600814 -0.209512
-0.1271 0.581349 -0.177568
0.650407 0.581349 -0.212202
-0.592032 0.581349 -0.039911
-0.676345 0.581349 -0.207218
0.788823 0.581349 -0.123859
0.084983 0.600814 -0.186015
0.248346 0.600814 0.138154
-0.755887 0.581349 0.043566
0.153901 0.581349 -0.189336
-0.073987 0.581349 -0.072755
-0.387149 0.581349 -0.041847
-0.449886 0.581349 0.198853
-0.012683 0.581349 0.101089
-0.02942 0.600814 -0.082311
-0.627584 0.581349 -0.034949
-0.776074 0.600814 -0.225034
-0.489379 0.581349 -0.055999
0.65453 0.600814 0.180955
0.721373 0.600814 -0.134024
0.026148 0.581349 0.021393
-0.217738 0.581349 -0.18735
-0.753777 0.600814 -0.142954
0.212556 0.600814 0.022326
0.463922 0.600814 -0.10143
-0.450535 0.581349 -0.203719
-0.403114 0.581349 -0.209616
0.280209 0.581349 0.001033
0.722347 0.581349 0.054409
0.796857 0.600814 -0.035936
-0.739649 0.600814 -0.009709
-0.013584 0.600814 0.147909
0.004113 0.600814 -0.032824
-0.359592 0.600814 0.059259
-0.031445 0.581349 0.000824
0.444015 0.581349 -0.037958
-0.146022 0.600814 -0.160837
0.166884 0.600814 -0.169468
-0.223498 0.600814 0.017156
-0.294427 0.581349 -0.141247
-0.047578 0.581349 0.131806
-0.454941 0.600814 0.026318
-0.677079 0.581349 -0.011977
-0.333839 0.581349 -0.071983
-0.238237 0.600814 0.153021
0.213819 0.581349 -0.094799
-0.035367 0.581349 -0.047818
-0.074683 0.581349 0.007887
0.015365 0.581349 -0.171967
0.121997 0.581349 -0.035057
-0.372006 0.581349 -0.12489
0.544729 0.600814 -0.111699
0.798124 0.581349 -0.213858
-0.130573 0.581349 0.021317
0.194285 0.581349 0.200095
-0.684963 0.600814 -0.133167
-0.72219 0.581349 -0.193777
-0.186088 0.600814 -0.146153
0.45738 0.600814 0.182095
0.543656 0.600814 -0.011043
0.583562 0.581349 0.107178
0.432105 0.581349 -0.209895
-0.093757 0.600814 0.099351
-0.582268 0.581349 0.133068
-0.706855 0.585548 -0.235905
0.749272 0.600814 -0.216773
-0.574495 0.600814 0.018388
0.124133 0.600814 0.059953
0.087143 0.581349 -0.12097
0.494593 0.581349 0.128369
0.188217 0.581349 -0.181207
0.705571 0.581349 -0.013417
-0.586464 0.600814 0.093121
-0.67478 0.581349 -0.088189
0.12423 0.600814 0.010993
0.332088 0.581349 -0.046112
-0.277194 0.600814 -0.184305
0.003382 0.600814 0.040131
0.428611 0.581349 0.003777
0.745042 0.581349 0.000874
-0.72213 0.581349 0.157981
0.150274 0.581349 0.100139
0.373115 0.581349 0.173847
-0.631696 0.596367 -0.235905
0.579405 0.600814 -0.031303
-0.648842 0.581349 0.034933
0.367943 0.600814 0.132448
0.757662 0.600814 -0.022855
-0.563994 0.581349 -0.075834
0.161279 0.600814 0.123001
-0.315615 0.581349 0.08375
-0.681435 0.600814 0.20042
0.431241 0.600814 0.162916
-0.498664 0.600814 -0.1225
0.34383 0.600814 0.077146
-0.557944 0.600814 -0.134746
0.324085 0.600814 0.119897
0.062647 0.581349 -0.042691
-0.372306 0.600814 -0.019555
-0.350824 0.581349 0.153684
0.588417 0.600814 0.034613
-0.444782 0.600814 -0.027414
-0.384156 0.581349 -0.153516
-0.546736 0.581349 0.200408
-0.652176 0.581349 0.113426
-0.168153 0.600814 -0.069957
0.727595 0.600814 -0.169671
-0.768619 0.581349 -0.061529
0.317435 0.581349 0.069364
-0.271741 0.581349 -0.11576
0.684494 0.600814 0.145323
0.057909 0.600814 -0.133168
-0.350999 0.581349 0.01863
-0.69446 0.581349 0.068891
-0.07139 0.600814 -0.214159
-0.496461 0.581349 0.132165
0.647118 0.600814 0.01758
0.690659 0.581349 -0.204036
0.227568 0.600814 -0.007236
-0.10666 0.600814 0.06535
-0.130432 0.600814 -0.049858
-0.567316 0.600814 0.069935
0.530588 0.600814 -0.086963
-0.560119 0.600814 -0.009329
-0.05643 0.600814 -0.169538
0.368939 0.600814 -0.153591
0.189623 0.600814 -0.14232
0.712776 0.600814 0.00631
-0.304077 0.581349 0.165707
0.139776 0.581349 -0.13286
0.331365 0.594505 -0.235905
-0.377064 0.581349 -0.230868
0.575582 0.600814 -0.159308
-0.644853 0.600814 0.183619
-0.736255 0.600814 0.057433
0.796937 0.600814 0.095933
0.657758 0.581349 0.124442
0.061338 0.581349 -0.234636
0.594428 0.581349 -0.177561
-0.199036 0.581349 0.092203
-0.421555 0.600814 0.111047
0.180006 0.600814 0.176714
-0.798263 0.600814 -0.077921
0.365797 0.600814 0.003809
-0.167863 0.581349 0.157455
0.709444 0.600814 -0.042912
-0.425499 0.587319 -0.235905
0.691094 0.600814 -0.089701
0.367095 0.600814 0.197709
-0.375188 0.581349 0.104164
0.467951 0.600814 0.110454
-0.636955 0.581349 -0.151963
-0.254755 0.581349 -0.176739
-0.5406 0.581349 0.041534
0.021316 0.581349 -0.230856
-0.709121 0.600814 -0.011951
-0.375965 0.600814 -0.105564
-0.388476 0.581349 0.014233
-0.604654 0.600814 -0.066971
0.500183 0.600814 0.052833
-0.222382 0.600814 0.17504
-0.5755 0.600814 -0.090811
-0.402669 0.581349 0.066535
0.264525 0.600814 0.116442
0.763663 0.588217 -0.235905
-0.286234 0.600814 -0.053051
0.590336 0.581349 -0.121806
-0.335944 0.600814 -0.036827
0.64088 0.600814 -0.16042
0.479723 0.600814 -0.053132
-0.773331 0.600814 0.036915
0.467772 0.600814 0.145584
0.307042 0.600814 0.027804
0.026135 0.600814 0.108188
0.115109 0.600814 -0.079118
-0.483487 0.581349 -0.19271
0.683556 0.581349 -0.155226
0.089805 0.600814 0.147015
0.108852 0.581349 0.000762
-0.518121 0.600814 -0.15198
-0.501519 0.581349 -0.167596
0.555929 0.581349 0.026562
0.514077 0.581349 0.146736
0.550506 0.581349 0.151848
0.611969 0.581349 0.093991
-0.486211 0.600814 0.058837
-0.023202 0.581349 0.192702
-0.317814 0.600814 0.132526
-0.022567 0.600814 -0.034906
0.743624 0.600814 -0.119403
-0.699099 0.581349 -0.051359
-0.06382 0.581349 -0.131277
-0.153557 0.581349 -0.099844
-0.426318 0.581349 -0.027285
-0.103677 0.581349 0.029319
-0.544364 0.581349 0.004817
-0.653422 0.581349 -0.000251
-0.201505 0.581349 0.177529
0.271267 0.581349 -0.187475
-0.164744 0.600814 -0.179337
0.249309 0.600814 -0.030368
-0.439126 0.581349 0.165166
-0.548838 0.581349 0.160932
0.043161 0.600814 -0.20507
-0.124933 0.581349 -0.121089
0.686269 0.600814 0.102759
0.186482 0.581349 -0.044526
0.598366 0.600814 0.131744
0.75972 0.581349 -0.169702
-0.018981 0.581349 -0.134845
0.404825 0.600814 -0.088682
-0.37055 0.600814 -0.04733
-0.173235 0.581349 0.001621
-0.254877 0.581349 -0.216744
-0.615824 0.600814 0.143013
0.010206 0.581349 -0.092241
-0.185328 0.581349 0.062144
-0.17043 0.581349 -0.128367
0.367986 0.600814 -0.114249
-0.232175 0.600814 0.089073
-0.108119 0.581349 -0.22705
-0.027977 0.600814 0.018091
-0.094367 0.600814 -0.051626
-0.521748 0.600814 0.139479
-0.407718 0.600814 -0.161682
-0.096997 0.600814 -0.090153
-0.108826 0.600814 -0.187016
0.072343 0.600814 -0.210056
0.156261 0.600814 -0.14566
0.636318 0.600814 -0.024867
-0.289256 0.581349 0.12796
0.649516 0.600814 -0.12431
0.579556 0.581349 -0.216502
-0.556078 0.581349 -0.217098
0.356131 0.581349 -0.082589
-0.568381 0.600814 -0.200364
-0.164871 0.600814 0.101818
-0.266783 0.600814 0.007729
-0.177217 0.581349 -0.024554
-0.508683 0.581349 -0.002731
0.459814 0.600814 -0.032188
0.137756 0.581349 0.050094
0.046768 0.600814 -0.15664
-0.335079 0.600814 0.066872
0.567563 0.581349 -0.046322
0.442782 0.581349 0.093301
0.602257 0.600814 0.063468
0.174923 0.584083 -0.235905
-0.520907 0.600814 0.071373
0.230636 0.600814 0.157752
0.242296 0.600814 -0.10113
-0.54784 0.581349 -0.188804
0.637135 0.581349 -0.182751
0.137875 0.581349 0.00203
0.732352 0.581349 -0.038514
-0.126084 0.600814 0.142009
-0.31358 0.600814 0.031266
-0.309034 0.581349 -0.175438
-0.785877 0.600814 -0.008625
0.079845 0.581349 -0.019735
-0.402549 0.600814 0.148225
0.135859 0.59337 -0.235905
-0.03808 0.581349 0.082914
0.376591 0.600814 -0.084887
0.375522 0.600814 0.158047
0.461988 0.600814 -0.214086
-0.178891 0.600814 0.143485
0.630157 0.600814 0.195422
0.106651 0.581349 0.096541
0.385399 0.600814 0.048003
-0.708594 0.600814 -0.177216
-0.362708 0.581349 -0.177401
-0.098367 0.581349 -0.148388
-0.791763 0.581349 0.125408
-0.128868 0.600814 0.005775
-0.05962 0.600814 0.04275
0.751761 0.600814 -0.156268
0.109962 0.581349 -0.146903
-0.50897 0.600814 -0.099798
-0.612354 0.600814 -0.166677
-0.651646 0.581349 -0.204181
0.269125 0.581349 -0.137615
0.460488 0.581349 0.12395
0.251497 0.600814 0.039869
-0.076944 0.600814 -0.011717
0.279165 0.600814 -0.111355
0.107287 0.581349 -0.106501
-0.600674 0.581349 0.043165
0.420225 0.600814 0.04199
-0.481197 0.600814 0.124195
0.811084 0.600814 -0.205686
-0.136778 0.600814 -0.225313
0.706869 0.581349 -0.146916
-0.322872 0.600814 -0.164331
0.655846 0.581349 0.050462
0.371358 0.581349 -0.062811
0.207526 0.600814 0.046752
-0.425603 0.581349 -0.161524
0.760225 0.581349 -0.206321
0.805788 0.581349 0.146433
0.800034 0.600814 -0.104843
0.328102 0.600814 0.172993
0.078398 0.581349 -0.171376
0.50278 0.600814 -0.122468
-0.222463 0.581349 -0.129636
-0.136729 0.581349 0.175273
0.206582 0.581349 0.125399
0.022392 0.600814 0.173459
0.12307 0.600814 -0.195726
0.666939 0.581349 -0.035049
-0.613546 0.581349 -0.229439
-0.020602 0.581349 -0.094112
0.037324 0.600814 -0.062931
-0.627752 0.600814 -0.194021
0.73087 0.600814 0.12137
-0.355037 0.600814 0.114883
0.211419 0.581349 0.089389
0.321832 0.581349 -0.0145
0.127463 0.600814 0.133758
-0.253965 0.581349 -0.091643
0.320384 0.600814 -0.075621
0.76187 0.581349 -0.06291
0.691811 0.581349 -0.178099
0.15432 0.600814 -0.098377
0.255286 0.581349 0.15389
-0.236615 0.581349 0.035666
0.06145 0.581349 0.116993
0.478524 0.581349 -0.089102
-0.218928 0.581349 0.065079
0.740027 0.600814 -0.078163
0.50568 0.581349 -0.08257
0.217289 0.600814 -0.18071
-0.589124 0.581349 0.07912
0.512739 0.600814 0.005612
-0.221258 0.592452 -0.235905
0.712085 0.600814 -0.101507
0.765062 0.581349 0.059774
0.267788 0.581349 -0.069545
0.401927 0.581349 0.055234
0.480846 0.581349 0.01114
-0.423217 0.581349 -0.128466
0.251793 0.600814 -0.156787
0.245913 0.600814 -0.067965
-0.125289 0.581349 0.09572
0.279061 0.600814 0.195552
-0.050321 0.581349 0.056734
-0.254434 0.600814 0.098085
0.388084 0.600814 -0.200599
0.514416 0.600814 0.130691
-0.313169 0.600814 -0.017591
-0.709773 0.600814 -0.128116
0.575319 0.600814 0.002853
-0.336505 0.582383 -0.235905
0.528745 0.581349 -0.055425
-0.185163 0.600814 0.176271
0.776485 0.600814 -0.173167
0.606468 0.600814 -0.219783
0.501441 0.600814 0.17757
-0.403239 0.581349 0.133199
-0.533494 0.600814 0.091496
0.470657 0.581349 -0.113476
0.508806 0.600814 -0.032318
-0.066048 0.581349 0.031027
0.822894 0.581349 0.169198
-0.434312 0.581349 -0.05129
-0.655258 0.600814 -0.083815
-0.694245 0.581349 0.162857
0.781387 0.581349 0.010201
-0.590164 0.581349 0.199936
-0.42516 0.600814 0.080593
0.57439 0.581349 -0.083928
-0.403102 0.600814 -0.191159
0.787076 0.590484 -0.235905
0.245521 0.581349 -0.01437
0.007315 0.581349 -0.148403
-0.505472 0.600814 -0.041534
-0.680554 0.581349 0.187349
-0.788001 0.600814 -0.17882
-0.258053 0.600814 -0.122076
-0.397635 0.600814 -0.032103
-0.453489 0.600814 0.177197
-0.020855 0.600814 0.08945
-0.101838 0.581349 -0.103515
-0.803604 0.600814 -0.039647
0.822997 0.593312 -0.166617
0.160888 0.581349 0.024512
-0.248581 0.600814 0.026395
-0.697252 0.600814 0.124378
-0.584157 0.581349 -0.186563
-0.603072 0.600814 -0.109592
0.026684 0.600814 -0.135304
0.654177 0.581349 -0.063069
-0.140121 0.581349 -0.000175
0.406203 0.600814 -0.065482
0.150516 0.600814 -0.204474
-0.2534 0.600814 0.188088
0.03391 0.600814 0.046995
-0.339517 0.600814 -0.088836
-0.343175 0.581349 0.057365
0.42147 0.600814 -0.168692
-0.754632 0.600814 0.106104
0.418953 0.600814 0.014905
0.447275 0.581349 -0.110317
-0.100983 0.581349 0.197011
0.322984 0.581349 -0.174454
0.319373 0.581349 -0.090349
0.529954 0.581349 -0.196383
0.311591 0.600814 -0.205977
0.624547 0.600814 -0.144153
0.168226 0.600814 -0.079162
-0.568909 0.600814 -0.2355
0.36467 0.581349 0.111032
0.00445 0.581349 -0.002168
0.678434 0.600814 0.056678
0.36668 0.581349 0.145755
-0.170965 0.600814 0.071677
-0.066818 0.600814 0.069567
-0.503715 0.581349 0.181213
0.412417 0.581349 0.164373
-0.447778 0.581349 -0.101083
0.311484 0.581349 0.006437
0.277993 0.581349 0.072847
0.007999 0.581349 -0.069471
0.451719 0.600814 -0.193653
-0.248962 0.581349 -0.054375
0.228676 0.596332 -0.235905
-0.756448 0.581349 0.173052
-0.521533 0.581349 -0.063294
-0.658248 0.600814 0.159309
-0.26784 0.581349 0.068541
0.696043 0.581349 -0.03783
0.656182 0.581349 0.010033
0.637974 0.581349 0.139587
-0.17711 0.600814 0.201182
-0.045531 0.600814 -0.111626
0.300958 0.581349 -0.179906
0.620673 0.600814 -0.104469
-0.179781 0.581349 0.129571
-0.734749 0.600814 -0.192211
-0.502119 0.581349 0.1077
-0.566231 0.581349 0.107795
0.602968 0.581349 -0.198979
-0.337663 0.581349 -0.182373
-0.375974 0.581349 -0.005314
0.351838 0.581349 0.1815
0.194735 0.600814 -0.012264
0.708056 0.581349 -0.073859
0.717341 0.600814 0.166474
-0.170581 0.600814 -0.04752
-0.53558 0.600814 -0.030429
-0.483382 0.581349 -0.217674
0.77468 0.581349 0.096921
-0.367948 0.581349 0.176407
-0.756796 0.581349 -0.12414
-0.520555 0.581349 -0.188197
-0.718807 0.600814 -0.097921
0.005105 0.581349 0.076757
-0.703729 0.581349 -0.213266
0.697746 0.600814 0.069637
-0.358179 0.581349 0.084063
0.547973 0.581349 0.056826
-0.397741 0.581349 0.100736
-0.355654 0.600814 -0.185981
-0.704916 0.600814 0.072602
-0.084792 0.581349 0.17808
0.608778 0.581349 -0.101573
-0.620116 0.581349 -0.103677
-0.207966 0.581349 -0.208294
-0.383046 0.581349 -0.092889
0.768243 0.581349 0.129888
0.191823 0.581349 0.076209
0.279885 0.600814 0.083512
0.0535 0.581349 0.184981
0.283813 0.600814 -0.232163
-0.394293 0.600814 0.059772
0.397183 0.600814 0.153074
-0.294911 0.581349 0.091749
0.181827 0.600814 -0.223086
0.100664 0.600814 0.020403
-0.618524 0.600814 -0.21505
0.292292 0.600814 -0.133024
0.173651 0.581349 -0.062542
-0.169073 0.600814 0.01619
0.136498 0.600814 0.08569
-0.103224 -0.277311 -0.21644
-0.06553 -0.41175 -0.21644
-0.052138 -0.228611 -0.21644
-0.014862 -0.287742 -0.21644
-0.115437 -0.513768 -0.21644
-0.107557 -0.434905 -0.21644
-0.024016 -0.249976 -0.21644
-0.034913 -0.317868 -0.21644
-0.058029 -0.51319 -0.21644
-0.079982 -0.243814 -0.21644
-0.038704 -0.483796 -0.21644
-0.099814 -0.30679 -0.21644
-0.019093 -0.350814 -0.21644
-0.042372 -0.365139 -0.21644
-0.084635 -0.434877 -0.21644
0.803532 -0.457562 -0.214343
0.803532 0.385735 -0.080631
0.784067 -0.196877 -0.019234
0.803532 0.100363 0.009162
0.784067 -0.427558 0.027395
0.784067 0.44677 0.097608
0.803532 -0.293097 -0.165662
0.803532 0.282194 0.046773
0.803532 0.013079 -0.134425
0.803532 -0.041964 0.089038
0.803532 0.11172 0.170255
0.803532 0.530371 -0.113459
0.784067 0.21634 -0.069128
0.784067 -0.165791 0.118027
0.784067 -0.075365 -0.029482
0.784067 -0.438258 -0.095871
0.803532 -0.330905 -0.042842
0.803532 -0.393598 0.151608
0.784067 0.10864 -0.209517
0.803532 -0.266052 0.070485
0.803532 -0.144909 -0.116072
0.784067 0.347268 0.149716
0.784067 0.496601 0.002358
0.803532 0.209966 0.128574
0.803532 0.120801 -0.108433
0.803532 0.310381 -0.149335
0.784067 0.386359 0.01765
0.784067 0.051717 0.093183
0.803532 -0.092223 0.174245
0.784067 0.192615 0.030285
0.784067 0.008045 0.177804
0.803532 0.005047 0.013678
0.784067 -0.351374 0.07162
0.803532 -0.205647 -0.179022
0.803532 0.304194 -0.037874
0.784067 0.530941 0.121071
0.803532 -0.13908 0.038069
0.803532 -0.360943 -0.12032
0.784067 -0.303091 0.142224
0.803532 -0.056294 -0.174814
0.803532 -0.23811 -0.107331
0.784067 -0.471251 0.128858
0.784067 0.02421 -0.208975
0.784067 0.465566 -0.074964
0.803532 0.056417 -0.06655
0.784067 0.200235 -0.144071
0.803532 -0.187984 0.190069
0.784067 -0.048258 -0.097013
0.803532 0.45656 -0.169256
0.803532 0.460414 0.165397
0.803532 0.146397 -0.043677
0.803532 0.278703 0.121701
0.803532 0.548261 0.045201
0.784067 -0.270558 -0.018865
0.803532 -0.403542 -0.032306
0.803532 0.318443 -0.215905
0.784067 -0.228745 0.138355
0.784067 -0.403378 -0.167016
0.803532 0.385503 -0.155929
0.803532 0.131057 0.107632
0.803532 0.271382 -0.097145
0.784067 -0.491589 -0.142458
0.784067 -0.003041 -0.052106
0.803532 0.348193 0.06406
0.784067 0.230487 0.189186
0.784067 -0.057927 0.031603
0.803532 -0.133671 -0.040014
0.784067 -0.41092 0.08715
0.803532 0.1657 -0.198768
0.803532 -0.205293 0.074914
0.803532 0.076772 -0.150368
0.803532 -0.498854 0.045448
0.784067 0.52178 -0.052904
0.803532 0.388694 0.108536
0.803532 0.248595 -0.015093
0.784067 -0.317298 0.017996
0.803532 0.449021 0.031752
0.784067 0.433796 -0.025207
0.784067 -0.295784 -0.085751
0.784067 -0.10724 0.119801
0.784067 0.537244 -0.167388
0.784067 -0.474931 -0.051372
0.803532 -0.116386 -0.174258
0.784067 0.257878 -0.157147
0.784067 0.424467 -0.121252
0.803532 -0.250114 -0.212189
0.803532 -0.354105 -0.182574
0.784067 0.003729 0.12005
0.784067 0.233942 0.066293
0.803532 -0.09896 -0.086231
0.784067 0.573233 0.201323
0.784067 0.122339 0.053952
0.803532 0.05371 0.044276
0.784067 0.176592 0.163693
0.803532 0.493167 0.084605
0.784067 -0.09538 0.067584
0.803532 0.375475 -0.029167
0.784067 -0.197071 -0.071
0.803532 0.324711 0.017467
0.784067 0.547733 -0.003851
0.803532 0.408994 0.162408
0.803532 -0.477969 -0.001554
0.784067 -0.297389 -0.21394
0.803532 0.172727 0.078085
0.784067 0.345098 -0.118324
0.784067 -0.458709 0.071027
0.803532 -0.047397 0.151407
0.803532 -0.505238 0.161071
0.784067 0.288787 0.166817
0.803532 0.198941 -0.021549
0.803532 -0.445993 -0.142746
0.803532 -0.341234 0.117518
0.784067 0.088347 -0.034943
0.803532 -0.377245 -0.073254
0.803532 -0.236529 -0.050481
0.803532 0.180069 -0.094763
0.784067 -0.028234 -0.208872
0.784067 -0.193015 -0.11886
0.803532 0.056014 0.136838
0.784067 0.120039 -0.155124
0.784067 0.034466 -0.018179
0.803532 -0.216328 0.019366
0.803532 0.48519 -0.126618
0.803532 0.534272 0.162946
0.803532 0.065937 -0.204981
0.803532 -0.387124 0.016919
0.803532 -0.408319 0.195035
0.784067 -0.018345 0.054578
0.784067 0.150061 0.013964
0.803532 -0.097642 -0.215763
0.803532 -0.157371 -0.212725
0.803532 0.365117 -0.196296
0.784067 0.056056 -0.115852
0.784067 0.569986 0.143914
0.784067 0.460886 -0.21618
0.803532 -0.248468 -0.167659
0.803532 0.32259 0.11585
0.784067 0.491661 0.140007
0.803532 0.232431 -0.122056
0.784067 -0.513699 -0.083106
0.803532 -0.166489 -0.153837
0.784067 0.158027 -0.133572
0.803532 0.335568 -0.067739
0.803532 -0.275064 0.028364
0.784067 -0.026872 -0.016261
0.784067 -0.367882 -0.01814
0.784067 0.248784 0.023018
0.803532 -0.029465 -0.133006
0.784067 0.403679 0.074059
0.803532 -0.162227 -0.004928
0.803532 0.427838 -0.081409
0.784067 -0.33594 0.171225
0.784067 -0.477782 0.186315
0.784067 -0.420812 -0.208379
0.784067 -0.430447 0.15607
0.803532 0.371637 0.201166
0.784067 -0.00488 -0.093932
0.803532 0.470587 -0.024797
0.803532 -0.101089 -0.135554
0.784067 -0.161563 0.067075
0.784067 0.088818 -0.083777
0.784067 0.313184 0.074929
0.803532 -0.291282 0.107524
0.803532 0.494636 0.038732
0.803532 -0.438932 -0.056178
0.784067 -0.522315 0.104866
0.784067 -0.185447 0.153824
0.803532 -0.054065 -0.058336
0.803532 -0.437922 -0.008514
0.803532 0.214031 -0.184234
0.784067 0.048718 -0.172042
0.803532 -0.485452 -0.104069
0.803532 -0.23903 0.180367
0.784067 -0.381185 0.1188
0.784067 0.138583 -0.077647
0.803532 0.435345 0.132778
0.803532 -0.471888 -0.172486
0.803532 -0.272951 -0.131854
0.784067 -0.33686 -0.144553
0.803532 0.432713 0.193741
0.784067 -0.505732 -0.02708
0.784067 -0.068014 0.120002
0.784067 -0.233263 0.094319
0.784067 0.412264 -0.178829
0.803532 -0.483981 0.097546
0.784067 -0.107838 0.025191
0.803532 0.247267 0.160238
0.803532 -0.1531 0.173311
0.784067 0.401742 -0.049599
0.784067 0.527968 0.071408
0.803532 0.554763 -0.055619
0.803532 -0.446794 0.106731
0.784067 0.488641 -0.161973
0.803532 0.097801 0.126383
0.803532 0.29672 -0.1846
0.803532 -0.322582 -0.103922
0.784067 0.139303 0.138874
0.784067 -0.314137 0.065991
0.803532 -0.103053 -0.013098
0.784067 0.499834 -0.090328
0.803532 0.001284 0.079856
0.803532 0.337401 0.180087
0.803532 0.482885 0.195274
0.803532 -0.408215 0.052604
0.784067 0.263716 -0.209545
0.803532 -0.294236 -0.049431
0.803532 -0.260386 0.140274
0.784067 -0.135133 0.095256
0.803532 0.026523 -0.097356
0.784067 -0.244654 0.047285
0.784067 -0.037666 0.192023
0.803532 0.554439 0.098465
0.784067 -0.336201 -0.214483
0.803532 0.383995 -0.119166
0.803532 -0.219114 -0.138587
0.784067 -0.025545 -0.163716
0.784067 -0.174277 0.032824
0.784067 0.566202 -0.097388
0.784067 0.455893 0.061554
0.784067 0.045865 0.165562
0.803532 -0.520271 -0.130575
0.803532 0.16347 0.040647
0.784067 0.359185 0.112902
0.803532 -0.434327 -0.176261
0.784067 -0.109639 -0.058563
0.784067 0.016444 0.048001
0.803532 -0.26135 -0.075694
0.803532 0.103069 -0.179264
0.784067 -0.162809 -0.044631
0.803532 -0.207616 0.11015
0.784067 0.180341 -0.173072
0.803532 0.223153 0.009228
0.803532 0.50723 -0.192193
0.784067 -0.26519 0.191952
0.784067 0.297116 -0.109491
0.803532 0.418091 0.016429
0.784067 -0.405447 -0.132645
0.784067 -0.145235 -0.172557
0.803532 0.020291 -0.168013
0.803532 -0.161916 -0.08624
0.803532 0.102756 -0.059267
0.784067 0.378024 0.173751
0.784067 0.138562 -0.191368
0.784067 -0.22031 -0.215785
0.784067 0.158817 0.103893
0.803532 0.018353 0.151795
0.784067 0.337247 -0.157032
0.803532 -0.295015 0.000769
0.784067 0.324922 -0.01929
0.784067 -0.133223 0.141586
0.803532 0.244886 0.11925
0.803532 0.261232 0.192899
0.784067 -0.380732 0.054035
0.784067 0.27675 -0.037462
0.803532 0.56621 0.016387
0.784067 0.386705 0.135761
0.803532 -0.411139 -0.074829
0.784067 0.174171 -0.010259
0.803532 -0.299093 0.169108
0.784067 0.130967 -0.02133
0.803532 -0.375746 0.179836
0.784067 0.216213 0.102236
0.784067 0.41681 0.043453
0.784067 0.313026 0.04161
0.784067 0.39928 -0.016586
0.784067 -0.518278 -0.215726
0.803532 0.078845 0.166517
0.803532 -0.02841 0.010297
0.803532 -0.311814 -0.135692
0.803532 0.334594 -0.184568
0.803532 -0.446203 0.04583
0.784067 0.308116 0.201815
0.803532 0.10153 0.069588
0.803532 0.572555 -0.161669
0.784067 -0.323304 -0.068499
0.784067 -0.23664 -0.024589
0.803532 -0.457579 0.170126
0.784067 0.354965 -0.044915
0.803532 0.081904 -0.115162
0.784067 0.27266 0.070793
0.803532 -0.07645 0.095585
0.803532 0.270951 -0.134929
0.803532 -0.072064 0.056605
0.784067 0.309164 0.137846
0.803532 0.208883 0.060706
0.784067 0.030786 -0.066959
0.784067 -0.053445 -0.142045
0.784067 -0.030073 -0.069564
0.803532 0.034289 0.069877
0.803532 0.214203 0.169526
0.784067 -0.022116 0.139091
0.784067 -0.368325 -0.150861
0.803532 -0.165535 0.092634
0.784067 -0.083248 0.00478
0.803532 0.437379 -0.206709
0.803532 0.361434 0.02112
0.803532 0.515912 -0.013739
0.784067 -0.385638 -0.209763
0.784067 -0.31445 -0.014938
0.803532 -0.098138 0.143188
0.803532 0.386904 0.055647
0.803532 -0.508575 -0.163061
0.784067 0.185691 0.133361
0.803532 -0.371797 0.085557
0.784067 0.433063 -0.155215
0.784067 0.523113 0.019099
0.803532 0.459356 -0.09862
0.784067 -0.495051 0.075873
0.784067 -0.128718 0.060068
0.784067 0.262582 0.141386
0.803532 0.496256 0.163683
0.803532 -0.322171 -0.176362
0.784067 0.183904 -0.040181
0.803532 -0.327994 0.08971
0.803532 -0.106528 0.201492
0.803532 -0.387343 -0.186056
0.803532 0.295897 -0.008325
0.803532 0.042314 0.004142
0.803532 -0.283579 -0.19474
0.784067 -0.274547 -0.107768
0.784067 -0.250085 0.003742
0.803532 0.298002 -0.082552
0.803532 0.41293 -0.142944
0.803532 0.074988 0.106399
0.803532 -0.128763 -0.080653
0.784067 0.243677 -0.183912
0.784067 0.239611 -0.100013
0.784067 0.444889 0.008943
0.803532 0.035489 -0.044391
0.784067 -0.07706 0.156911
0.784067 -0.113015 -0.115978
0.803532 -0.403865 0.116037
0.784067 0.566641 -0.190864
0.803532 0.475234 -0.198621
0.784067 0.496988 0.110607
0.803532 0.459249 -0.053209
0.784067 -0.281157 0.053623
0.784067 -0.313774 0.109188
0.784067 0.194005 -0.115054
0.803532 0.158017 0.151218
0.784067 0.454374 0.186758
0.784067 0.082179 0.144662
0.784067 0.228442 -0.157859
0.784067 0.575664 0.039032
0.784067 0.485006 0.058745
0.803532 0.503872 -0.040372
0.784067 -0.380254 -0.094751
0.784067 0.271649 -0.075465
0.803532 0.520364 0.199427
0.784067 0.110896 0.099881
0.803532 -0.477209 -0.076214
0.784067 -0.350933 0.136766
0.784067 0.545836 0.192124
0.784067 -0.193184 0.057417
0.803532 0.417262 0.104673
0.784067 0.067791 0.069255
0.784067 0.470171 0.031777
0.784067 -0.12301 0.175364
0.803532 0.508212 -0.0711
0.803532 0.342921 -0.095375
0.784067 0.166087 -0.06991
0.803532 -0.264487 -0.044667
0.784067 -0.166519 -0.108255
0.784067 -0.395376 0.17283
0.803532 0.549663 -0.024565
0.803532 -0.004914 -0.031415
0.803532 -0.075321 -0.153648
0.784067 0.462088 -0.1192
0.803532 0.541639 -0.139482
0.784067 -0.194078 0.09198
0.803532 -0.506067 -0.005761
0.803532 -0.235182 0.074045
0.803532 -0.134789 -0.011221
0.803532 -0.180054 0.132393
0.784067 -0.223246 -0.169055
0.784067 0.509634 -0.143356
0.784067 -0.421386 -0.041513
0.803532 0.404474 -0.198314
0.803532 -0.35516 -0.090346
0.784067 -0.047926 0.00558
0.784067 0.346312 0.008281
0.784067 0.36389 0.076028
0.803532 -0.063017 -0.014199
0.803532 -0.426992 0.136729
0.803532 0.038171 -0.146017
0.803532 0.094115 0.036069
0.784067 -0.078434 0.188096
0.784067 -0.14115 -0.065538
0.784067 0.374184 -0.06461
0.803532 -0.455143 -0.116823
0.784067 -0.220484 0.189165
0.803532 0.282362 0.019323
0.784067 0.375321 -0.139478
0.784067 0.212882 -0.008163
0.784067 0.225739 0.037854
0.803532 -0.250093 0.103604
0.803532 0.142348 -0.212841
0.784067 -0.49095 -0.171663
0.803532 -0.212879 -0.081601
0.784067 0.050756 0.025485
0.784067 -0.40469 0.009689
0.784067 0.448891 -0.191673
0.803532 0.43834 0.068655
0.784067 -0.184052 -0.144492
0.784067 0.05871 -0.142823
0.784067 -0.473913 0.1558
0.784067 -0.428891 0.112388
0.803532 0.197789 -0.162705
0.784067 0.114139 -0.04279
0.784067 -0.365332 -0.044873
0.803532 0.3842 -0.215875
0.803532 0.362743 0.094388
0.784067 -0.426591 -0.149082
0.803532 0.482499 -0.082019
0.784067 0.434049 -0.064149
0.784067 0.162906 0.062632
0.803532 0.160673 0.124632
0.803532 -0.118989 0.086759
0.803532 -0.428813 -0.111453
0.803532 -0.386466 -0.149372
0.784067 0.55566 0.167448
0.784067 0.413734 0.194853
0.784067 -0.145527 -0.134008
0.803532 0.048101 0.110761
0.803532 -0.295647 -0.114728
0.803532 0.417361 -0.009953
0.803532 -0.199415 0.164713
0.784067 -0.243136 -0.066908
0.784067 0.495409 -0.055911
0.803532 0.243996 -0.201603
0.784067 0.431038 0.149894
0.803532 -0.236313 0.154256
0.784067 0.57427 -0.072447
0.784067 -0.002958 -0.127342
0.784067 -0.07105 -0.183905
0.784067 0.048186 -0.19808
0.784067 0.481762 0.17803
0.803532 -0.392657 -0.121202
0.803532 0.199587 -0.077799
0.784067 -0.42234 0.185396
0.803532 0.557583 -0.112018
0.803532 -0.167463 -0.189011
0.803532 -0.084023 0.033791
0.784067 0.071368 -0.058793
0.784067 0.555714 -0.148626
0.784067 0.34835 -0.196617
0.784067 -0.275102 0.148276
0.803532 0.36109 -0.130731
0.803532 0.455021 -0.004467
0.803532 0.445722 -0.122164
0.803532 -0.031874 -0.099796
0.803532 -0.079553 -0.056428
0.803532 -0.311323 -0.199459
0.784067 -0.191931 0.120943
0.803532 0.575078 -0.020654
0.784067 0.079497 -0.195657
0.784067 -0.509768 0.137118
0.784067 0.375583 -0.007374
0.803532 0.166645 -0.024723
0.784067 -0.341963 0.02394
0.784067 -0.056791 0.095731
0.803532 0.524605 0.106127
0.803532 0.133507 -0.175993
0.803532 -0.449702 -0.030909
0.784067 -0.508339 -0.119675
0.784067 -0.287653 -0.13853
0.784067 0.545961 -0.069042
0.803532 0.042206 -0.213507
0.803532 -0.014076 -0.070264
0.803532 0.102362 -0.027221
0.784067 -0.110862 -0.026966
0.784067 0.529701 -0.097559
0.784067 0.280851 0.106079
0.784067 0.18682 0.070011
0.803532 -0.140921 0.127949
0.784067 0.509577 -0.175371
0.803532 0.190537 0.01499
0.784067 0.30955 0.107644
0.803532 0.536042 0.010846
0.803532 0.538719 0.134281
0.784067 -0.452065 -0.014393
0.803532 0.479368 0.130936
0.803532 0.147638 0.062167
0.784067 0.547542 0.022945
0.803532 -0.03731 0.128836
0.803532 0.238642 0.05181
0.784067 0.316335 -0.200884
0.784067 -0.498052 0.109341
0.784067 0.144249 0.042703
0.784067 0.105438 0.023189
0.784067 0.255654 0.179104
0.803532 -0.037277 -0.197081
0.803532 -0.091933 -0.175455
0.803532 0.573744 0.063977
0.784067 -0.462456 -0.077328
0.784067 0.098075 -0.144512
0.784067 -0.217683 -0.057968
0.784067 0.313084 0.168846
0.784067 0.202831 -0.216008
0.784067 0.30654 -0.163435
0.803532 -0.432995 0.170418
0.784067 -0.011363 0.163192
0.803532 -0.082992 0.124235
0.803532 -0.481505 0.138844
0.784067 -0.337757 -0.008604
0.803532 -0.131449 -0.136385
0.784067 0.1146 -0.075251
0.803532 0.506678 -0.109328
0.803532 -0.215732 0.053255
0.784067 -0.356235 0.184088
0.803532 -0.009647 0.124307
0.784067 -0.438974 -0.189479
0.803532 0.012256 0.108986
0.784067 -0.4864 -0.086726
0.803532 -0.207266 -0.010002
0.784067 -0.495782 0.003525
0.784067 -0.425232 -0.014068
0.784067 0.363364 0.034819
0.784067 -0.513925 0.031918
0.784067 -0.203634 -0.192565
0.803532 -0.342264 0.061451
0.784067 0.122187 0.155371
0.803532 0.514386 0.148342
0.784067 0.469696 0.15547
0.784067 -0.339363 0.097152
0.784067 0.40306 0.118584
0.784067 -0.252586 0.071798
0.784067 0.013753 -0.110539
0.784067 -0.015165 0.00769
0.784067 0.13986 -0.118435
0.784067 0.457268 -0.027989
0.784067 0.235693 -0.018539
0.784067 -0.148937 -0.089343
0.784067 -0.279344 0.015748
0.784067 0.206751 0.158512
0.803532 -0.069314 0.167705
0.803532 0.256934 -0.037112
0.784067 -0.411981 0.141467
0.784067 0.432017 -0.093866
0.803532 0.473171 0.019049
0.803532 0.535523 -0.180316
0.784067 -0.223953 0.036381
0.784067 -0.09245 -0.104833
0.784067 0.023355 -0.14231
0.803532 0.077818 -0.077066
0.784067 0.074378 0.178598
0.784067 -0.390687 -0.031683
0.803532 0.161833 0.182712
0.803532 0.206728 0.031712
0.803532 -0.115855 0.037407
0.803532 -0.044068 0.181082
0.803532 0.285478 -0.164297
0.784067 -0.160203 -0.01739
0.803532 0.325493 0.077596
0.784067 0.525473 0.042149
0.803532 0.520249 0.061499
0.784067 -0.342802 -0.038876
0.784067 -0.286293 0.18245
0.784067 -0.151232 0.030695
0.803532 -0.166925 0.042914
0.784067 0.389645 -0.167674
0.784067 0.261761 0.003905
0.803532 0.39046 -0.054646
0.784067 -0.464934 -0.162286
0.803532 -0.046426 0.036028
0.803532 -0.175754 -0.116396
0.803532 0.338163 -0.128692
0.803532 -0.283616 -0.06985
0.803532 0.067629 -0.046566
0.784067 0.026109 0.115174
0.784067 -0.222157 -0.00688
0.784067 0.203769 -0.190333
0.803532 -0.317422 -0.00342
0.803532 -0.127086 0.186451
0.784067 0.339699 -0.084066
0.803532 0.534249 -0.065411
0.803532 0.414942 -0.114418
0.803532 0.38633 0.163621
0.784067 -0.21203 -0.106492
0.784067 0.52286 0.165276
0.803532 -0.331139 0.019817
0.784067 0.401845 -0.120339
0.803532 -0.184011 0.026613
0.784067 0.191105 -0.091481
0.803532 -0.37458 0.044307
0.803532 0.341586 0.103654
0.803532 0.515511 -0.213177
0.784067 -0.212226 -0.03575
0.803532 -0.254508 0.014225
0.803532 -0.362429 0.10993
0.803532 0.299843 0.164486
0.803532 0.353209 0.140233
0.784067 -0.344926 -0.188973
0.784067 -0.316705 0.043696
0.803532 0.43748 0.171831
0.784067 -0.31143 -0.179123
0.803532 -0.312879 -0.072255
0.803532 -0.360626 -0.054608
0.784067 -0.328806 0.13922
0.784067 0.466977 0.088262
0.803532 0.514289 0.028305
0.803532 0.457104 0.128167
0.803532 0.28382 -0.02897
0.803532 0.481285 -0.148477
0.784067 0.413732 0.094605
0.803532 0.080359 0.053469
0.784067 0.002194 -0.211452
0.803532 -0.346382 0.172477
0.803532 -0.48886 -0.152596
0.784067 0.379087 -0.039015
0.784067 -0.376878 -0.185444
-0.773123 0.320448 -0.076275
-0.773123 -0.330839 0.006946
-0.792588 0.073665 0.012773
-0.773123 0.425196 0.112617
-0.792588 -0.123742 0.003725
-0.773123 -0.448816 -0.122468
-0.773123 0.226242 0.05897
-0.773123 -0.426163 0.13949
-0.773123 -0.218991 0.125395
-0.773123 0.051382 -0.132548
-0.792588 0.475445 -0.10571
-0.792588 -0.225403 -0.09849
-0.773123 0.186892 -0.093377
-0.773123 0.025725 0.14553
-0.792588 -0.063728 -0.104961
-0.792588 0.339491 0.035311
-0.792588 0.320899 0.159056
-0.773123 -0.33633 -0.119028
-0.773123 0.490596 0.013814
-0.773123 -0.442903 0.007246
-0.792588 0.126239 0.111949
-0.792588 -0.066628 0.095864
-0.773123 -0.227076 0.011041
-0.792588 -0.3273 0.119177
-0.773123 -0.032126 -0.009171
-0.792588 0.401585 -0.032892
-0.792588 0.401424 -0.158529
-0.773123 -0.14547 -0.136543
-0.773123 0.50378 0.155778
-0.773123 0.242873 -0.199602
-0.773123 0.163751 -0.012072
-0.773123 0.21011 0.148298
-0.773123 -0.143168 0.155777
-0.773123 0.128366 -0.168478
-0.792588 0.095146 -0.064708
-0.792588 0.250233 -0.042714
-0.792588 -0.393061 -0.066139
-0.773123 -0.385326 0.06493
-0.792588 -0.487375 0.069681
-0.792588 0.004126 0.058226
-0.773123 0.311627 -0.153251
-0.792588 -0.17553 0.064433
-0.773123 -0.272847 -0.167203
-0.792588 -0.496343 -0.052874
-0.773123 0.555825 -0.160585
-0.792588 -0.297967 -0.057486
-0.792588 0.00956 -0.077013
-0.773123 -0.014948 -0.160587
-0.792588 0.496874 0.086902
-0.773123 -0.126249 -0.065277
-0.773123 0.465309 -0.183083
-0.773123 -0.266524 0.069186
-0.773123 0.093554 0.170768
-0.792588 0.292152 0.095194
-0.792588 0.520562 -0.05325
-0.792588 0.2518 -0.124474
-0.773123 -0.358306 -0.18571
-0.773123 -0.040158 0.174927
-0.773123 0.428361 0.03743
-0.773123 0.279017 0.016094
-0.773123 0.354563 0.105371
-0.773123 0.124815 0.0489
-0.792588 -0.42173 -0.177557
-0.773123 0.379431 -0.101519
-0.792588 0.068418 0.084755
-0.792588 0.385019 0.168004
-0.773123 -0.075629 0.038963
-0.792588 0.44722 0.166125
-0.792588 -0.205071 -0.155544
-0.792588 0.185583 -0.164929
-0.773123 -0.121173 0.084393
-0.773123 0.073008 -0.18856
-0.773123 -0.082227 -0.156398
-0.792588 0.339225 -0.022409
-0.792588 -0.372364 0.154284
-0.773123 0.530169 -0.105805
-0.773123 0.040157 -0.033902
-0.773123 -0.276531 -0.111059
-0.792588 -0.187259 -0.05734
-0.792588 0.465959 -0.041513
-0.773123 0.223171 0.00114
-0.792588 -0.277772 0.002548
-0.773123 0.165796 0.189514
-0.773123 -0.510293 -0.137394
-0.792588 -0.078762 -0.047187
-0.773123 -0.480346 0.137356
-0.773123 0.133402 -0.114532
-0.792588 0.267904 0.168924
-0.792588 -0.240968 0.181967
-0.792588 -0.26813 0.118003
-0.773123 -0.441835 -0.063696
-0.792588 -0.391982 -0.118539
-0.792588 -0.435181 0.073327
