0.348936 -0.683793 -0.18936
-0.286569 -0.705401 -0.190542
0.501886 -0.705401 -0.187158
-0.279213 -0.705401 0.060701
0.30495 -0.705401 -0.293264
-0.268747 -0.705401 -0.056389
0.58731 -0.683793 -0.045533
-0.537852 -0.683793 -0.028813
0.140368 -0.705401 0.269008
0.58532 -0.705401 -0.337126
0.491065 -0.705401 0.238948
0.430684 -0.683793 -0.078937
-0.524725 -0.683793 -0.104085
-0.101101 -0.705401 -0.31058
0.463874 -0.683793 0.146158
0.415478 -0.705401 -0.013857
0.221388 -0.683793 0.24667
-0.334003 -0.683793 -0.066689
0.182487 -0.683793 0.198573
-0.500654 -0.683793 -0.22922
0.408397 -0.705401 -0.055374
0.006904 -0.683793 -0.019078
-0.23398 -0.705401 -0.335281
-0.481897 -0.683793 -0.019984
-0.606268 -0.683793 -0.284403
-0.272413 -0.705401 -0.274133
0.175414 -0.683793 0.247219
0.465129 -0.683793 -0.233102
0.516478 -0.683793 0.057144
-0.203798 -0.705401 -0.041806
0.211169 -0.705401 -0.060046
0.078 -0.683793 -0.128287
0.578707 -0.683793 0.283761
0.522836 -0.683793 -0.310822
-0.249254 -0.683793 0.133128
-0.087559 -0.683793 0.187411
-0.070907 -0.683793 0.07472
-0.571939 -0.683793 -0.007619
0.384383 -0.705401 -0.126758
-0.467613 -0.705401 -0.249864
0.624142 -0.705401 -0.189193
-0.158205 -0.683793 -0.342612
-0.089103 -0.683793 -0.089984
0.107701 -0.683793 -0.072933
0.246127 -0.705401 -0.032074
0.545292 -0.683793 0.010462
0.519475 -0.683793 0.2299
0.208431 -0.683793 -0.099776
0.546834 -0.683793 -0.058325
0.570288 -0.683793 0.106737
0.599452 -0.683793 0.246375
0.382783 -0.683793 -0.265748
0.477402 -0.705401 0.019808
-0.146127 -0.705401 0.115338
0.289645 -0.683793 -0.002942
-0.183189 -0.705401 0.247
0.092227 -0.705401 0.272782
0.097413 -0.705401 0.000898
0.581075 -0.705401 -0.206023
-0.406275 -0.705401 0.226497
-0.464824 -0.705401 0.060052
0.257467 -0.683793 -0.285411
0.379582 -0.705401 -0.305646
-0.035037 -0.705401 0.278789
-0.156523 -0.705401 -0.193439
-0.452264 -0.705401 -0.090508
-0.291342 -0.705401 0.160308
-0.245826 -0.705401 0.006872
-0.434436 -0.705401 -0.185823
0.07511 -0.683793 0.025135
0.244743 -0.705401 0.0458
0.151543 -0.705401 -0.231539
0.200862 -0.683793 -0.147008
0.467705 -0.683793 -0.010358
0.231437 -0.705401 0.195815
-0.419656 -0.705401 0.275193
0.301914 -0.705401 -0.133537
0.387302 -0.705401 0.243138
0.016428 -0.683793 0.096877
-0.556286 -0.705401 0.250232
0.148431 -0.683793 -0.340482
-0.5646 -0.705401 -0.274072
-0.269766 -0.683793 -0.117015
0.570566 -0.683793 -0.27528
0.082432 -0.683793 0.2988
-0.445707 -0.683793 0.177353
0.360742 -0.705401 0.080161
0.113336 -0.683793 -0.290585
0.602653 -0.683793 -0.315925
-0.214922 -0.683793 -0.185198
0.411753 -0.705401 0.047021
-0.392629 -0.683793 -0.07436
0.325197 -0.683793 0.23735
-0.190642 -0.705401 0.010577
-0.531747 -0.705401 0.041764
0.467106 -0.705401 0.271397
-0.204074 -0.683793 0.073951
0.662444 -0.686353 0.281134
-0.563163 -0.705401 -0.23536
-0.139474 -0.683793 0.240069
-0.194074 -0.705401 -0.111321
0.082 -0.683793 0.154199
-0.16647 -0.705401 0.195709
0.62364 -0.683793 0.03096
-0.301114 -0.705401 0.192876
-0.402296 -0.705401 -0.016859
0.218848 -0.705401 0.144418
0.463396 -0.683793 -0.126556
0.233649 -0.683793 -0.159557
0.497306 -0.705401 -0.306368
0.070507 -0.683793 -0.199301
-0.287057 -0.705401 -0.318442
0.493096 -0.683793 -0.211262
0.349352 -0.683793 0.147258
0.060683 -0.705401 0.045986
-0.47438 -0.683793 0.097063
-0.235306 -0.705401 -0.024761
-0.126015 -0.705401 0.182061
0.146928 -0.705401 0.131308
-0.588728 -0.705401 0.135535
0.091579 -0.683793 -0.259012
0.028823 -0.705401 -0.055204
-0.326526 -0.705401 0.266735
0.153024 -0.683793 -0.05143
0.289944 -0.705401 0.27896
-0.238108 -0.705401 -0.155244
-0.601505 -0.683793 0.0781
-0.523876 -0.705401 0.221335
-0.442837 -0.683793 -0.25155
0.063355 -0.683793 -0.009389
-0.211969 -0.705401 -0.296369
-0.012799 -0.683793 -0.088007
-0.391029 -0.683793 -0.157448
0.42983 -0.705401 -0.312654
0.62238 -0.705401 0.261395
-0.599193 -0.705401 0.242932
-0.424325 -0.705401 0.192117
-0.448702 -0.705401 -0.31053
0.472083 -0.683793 0.295144
0.491236 -0.705401 0.180306
-0.638251 -0.683793 0.103292
0.244405 -0.683793 -0.117918
-0.004108 -0.683793 -0.205583
0.444802 -0.683793 -0.171046
-0.496382 -0.683793 -0.270745
0.056343 -0.683793 -0.076794
0.433636 -0.705401 0.238657
-0.394061 -0.705401 0.091321
-0.253164 -0.705401 0.253111
-0.247473 -0.683793 0.04956
-0.383632 -0.683793 0.064992
0.077822 -0.686542 -0.342647
-0.324133 -0.683793 -0.314195
-0.030125 -0.705401 0.0888
-0.555241 -0.705401 0.187899
-0.339907 -0.683793 0.085234
-0.080289 -0.705401 0.13089
0.082339 -0.705401 -0.068411
-0.491466 -0.705401 0.175274
-0.230618 -0.683793 0.30896
-0.346415 -0.683793 0.131083
-0.180468 -0.705401 -0.292055
-0.471603 -0.705401 -0.12867
-0.403904 -0.683793 -0.111787
0.173508 -0.705401 0.090025
0.157651 -0.683793 -0.17791
0.390852 -0.705401 0.150264
-0.517416 -0.683793 -0.19957
0.553876 -0.683793 0.172018
0.036923 -0.683793 -0.147504
-0.47498 -0.705401 0.001961
0.64346 -0.705401 -0.018136
0.274302 -0.683793 -0.194711
-0.035319 -0.683793 0.305847
0.489697 -0.705401 -0.23388
-0.149249 -0.705401 0.036343
-0.371135 -0.683793 -0.042751
0.319546 -0.705401 -0.160368
-0.177584 -0.683793 -0.218128
-0.250296 -0.683793 -0.17926
-0.358746 -0.683793 -0.187081
-0.382144 -0.705401 0.248236
0.162091 -0.683793 -0.291718
0.139194 -0.683793 0.243616
-0.620507 -0.683793 0.251033
-0.111739 -0.705401 -0.267015
-0.56845 -0.683793 -0.21378
0.212911 -0.683793 -0.220479
-0.27356 -0.683793 -0.251966
0.655628 -0.683793 -0.135755
-0.514369 -0.683793 -0.133264
-0.461168 -0.705401 0.209274
0.436899 -0.705401 -0.192454
-0.380446 -0.683793 0.018772
0.631956 -0.683793 -0.037076
-0.241623 -0.683793 0.209778
0.093235 -0.683793 -0.176826
0.0228 -0.705401 -0.289618
0.293446 -0.683793 0.138547
-0.473144 -0.683793 0.241504
-0.160138 -0.683793 0.137431
-0.556507 -0.683793 -0.099195
-0.578118 -0.705401 0.105421
0.158106 -0.683793 0.171007
-0.639915 -0.705401 0.041189
-0.037653 -0.683793 -0.010753
-0.204423 -0.683793 0.251613
0.022205 -0.705401 0.269638
0.547498 -0.705401 0.230738
-0.273295 -0.683793 -0.020507
0.106049 -0.683793 0.082842
-0.57323 -0.683793 0.175822
-0.049151 -0.683793 -0.181848
-0.031263 -0.683793 -0.267296
0.573786 -0.683793 -0.305948
0.04372 -0.683793 -0.18141
-0.350231 -0.683793 0.295015
-0.539173 -0.683793 -0.336466
-0.315982 -0.705401 -0.080251
-0.01261 -0.705401 -0.319385
-0.417572 -0.683793 -0.276444
0.214881 -0.705401 0.267035
-0.279581 -0.705401 0.097365
-0.359521 -0.683793 0.208138
-0.010547 -0.705401 -0.175866
0.390493 -0.683793 0.284525
-0.295128 -0.705401 -0.243921
0.212032 -0.683793 0.187203
0.325299 -0.683793 -0.240218
-0.083341 -0.705401 -0.008937
0.223464 -0.683793 0.072144
0.619404 -0.705401 0.058002
-0.572035 -0.683793 0.236338
-0.072382 -0.683793 0.251472
-0.353868 -0.705401 -0.270513
-0.077937 -0.683793 -0.274066
-0.256207 -0.705401 -0.234774
0.053309 -0.683793 -0.278573
0.362884 -0.705401 -0.105756
0.273585 -0.705401 0.054222
0.369529 -0.705401 -0.24976
0.48564 -0.705401 -0.114719
0.512381 -0.705401 0.126601
0.302705 -0.705401 -0.250257
0.188754 -0.705401 0.131504
0.579042 -0.683793 0.224546
-0.623494 -0.705401 -0.023443
0.047861 -0.683793 0.304494
0.265195 -0.683793 0.186109
0.461629 -0.683793 -0.063266
0.366816 -0.705401 0.034873
0.35369 -0.705401 -0.157192
-0.278982 -0.683793 -0.209531
0.276511 -0.705401 -0.066465
0.367403 -0.705401 -0.005259
0.409927 -0.683793 -0.14888
-0.320578 -0.705401 -0.168483
0.13521 -0.683793 -0.140903
0.051315 -0.705401 -0.16186
-0.607355 -0.683793 0.310985
-0.39473 -0.683793 -0.217944
0.418006 -0.693079 -0.342647
0.290239 -0.705401 -0.026754
-0.502847 -0.683793 0.105075
-0.017728 -0.705401 -0.135172
0.000666 -0.683793 -0.301337
-0.621872 -0.705401 -0.30463
-0.538413 -0.683793 0.299431
0.478909 -0.683793 0.120817
0.425437 -0.683793 -0.277579
0.134464 -0.683793 0.054726
-0.100576 -0.683793 0.071741
0.520779 -0.705401 0.07666
0.092672 -0.705401 -0.323733
0.028049 -0.705401 -0.234985
0.172508 -0.683793 -0.089487
0.43643 -0.683793 0.056498
0.612723 -0.705401 -0.098256
0.32043 -0.705401 0.181868
-0.435714 -0.705401 0.055125
-0.073884 -0.705401 -0.077381
0.206022 -0.705401 -0.023877
-0.499879 -0.683793 -0.04733
-0.568197 -0.683793 0.082923
-0.168913 -0.705401 -0.133015
0.37418 -0.683793 -0.07547
0.578301 -0.705401 -0.107659
-0.139836 -0.705401 -0.090483
0.313723 -0.705401 0.038879
0.194879 -0.705401 -0.126696
-0.50194 -0.705401 0.254371
-0.22955 -0.705401 -0.078257
-0.513917 -0.705401 0.155736
-0.081288 -0.683793 0.318043
0.235758 -0.705401 0.001583
0.594273 -0.705401 -0.231886
-0.228358 -0.683793 -0.307575
0.618754 -0.705401 0.148482
-0.47367 -0.705401 -0.295847
0.501963 -0.705401 0.044492
-0.144022 -0.683793 -0.259548
-0.234088 -0.705401 0.144891
0.309358 -0.683793 -0.025091
-0.524703 -0.705401 -0.042787
0.261781 -0.705401 0.237219
0.186806 -0.705401 -0.262964
0.052609 -0.705401 0.257109
-0.155313 -0.683793 -0.017324
0.64065 -0.683793 0.216575
-0.134173 -0.70263 -0.342647
0.440604 -0.705401 -0.262343
0.276279 -0.705401 0.099867
0.41625 -0.683793 -0.192113
-0.431391 -0.683793 -0.08979
0.236865 -0.683793 0.028753
-0.189737 -0.705401 -0.168149
0.425453 -0.683793 0.121999
-0.507747 -0.705401 -0.096169
-0.041673 -0.683793 0.074079
0.650689 -0.683793 -0.088751
-0.15341 -0.683793 0.091852
-0.012521 -0.705401 0.258561
-0.28241 -0.705401 0.002433
0.24985 -0.705401 -0.246647
-0.311408 -0.705401 -0.04612
0.309963 -0.683793 -0.270262
0.6081 -0.683793 0.172975
0.410672 -0.705401 -0.085381
-0.185991 -0.683793 -0.028552
0.511698 -0.705401 -0.093253
-0.129231 -0.705401 0.255046
-0.085543 -0.705401 0.085399
-0.358861 -0.683793 -0.139889
-0.040931 -0.705401 -0.307427
-0.485835 -0.705401 -0.34011
-0.099578 -0.705401 -0.189379
0.262448 -0.683793 -0.140707
-0.492647 -0.683793 0.137072
0.592941 -0.705401 0.045089
0.067831 -0.705401 0.286483
0.144672 -0.705401 0.183568
-0.544128 -0.705401 -0.000512
0.119017 -0.705401 0.018603
0.567571 -0.683793 -0.023822
0.412425 -0.683793 -0.243254
-0.21525 -0.683793 -0.224049
0.625548 -0.683793 -0.113036
0.166458 -0.705401 -0.132461
-0.619824 -0.683793 0.223195
-0.127003 -0.705401 -0.036963
-0.456253 -0.705401 0.236693
0.356775 -0.705401 -0.278716
0.013916 -0.683793 0.175682
-0.019244 -0.683793 0.210352
-0.177471 -0.683793 -0.106117
0.211945 -0.683793 -0.268696
-0.563064 -0.683793 -0.252736
0.660352 -0.705401 0.104278
0.378378 -0.683793 -0.228115
-0.194887 -0.683793 0.047885
-0.305003 -0.705401 0.314106
-0.644255 -0.686986 0.063521
0.040596 -0.705401 -0.083529
-0.56354 -0.705401 -0.074394
0.653173 -0.683793 -0.320233
0.140065 -0.705401 -0.111596
0.035165 -0.683793 -0.035282
0.130299 -0.683793 0.206097
-0.061015 -0.705401 0.239055
-0.192906 -0.705401 0.272549
-0.511762 -0.683793 0.04329
-0.584673 -0.683793 -0.125297
-0.355653 -0.705401 0.275523
0.115573 -0.705401 0.181498
0.160851 -0.683793 -0.250711
0.545863 -0.683793 0.138501
-0.307056 -0.705401 0.107004
-0.369083 -0.705401 -0.216345
-0.161883 -0.683793 0.178797
-0.297862 -0.705401 -0.141146
0.345241 -0.683793 0.174606
0.06601 -0.705401 -0.215107
-0.636002 -0.705401 0.275475
-0.255756 -0.705401 -0.307329
-0.337399 -0.705401 -0.23867
0.148831 -0.683793 -0.002602
0.476333 -0.683793 -0.269217
0.406589 -0.705401 0.286869
0.247626 -0.683793 0.255075
-0.210048 -0.705401 0.089076
-0.206551 -0.705401 0.199397
-0.430585 -0.705401 -0.030362
0.498166 -0.705401 -0.006349
-0.348251 -0.705401 -0.058999
-0.062006 -0.697811 -0.342647
0.191603 -0.683793 0.028449
0.030962 -0.705401 0.2062
-0.241586 -0.705401 0.087027
-0.63778 -0.705401 -0.130211
0.093462 -0.705401 0.232326
-0.444788 -0.683793 0.204241
-0.063328 -0.683793 -0.206957
0.240269 -0.705401 -0.327555
0.027547 -0.705401 0.315845
-0.182081 -0.705401 -0.233352
0.050991 -0.683793 0.136037
-0.111006 -0.705401 -0.228902
0.551472 -0.705401 0.110332
0.406616 -0.683793 -0.039805
-0.174486 -0.705401 0.143535
0.11196 -0.705401 -0.134669
-0.28362 -0.683793 0.273755
0.01506 -0.705401 0.066273
-0.052222 -0.683793 -0.108621
-0.231902 -0.683793 0.028148
0.097151 -0.705401 -0.107769
-0.308899 -0.683793 -0.094767
0.279142 -0.705401 0.200258
-0.574119 -0.683793 0.055462
-0.499576 -0.705401 0.079656
0.644553 -0.705401 0.284892
0.324249 -0.683793 0.110823
0.117825 -0.705401 0.304178
-0.328911 -0.705401 0.061309
-0.411408 -0.705401 0.12075
0.470719 -0.705401 -0.079385
0.561773 -0.705401 -0.185349
0.595133 -0.705401 0.209843
0.122242 -0.683793 -0.206316
0.310237 -0.683793 0.264959
-0.327405 -0.683793 0.108233
0.555081 -0.701873 0.320004
0.612803 -0.705401 -0.052692
-0.243729 -0.683793 -0.227063
0.383015 -0.705401 -0.089148
0.099035 -0.683793 0.13019
-0.273896 -0.683793 0.14162
0.050785 -0.705401 -0.002019
0.200185 -0.705401 -0.317012
0.049775 -0.683793 -0.304374
-0.137081 -0.705401 -0.231958
-0.282686 -0.683793 -0.304007
-0.391165 -0.705401 -0.202579
0.247781 -0.683793 -0.200505
-0.173913 -0.683793 -0.318313
0.407894 -0.705401 0.187353
-0.520268 -0.683793 0.138471
-0.286558 -0.694805 -0.342647
-0.641913 0.674601 -0.342647
0.447035 0.677523 -0.341325
-0.099324 0.677523 -0.155687
-0.460562 0.677523 -0.001993
0.345848 0.677523 0.012973
0.144717 0.677523 -0.319827
-0.394063 0.677523 0.238188
-0.231498 0.655915 0.070644
0.122147 0.677523 -0.061366
0.378637 0.655915 0.224444
0.307949 0.655915 -0.194709
-0.506535 0.655915 -0.199694
-0.644255 0.66878 -0.015526
0.179831 0.655915 0.109761
0.532906 0.677523 0.020833
0.507011 0.677523 -0.170435
-0.179053 0.677523 0.241376
-0.0285 0.677523 -0.311141
-0.552522 0.677523 0.177835
-0.197712 0.677523 -0.331145
-0.087553 0.655915 -0.007555
0.284976 0.655915 -0.342442
0.079602 0.677523 0.239835
-0.465681 0.676861 -0.342647
0.506893 0.655915 0.163104
-0.644255 0.659571 -0.198255
0.625076 0.677523 -0.241418
0.100111 0.677523 -0.188241
-0.203323 0.655915 -0.063694
0.655387 0.655915 0.261141
-0.43599 0.655915 0.120215
0.256894 0.677523 -0.07664
0.230114 0.677523 0.222052
0.419945 0.655915 -0.086655
-0.320794 0.677523 -0.014349
0.662444 0.670214 0.027077
-0.125921 0.677523 0.134313
-0.550303 0.655915 -0.091233
-0.39318 0.655915 -0.22391
-0.283568 0.655915 0.198097
-0.234856 0.677523 -0.223068
0.081072 0.677523 0.042032
-0.644138 0.677523 0.116522
0.006441 0.677523 -0.126917
0.207561 0.677523 -0.231627
-0.550578 0.677523 0.057422
0.405052 0.677523 -0.235607
0.408601 0.677523 0.097302
-0.441393 0.677523 -0.120591
-0.124213 0.677523 -0.257318
0.305053 0.677523 0.151884
0.235726 0.677523 0.028013
0.592282 0.677523 -0.337035
-0.55963 0.677523 -0.281931
0.544791 0.655915 -0.083902
0.495729 0.677523 0.258392
0.579858 0.677523 0.1061
0.082098 0.655915 0.14553
0.531644 0.677523 -0.265402
-0.333928 0.677523 0.077839
-0.069722 0.677523 0.257471
0.442741 0.677523 -0.00057
0.000639 0.677523 -0.005434
-0.01081 0.677523 -0.222515
0.587273 0.677523 0.195442
-0.286817 0.677523 -0.295542
0.177606 0.655915 -0.150505
0.31321 0.677523 0.28107
-0.190463 0.677523 -0.148417
0.0597 0.677523 -0.268598
-0.644255 0.659954 -0.102363
0.591242 0.655915 -0.153423
0.334323 0.677523 -0.107058
-0.644255 0.671423 0.207954
0.012608 0.677523 0.190417
-0.20288 0.677523 0.1644
-0.473451 0.677523 0.18942
-0.067016 0.677523 0.080657
0.31379 0.677523 -0.270937
0.159864 0.655915 0.021974
-0.06691 0.677523 -0.080759
-0.550807 0.677523 -0.019236
-0.346847 0.655915 0.157597
0.220619 0.677523 -0.310483
-0.45042 0.677523 -0.266584
0.162552 0.655915 0.245022
0.258194 0.655915 0.095673
-0.154881 0.655915 0.024292
0.388351 0.655915 -0.166869
-0.247604 0.677523 0.002019
0.439945 0.677523 0.184801
-0.394885 0.659301 -0.342647
0.075545 0.655915 -0.118979
-0.577272 0.655915 -0.169988
0.609583 0.677523 -0.022363
0.198377 0.655915 -0.039184
-0.256191 0.677523 -0.108717
0.584982 0.655915 0.278809
0.479804 0.655915 0.0634
0.241502 0.677523 -0.16954
-0.133999 0.677523 -0.060744
0.662444 0.674202 -0.170465
-0.093889 0.655915 0.191893
0.140826 0.677523 -0.250104
0.469765 0.655915 -0.228035
0.649824 0.677523 0.10249
-0.246574 0.677523 0.259228
-0.392601 0.677523 -0.007718
-0.380344 0.677523 -0.15743
-0.260408 0.655915 0.13218
0.514907 0.676677 -0.342647
-0.483769 0.677523 0.069007
0.484308 0.677523 -0.062529
0.595758 0.655915 0.040136
0.662444 0.661938 0.194365
0.067739 0.655915 -0.028439
-0.60977 0.677523 0.264794
-0.08724 0.674367 -0.342647
0.041755 0.677523 -0.331988
-0.466087 0.655915 0.250933
0.311613 0.655915 0.219409
0.179181 0.677523 0.181866
0.224473 0.677523 0.29123
-0.166328 0.655915 -0.20419
-0.578837 0.655915 0.110904
-0.413666 0.655915 0.180507
0.23972 0.655915 0.162505
-0.4126 0.655915 -0.064478
0.435651 0.655915 0.258262
-0.478027 0.677523 -0.068435
-0.438393 0.677523 -0.183777
-0.050784 0.677523 0.151047
-0.263853 0.655915 -0.171637
-0.507205 0.677523 0.134842
0.368314 0.677523 0.144744
0.043865 0.655915 -0.17429
0.274932 0.655915 -0.017057
-0.166026 0.655915 0.084778
-0.060961 0.655915 -0.250612
-0.595258 0.655915 0.021726
-0.526216 0.677523 -0.337686
0.354235 0.677523 -0.047038
-0.354953 0.655915 -0.284773
0.264683 0.655915 -0.242952
0.45258 0.655915 -0.137341
-0.592911 0.655915 -0.237307
-0.306011 0.677523 0.253525
0.424558 0.655915 -0.291314
0.456091 0.655915 0.123916
0.618271 0.655915 0.151132
-0.503924 0.655915 -0.272637
0.514559 0.677523 0.109827
-0.523082 0.655915 0.223904
0.280973 0.655915 -0.124263
0.127843 0.655915 0.069639
-0.140447 0.655915 -0.331751
-0.383246 0.677523 0.117312
0.053109 0.677523 0.101399
-0.312747 0.677523 -0.082577
-0.284314 0.655915 0.049674
-0.589699 0.655915 0.216284
-0.225319 0.677523 -0.281696
0.385968 0.655915 0.045829
0.582732 0.677523 -0.204888
0.216196 0.677523 -0.116497
0.552605 0.655915 -0.026654
-0.128568 0.655915 0.248464
-0.343039 0.677523 -0.336114
0.163865 0.655915 -0.090058
-0.255829 0.677523 -0.052058
-0.516834 0.655915 0.017777
-0.042969 0.655915 0.024048
-0.333949 0.677523 0.206027
0.285358 0.655915 0.036342
-0.589726 0.655915 -0.053146
0.131858 0.677523 0.122064
-0.484097 0.677523 -0.153608
0.086941 0.655915 0.290204
-0.155079 0.655915 0.175821
0.052713 0.677523 -0.075191
-0.33456 0.677523 -0.226012
0.133057 0.677523 -0.130625
-0.12738 0.655915 -0.115948
0.374785 0.655915 0.2846
-0.171965 0.655915 -0.263416
-0.365809 0.677523 -0.056084
-0.220618 0.655915 0.219099
0.028124 0.677523 0.246132
0.269129 0.655915 0.264413
0.538777 0.655915 -0.135136
-0.029127 0.677523 0.28923
-0.595212 0.655915 -0.11738
-0.534982 0.677523 -0.146103
-0.110401 0.677523 0.038063
0.356344 0.655915 -0.214973
0.49638 0.677523 -0.111997
-0.049291 0.677523 -0.14624
0.359379 0.655915 -0.271021
-0.0326 0.677523 0.223396
0.330406 0.677523 -0.340613
0.611836 0.655915 -0.067575
-0.579079 0.677523 -0.339442
-0.412731 0.677523 -0.299385
-0.246116 0.676643 -0.342647
0.531925 0.677523 -0.213503
-0.056158 0.655915 -0.201273
0.399555 0.655915 -0.011619
0.480189 0.655915 0.204651
0.149302 0.677523 -0.185713
0.097293 0.655915 -0.242561
-0.508144 0.655915 -0.036289
0.491483 0.677523 -0.006175
0.195366 0.655915 -0.273814
-0.548485 0.677523 -0.212527
0.131566 0.655915 -0.018592
-0.200414 0.677523 0.11567
0.662444 0.673461 -0.299359
-0.383784 0.677523 0.068896
0.662444 0.656874 0.313107
0.542454 0.677523 0.273226
-0.201528 0.677523 -0.021011
-0.176795 0.655915 -0.108008
-0.354201 0.677523 -0.106381
-0.626824 0.655915 -0.153951
0.529147 0.655915 0.069948
-0.036678 0.655915 -0.035553
-0.116938 0.677523 0.085182
0.036555 0.655915 -0.221172
-0.081547 0.655915 0.120216
-0.520591 0.655915 0.08895
0.264502 0.677523 -0.293618
0.42974 0.677523 -0.045523
-0.294296 0.677523 -0.249654
-0.400887 0.655915 -0.116053
0.485632 0.677523 -0.265757
0.54198 0.677523 0.203266
-0.011814 0.655915 -0.173727
0.435062 0.677523 -0.17354
0.217811 0.677523 0.122722
-0.348663 0.677523 0.274318
-0.603464 0.677523 -0.300876
-0.297227 0.655915 0.292299
-0.3968 0.655915 0.278678
0.125925 0.655915 0.161133
0.317647 0.655915 -0.15027
-0.14352 0.677523 -0.163608
0.340183 0.655915 0.17187
0.543142 0.655915 0.137039
0.012464 0.655915 -0.293508
-0.212529 0.655915 0.280829
-0.022732 0.677523 0.077065
0.208874 0.655915 0.055867
0.590082 0.655915 -0.257597
0.061734 0.677523 0.178074
0.612516 0.655915 0.085941
0.19838 0.655915 -0.188975
-0.157076 0.655915 -0.019338
-0.440146 0.677523 0.070613
-0.213778 0.655915 0.030893
0.626167 0.655915 -0.281545
-0.030814 0.655915 0.182696
0.413781 0.655915 0.134308
0.552284 0.677523 -0.16985
0.311792 0.677523 -0.022267
-0.604052 0.655915 0.176016
-0.354113 0.677523 0.012168
0.283881 0.677523 -0.165558
-0.479747 0.655915 0.110535
-0.602218 0.677523 -0.196696
-0.478835 0.655915 -0.117474
0.271173 0.655915 0.190923
-0.422655 0.677523 0.022131
-0.374256 0.655915 0.195806
0.471934 0.677523 -0.307216
-0.599789 0.677523 -0.014256
0.622705 0.655915 0.23443
-0.435284 0.655915 -0.225772
0.404156 0.655915 -0.339209
-0.244878 0.677523 0.166389
0.019383 0.655915 0.149137
0.231895 0.677523 -0.013693
0.365702 0.655915 -0.080681
0.127749 0.655915 -0.213951
0.162939 0.677523 -0.038004
-0.472995 0.677523 -0.21089
-0.013054 0.677523 0.12629
0.221379 0.655915 0.256304
0.087305 0.655915 -0.070361
0.352439 0.677523 -0.151377
0.1089 0.677523 -0.275767
0.002841 0.670583 -0.342647
0.624531 0.655915 0.011082
0.614603 0.677523 -0.179384
0.579599 0.677523 -0.055043
0.246367 0.655915 -0.203566
-0.129504 0.655915 -0.291241
0.573315 0.677523 -0.102944
-0.472573 0.677523 -0.302726
-0.517308 0.677523 -0.100159
-0.177412 0.677523 0.049982
0.363934 0.655915 0.110955
-0.06979 0.655915 0.291532
-0.145662 0.677523 0.208344
-0.022591 0.655915 -0.109663
-0.38901 0.677523 0.157457
0.402246 0.677523 0.253677
0.130247 0.677523 0.235957
-0.360519 0.655915 0.238169
0.391097 0.677523 -0.292966
0.322303 0.677523 0.053575
0.462404 0.677523 0.034877
-0.342333 0.677523 -0.169451
0.516726 0.655915 0.232528
0.361068 0.677523 0.067849
0.662444 0.668571 -0.058045
0.078346 0.655915 0.074852
-0.561544 0.677523 0.138914
-0.601721 0.677523 0.053876
-0.033911 0.677523 -0.26915
0.561807 0.655915 -0.230369
0.276816 0.677523 0.223121
-0.459957 0.677523 0.142406
-0.51278 0.677523 0.192979
0.393553 0.677523 -0.060305
-0.434292 0.655915 0.213618
-0.179611 0.655915 0.140594
-0.620999 0.677523 -0.068433
0.475723 0.677523 0.154169
0.222896 0.655915 -0.084857
-0.099656 0.655915 -0.236437
-0.232239 0.677523 -0.184352
0.203272 0.655915 0.001069
0.640218 0.677523 -0.11536
0.625092 0.677523 0.052995
0.565922 0.655915 0.224526
-0.173905 0.677523 -0.04792
-0.445206 0.677523 -0.0483
-0.098607 0.655915 -0.077542
0.165562 0.677523 0.276735
0.157944 0.677523 0.079675
-0.32342 0.677523 0.136218
0.192152 0.655915 0.210797
0.647866 0.655915 -0.200842
-0.29152 0.677523 -0.148823
0.378198 0.655915 0.176577
0.072174 0.677523 0.004805
0.125815 0.655915 0.267211
-0.104379 0.677523 -0.193518
-0.261449 0.677523 0.080232
0.106913 0.655915 0.02426
0.228098 0.677523 0.080545
-0.644255 0.661167 -0.245834
-0.411404 0.655915 -0.168137
-0.570765 0.655915 0.249137
-0.250359 0.655915 0.290151
-0.505553 0.677523 -0.230821
0.171347 0.655915 -0.303136
-0.264075 0.655915 -0.212406
-0.106439 0.655915 -0.040532
0.343331 0.655915 0.239771
-0.242612 0.655915 -0.081124
-0.066455 0.677523 -0.043008
0.494471 0.655915 0.024343
-0.197428 0.677523 -0.225523
0.260976 0.677523 0.308682
0.095397 0.677523 0.114211
-0.305806 0.677523 -0.334626
0.571793 0.655915 0.160717
-0.631779 0.677523 -0.276747
-0.293517 0.677523 -0.205834
0.384064 0.655915 -0.112844
0.611967 0.655915 -0.214383
0.000932 0.655915 0.024723
-0.061348 0.655915 -0.118807
0.004016 0.655915 0.093156
0.051191 0.655915 0.041799
-0.226496 0.655915 -0.251752
-0.553866 0.677523 0.094526
0.013858 0.677523 -0.188975
-0.077625 0.677523 0.021255
-0.088747 0.655915 0.060398
0.452465 0.677523 -0.107646
-0.371397 0.677523 -0.203741
0.629262 0.677523 0.178663
0.610544 0.677523 0.261437
0.651052 0.677523 0.226033
0.340683 0.677523 -0.295781
0.05554 0.677523 -0.147152
0.418761 0.655915 0.062056
-0.181315 0.655915 0.201315
0.228905 0.662326 -0.342647
0.34326 0.655915 -0.180931
0.424595 0.655915 -0.21368
-0.257577 0.677523 0.037543
-0.17822 0.677523 -0.300382
-0.537415 0.677523 -0.248341
0.495795 0.655915 -0.202817
0.275433 0.677523 0.131133
-0.613454 0.677523 0.300731
0.314759 0.655915 0.006116
0.107549 0.655915 -0.099803
-0.582441 0.677523 -0.092176
0.179467 0.677523 -0.122317
-0.550858 0.677523 -0.06313
0.470464 0.677523 -0.159022
0.228981 0.655915 -0.144552
-0.097313 0.677523 0.235572
-0.532843 0.655915 0.1451
0.570517 0.677523 0.25164
0.417682 0.655915 -0.147849
-0.274806 0.677523 0.237833
-0.492207 0.655915 0.042917
-0.227428 0.655915 0.112136
-0.376964 0.655915 -0.029969
0.328193 0.677523 -0.212758
-0.634835 0.655915 0.015214
0.143502 0.655915 -0.156509
-0.512014 0.677523 -0.298444
-0.292835 0.655915 -0.010874
-0.210757 0.655915 -0.101564
-0.102497 0.677523 0.159676
-0.299432 0.677523 0.077676
-0.618809 0.677523 0.08379
0.287595 0.677523 -0.229059
0.014045 0.655915 -0.028628
-0.576592 0.655915 0.076601
0.17006 0.67321 -0.342647
-0.33573 0.655915 -0.045249
0.354928 0.677523 0.194065
-0.35415 0.655915 -0.135769
-0.492595 0.677523 0.253116
0.541017 0.677523 -0.05763
0.560286 0.655915 0.084086
-0.644255 0.671421 0.314215
-0.015609 0.672278 0.320004
-0.436736 0.677523 0.167257
0.636579 0.677523 -0.332979
-0.106315 0.655915 0.274151
0.330007 0.655915 -0.057062
-0.143268 0.677523 -0.216619
0.662444 0.660317 0.128833
0.472522 0.655915 -0.024112
-0.185375 0.655915 -0.173922
0.169184 0.677523 -0.268453
-0.564141 0.677523 0.212249
0.061511 0.677523 -0.227633
-0.166999 0.677523 -0.080818
-0.462438 0.677523 0.225501
-0.552588 0.677523 0.023912
0.306 0.677523 0.091503
0.521248 0.655915 -0.241943
-0.229104 0.655915 0.145633
0.052376 0.655915 0.284214
0.214869 0.677523 0.156393
0.187113 0.677523 0.235792
-0.572995 0.677523 -0.129783
0.248019 0.677523 -0.125935
-0.408435 0.655915 0.13869
-0.605413 0.655915 -0.275863
-0.199809 0.655915 -0.287744
0.296143 0.655915 -0.253073
-0.295864 0.655915 0.145139
0.46837 0.655915 0.254525
-0.403247 0.677523 -0.195435
0.483967 0.66559 -0.342647
-0.084736 0.655915 -0.17847
0.455688 0.677523 0.068837
0.507207 0.655915 -0.071827
-0.02465 0.677523 -0.057129
0.422662 0.655915 0.013763
0.559444 0.677523 -0.282795
-0.305487 0.677523 0.014611
-0.512109 0.655915 -0.155162
0.387724 0.677523 0.201607
0.279169 0.655915 0.070647
0.063189 0.677523 0.210671
-0.04075 0.677523 0.049941
0.338151 0.677523 0.109182
-0.283213 0.677523 0.113846
-0.279447 0.655915 -0.127746
0.44939 0.655915 0.16243
0.630413 0.677523 -0.084377
0.305172 0.677523 -0.092726
0.024051 0.677523 -0.260278
0.507811 0.677523 -0.311027
0.647364 0.677523 -0.270034
0.546901 0.677523 0.111203
0.479064 0.655915 0.101117
0.514816 0.655915 0.200241
-0.518597 0.677523 -0.060895
-0.406122 0.677523 0.20332
-0.081102 0.677523 -0.215925
-0.343905 0.655915 0.123716
0.135957 0.677523 0.020011
-0.027297 0.655915 -0.004116
-0.059273 0.655915 -0.282762
-0.324831 0.655915 0.273794
-0.443029 0.655915 -0.074824
0.257779 0.655915 -0.318295
0.604465 0.677523 0.131841
0.611091 0.677523 -0.140438
0.359493 0.677523 -0.247331
0.101571 0.677523 -0.136645
-0.644255 0.67518 0.176139
-0.058176 0.655915 -0.341148
0.493764 0.677523 0.182703
0.075297 0.655915 -0.16848
-0.161101 0.677523 -0.125523
-0.372401 0.655915 0.138455
-0.274935 0.677523 -0.32672
-0.20156 0.655915 0.081505
-0.421493 0.677523 -0.335378
0.446324 0.677523 -0.282979
-0.418272 0.655915 -0.276783
-0.384113 0.677523 -0.245239
0.043498 0.655915 0.228798
-0.125263 0.677523 0.184109
-0.617595 0.677523 -0.123255
0.091517 0.677523 -0.302204
-0.145972 0.677523 0.270997
-0.335348 0.677523 -0.296894
0.282044 0.677523 -0.057633
0.258014 0.677523 0.003843
-0.088175 0.655915 -0.266347
-0.167164 0.677523 -0.241095
-0.554463 0.677523 -0.170774
0.391978 0.677523 -0.144375
-0.180125 0.655915 0.005674
0.310518 0.677523 0.196794
-0.615041 0.655915 0.242809
-0.485305 0.677523 -0.03804
0.201622 0.655915 0.087462
-0.059106 0.677523 0.11909
0.330583 0.655915 -0.248853
-0.383179 0.655915 -0.184664
0.286293 0.655915 -0.288527
0.09086 0.655915 -0.007721
-0.164829 0.677523 0.107032
0.199731 0.655915 0.17259
0.11004 0.677523 0.145796
-0.469583 0.655915 0.167683
0.499438 0.655915 -0.133855
-0.356148 0.677523 0.099232
0.521418 0.677523 0.14039
0.618384 0.655915 -0.117625
-0.248473 0.655915 -0.129236
0.387121 0.655915 -0.21509
-0.432734 0.677523 0.235475
0.233183 0.655915 -0.292598
0.157766 0.655915 -0.059209
-0.250975 0.655915 0.223706
-0.352392 0.655915 -0.238526
-0.572648 0.655915 0.042339
-0.040741 0.677523 -0.096591
0.625988 0.677523 -0.051233
0.191309 0.655915 -0.076682
0.410085 0.677523 -0.316869
-0.034647 0.677523 0.253828
-0.499192 0.677523 0.005564
-0.413494 0.655915 -0.002882
-0.464602 0.677523 -0.095716
0.138077 0.677523 -0.100638
0.310911 0.655915 0.259824
0.176779 0.655915 -0.013796
-0.262229 0.677523 0.19875
0.054159 0.655915 0.122635
0.38667 0.677523 -0.089821
-0.382968 0.655915 -0.273323
0.041837 0.655915 -0.279963
-0.109301 0.655915 0.218209
-0.32426 0.677523 0.294885
-0.57765 0.655915 0.161412
0.449432 0.677523 -0.233448
-0.129734 0.655915 -0.232686
0.357317 0.677523 -0.327279
-0.460369 0.677523 -0.238138
0.11687 0.677523 -0.231717
0.405463 0.655915 -0.256418
0.21617 0.677523 -0.273508
-0.035978 0.655915 -0.23402
0.662444 0.675035 -0.218731
-0.156054 0.655915 -0.147062
0.536868 0.677523 -0.302463
-0.221628 0.655915 -0.02565
0.007625 0.677523 -0.313498
-0.433546 0.677523 0.09965
0.655348 0.677523 0.164405
-0.147511 0.655915 -0.094097
-0.029037 0.655915 0.113637
0.064204 0.655915 -0.323481
-0.413073 0.655915 0.245413
-0.097744 0.655915 -0.11462
-0.531866 0.655915 0.049596
-0.1982 0.677523 -0.117408
-0.125584 0.655915 0.15452
0.46447 0.655915 -0.058987
-0.127771 0.655915 -0.015606
-0.067245 0.677523 -0.321132
-0.293346 0.677523 -0.104831
0.275748 0.655915 -0.206148
-0.231515 0.677523 0.092495
0.634855 0.655915 0.288923
-0.624047 0.677523 -0.216383
0.519727 0.677523 -0.143934
-0.270898 0.655915 -0.088628
0.546705 0.655915 -0.188726
-0.153328 0.655915 0.226468
0.53488 0.677523 -0.100887
0.03259 0.677523 0.212445
-0.265572 0.655915 0.175098
0.421851 0.655915 -0.115794
-0.354143 0.677523 -0.017031
0.31903 0.655915 0.113613
-0.376339 0.677523 -0.125382
0.2554 0.677523 0.242909
-0.459589 0.655915 0.068397
0.147197 0.655915 0.141199
-0.617435 0.677523 -0.171842
-0.110124 0.677523 -0.282805
0.430409 0.677523 0.144509
0.379899 0.655915 0.009852
-0.394452 0.677523 -0.071588
0.04346 0.677523 -0.102716
0.316899 0.677523 0.238053
0.613911 0.677523 0.217399
-0.158072 0.655915 -0.29504
-0.062015 0.655915 -0.061547
-0.590505 0.677523 0.243369
-0.002492 0.677523 -0.083288
0.45157 0.655915 0.202158
-0.280326 0.677523 -0.037056
-0.006873 0.655915 -0.204035
0.214128 0.655915 0.027627
0.573213 0.677523 -0.147894
0.589019 0.677523 0.078931
0.445849 0.677523 -0.200096
-0.423666 0.677523 -0.079645
-0.352345 0.677523 0.040711
0.454412 0.677523 -0.028833
0.112524 0.658931 -0.342647
0.048412 0.677523 -0.192418
-0.049425 0.677523 0.181446
0.216526 0.677523 -0.043388
0.42501 0.655915 0.284712
0.04004 0.677523 -0.303545
-0.475822 0.655915 -0.28446
-0.495344 0.655915 0.217541
-0.044318 0.655915 0.278717
0.314191 0.655915 -0.331891
0.561287 0.677523 0.021254
-0.101505 0.677523 -0.05937
-0.242743 0.655915 0.026675
0.544912 0.677523 -0.338716
0.138905 0.677523 -0.278385
0.268959 0.655915 -0.044776
0.26146 0.677523 0.075322
-0.052926 0.668626 0.320004
0.592013 0.655915 0.21371
-0.540054 0.655915 -0.22861
-0.572918 0.677523 -0.311898
0.193159 0.677523 -0.021593
-0.269502 0.655915 0.004949
-0.396612 0.655915 0.105105
-0.277314 0.655915 -0.243391
-0.219053 0.677523 0.237124
0.589892 0.677523 0.15586
-0.078784 0.677523 -0.248993
0.02786 0.655915 -0.15127
0.171929 0.677523 -0.070098
0.377231 0.655915 -0.245625
-0.067257 0.677523 -0.181881
0.371771 0.677523 -0.173355
0.097289 0.677523 -0.048583
-0.558249 0.655915 -0.197725
-0.451049 0.655915 -0.03156
0.54608 0.655915 0.032587
0.639281 0.677523 0.253929
0.434002 0.677523 0.108787
0.002383 0.677523 -0.279123
-0.125947 0.677523 0.227979
-0.375177 0.677523 0.266073
-0.181419 0.677523 0.18198
0.315167 0.677523 -0.240821
0.577393 0.655915 -0.287168
0.283512 0.655915 0.239155
0.196724 0.655915 -0.246168
-0.618936 0.655915 -0.309842
0.267799 0.655915 -0.159287
-0.176562 0.663917 -0.342647
0.048736 0.655915 -0.008359
0.597571 0.655915 0.171202
0.004172 0.677523 0.232594
-0.279332 0.677523 -0.178691
0.131561 0.655915 0.036409
0.405548 0.655915 0.22998
0.477525 0.677523 0.118003
-0.023681 0.677523 -0.341015
0.259744 0.677523 0.27852
-0.525158 0.677523 0.034063
0.642969 0.677523 0.073806
0.062302 0.655915 -0.059078
0.242729 0.655915 0.210867
-0.278302 0.677523 0.140796
-0.546536 0.655915 -0.271406
-0.193951 0.677523 0.26433
-0.196889 0.655915 -0.19874
-0.558551 0.655915 -0.121312
0.375525 0.66414 -0.342647
-0.554406 0.655915 -0.154124
0.177147 0.677523 -0.167108
-0.609347 0.677523 0.191747
-0.315081 0.677523 -0.053479
0.008386 0.677523 -0.154036
-0.326278 0.655915 -0.275748
-0.404148 0.655915 -0.030303
-0.463282 0.677523 0.109589
-0.488284 0.655915 -0.091988
0.645966 0.655915 0.149994
0.480493 0.677523 -0.089439
0.108793 0.655915 0.123812
0.267029 0.655915 0.293373
0.243466 0.655915 0.118469
0.319366 0.677523 -0.166511
0.469407 0.655915 -0.264089
0.391554 0.655915 -0.044127
0.460857 0.655915 -0.29441
-0.560751 0.655915 -0.006415
0.411991 0.677523 0.001546
0.025903 0.677523 -0.078402
0.005885 0.677523 0.158033
-0.416493 0.677523 -0.048859
0.202393 0.655915 0.275407
-0.13802 0.655915 0.045266
-0.641708 0.677523 -0.051301
-0.247438 0.677523 0.122886
-0.498983 0.677523 -0.257489
-0.545474 0.655915 0.072735
0.560515 0.677523 -0.316878
0.507787 0.677523 0.214471
0.099764 0.655915 0.26096
-0.61439 0.677523 -0.094353
-0.527579 0.655915 -0.017933
-0.217995 0.677523 0.062694
0.292994 0.677523 0.063453
0.570747 0.655915 0.187331
-0.60298 0.677523 -0.045066
-0.088528 0.677523 0.206426
0.028557 0.677523 0.06898
0.439321 0.655915 -0.033479
0.249568 0.677523 -0.240087
-0.231248 0.677523 -0.099749
-0.08511 0.677523 0.292366
-0.495395 0.655915 0.079015
0.051305 0.655915 -0.255238
-0.439907 0.655915 0.152345
-0.105587 0.655915 -0.141806
0.662444 0.667733 0.283667
-0.447607 0.655915 -0.251736
0.531694 0.677523 0.230554
-0.186624 0.677523 0.083466
-0.218151 0.677523 -0.061203
0.175972 0.677523 0.211949
0.656856 0.677523 -0.144974
-0.368946 0.655915 0.014326
0.566881 0.655915 0.125738
0.344164 0.677523 -0.071317
-0.350665 0.655915 -0.210735
0.315337 0.677523 0.021012
-0.572682 0.655915 -0.273313
-0.360025 0.677523 0.208673
-0.074828 0.677523 -0.105734
-0.564192 0.655915 -0.047306
-0.310753 0.677523 -0.284913
0.116867 0.655915 -0.263322
0.234508 0.655915 0.000818
0.614783 0.677523 -0.272196
0.644293 0.655915 -0.075901
0.106482 0.677523 0.246847
-0.01693 0.655915 0.206556
-0.527149 0.655915 -0.079161
0.101654 0.655915 -0.214899
0.289134 0.655915 0.171974
0.106858 0.677523 0.090777
0.047192 0.655915 -0.133763
0.216426 0.655915 0.227056
0.550452 0.655915 -0.111852
0.293121 0.677523 -0.004121
0.538616 0.677523 -0.022773
0.246714 0.677523 -0.035094
0.448622 0.655915 0.03901
-0.001004 0.655915 0.185965
-0.477903 -0.239157 -0.342647
-0.523078 0.50293 -0.321038
-0.478591 0.310532 -0.321038
-0.515785 -0.598356 -0.342647
-0.594288 -0.173877 -0.342647
-0.563471 0.040279 -0.342647
-0.547324 0.213753 -0.342647
-0.561906 0.390294 -0.321038
-0.615445 -0.600443 -0.340188
-0.52367 -0.492528 -0.321038
-0.565385 -0.081265 -0.321038
-0.539106 0.603357 -0.342647
-0.509493 -0.152127 -0.321038
-0.47139 -0.401802 -0.341032
-0.615445 0.490383 -0.342403
-0.567557 -0.662006 -0.342647
-0.521479 -0.014296 -0.321038
-0.600783 -0.32924 -0.342647
-0.483614 0.247161 -0.342647
-0.500766 0.063291 -0.321038
-0.544537 -0.21557 -0.342647
-0.607727 -0.399991 -0.342647
-0.521119 0.347016 -0.342647
-0.494827 -0.540273 -0.342647
-0.611341 0.096917 -0.342647
-0.581895 0.565182 -0.342647
-0.576269 -0.01029 -0.321038
-0.589188 0.260412 -0.342647
-0.502413 -0.104715 -0.342647
-0.472978 0.517995 -0.321038
-0.537686 0.165372 -0.342647
-0.555467 -0.398069 -0.342647
-0.500593 0.118417 -0.342647
-0.526367 -0.064843 -0.342647
-0.528078 0.41357 -0.342647
-0.47139 -0.015198 -0.341591
-0.523688 0.26847 -0.342647
-0.578066 -0.266667 -0.342647
-0.511449 -0.381929 -0.342647
-0.554285 -0.329032 -0.342647
-0.550536 -0.172299 -0.321038
-0.484801 -0.188108 -0.342647
-0.560247 0.327059 -0.342647
-0.539849 -0.529723 -0.342647
-0.47139 -0.358887 -0.341038
-0.495435 0.471508 -0.342647
-0.497857 -0.324567 -0.342647
-0.531668 0.02544 -0.321038
-0.488285 0.599885 -0.342647
-0.577292 0.185173 -0.342647
-0.499752 -0.435439 -0.342647
-0.615445 0.591609 -0.329049
-0.52273 -0.294482 -0.342647
-0.592359 -0.53564 -0.342647
-0.473351 0.54961 -0.342647
-0.530057 0.094246 -0.342647
-0.549936 0.462874 -0.342647
-0.609786 0.42711 -0.342647
-0.491357 0.016194 -0.321038
-0.487423 0.402072 -0.342647
-0.604904 0.460175 -0.321038
-0.47139 -0.649267 -0.338543
-0.560361 0.525538 -0.342647
-0.527297 0.378297 -0.321038
-0.539416 0.243984 -0.321038
-0.551955 -0.48697 -0.342647
-0.497298 0.27893 -0.321038
-0.583614 -0.102888 -0.342647
-0.496398 -0.497448 -0.342647
-0.570024 -0.587503 -0.342647
-0.485587 0.155449 -0.342647
-0.592076 0.067951 -0.342647
-0.519882 -0.177218 -0.342647
-0.570186 0.120767 -0.342647
-0.580412 0.29388 -0.342647
-0.592043 0.406537 -0.321038
-0.47139 -0.129597 -0.333846
-0.609634 0.353668 -0.342647
-0.525647 0.199515 -0.321038
-0.525756 -0.465766 -0.342647
-0.5425 0.2973 -0.342647
-0.595269 0.024512 -0.342647
-0.531408 0.546659 -0.342647
-0.473049 0.285081 -0.342647
-0.516611 -0.652299 -0.342647
-0.61044 0.135302 -0.342647
-0.496987 -0.355576 -0.321038
-0.525785 -0.134026 -0.342647
-0.477093 -0.428127 -0.321038
-0.606892 -0.080932 -0.342647
-0.615445 -0.13263 -0.342253
-0.503827 0.301526 -0.342647
-0.560234 -0.45532 -0.342647
-0.539056 0.003546 -0.342647
-0.533506 0.125666 -0.342647
-0.563493 0.57835 -0.321038
-0.597671 0.521458 -0.342647
-0.571382 0.370363 -0.342647
-0.47139 -0.561562 -0.341069
-0.524938 0.045615 -0.342647
-0.518579 -0.035187 -0.342647
-0.497083 0.430467 -0.342647
-0.546289 0.643973 -0.342647
-0.47139 0.182434 -0.341283
-0.47139 -0.618902 -0.324556
-0.498402 -0.084811 -0.321038
-0.491726 0.500853 -0.342647
-0.564186 -0.026397 -0.342647
-0.481788 -0.04781 -0.342647
-0.559119 0.434898 -0.342647
-0.535933 -0.365866 -0.342647
-0.603013 0.002142 -0.321038
-0.57327 -0.333741 -0.321038
-0.547844 -0.558537 -0.342647
-0.60138 0.167818 -0.342647
-0.562842 0.164741 -0.321038
-0.531739 -0.314448 -0.321038
-0.47139 0.039867 -0.328962
-0.550763 -0.093125 -0.342647
-0.615445 -0.552334 -0.34139
-0.606941 -0.619588 -0.321038
-0.605179 -0.654061 -0.342647
-0.558836 -0.620132 -0.342647
-0.496685 0.62801 -0.342647
-0.481012 -0.160585 -0.342647
-0.59676 -0.44479 -0.342647
-0.578567 0.021442 -0.321038
-0.561166 0.619659 -0.342647
-0.561838 0.26142 -0.342647
-0.615445 0.383733 -0.327552
-0.590894 -0.621601 -0.342647
-0.59548 -0.121536 -0.321038
-0.494952 -0.259988 -0.342647
-0.477336 0.454759 -0.321038
-0.581576 -0.240288 -0.342647
-0.594157 0.433047 -0.321038
-0.512554 -0.626108 -0.342647
-0.492601 0.075867 -0.342647
-0.482919 0.324381 -0.342647
-0.504104 0.226083 -0.342647
-0.471418 -0.535574 -0.321038
0.501827 0.453987 -0.321038
0.500411 0.050968 -0.321038
0.605013 0.1988 -0.342647
0.582801 -0.189482 -0.342647
0.544196 -0.296619 -0.342647
0.617915 -0.378753 -0.342647
0.587453 -0.603032 -0.321038
0.572959 -0.015166 -0.342647
0.538957 -0.485246 -0.342647
0.584998 0.50712 -0.321038
0.516787 -0.637994 -0.342647
0.515357 0.244485 -0.321038
0.502262 0.532964 -0.342647
0.633633 0.011556 -0.324452
0.594955 -0.442215 -0.321038
0.507322 -0.026651 -0.321038
0.601507 -0.318249 -0.321038
0.620065 -0.246846 -0.342647
0.514101 -0.238225 -0.342647
0.599729 -0.657481 -0.342647
0.574668 0.042576 -0.342647
0.490431 -0.524203 -0.342647
0.616117 0.139856 -0.342647
0.527139 0.098066 -0.342647
0.593545 0.340573 -0.321038
0.605209 0.426722 -0.342647
0.61262 -0.047865 -0.321038
0.541688 -0.134433 -0.342647
0.542361 0.484958 -0.342647
0.555129 -0.06439 -0.342647
0.535061 0.28613 -0.342647
0.600104 0.555036 -0.321038
0.490296 -0.135961 -0.342647
0.619978 -0.549047 -0.342647
0.616752 0.469092 -0.321038
0.501987 0.203693 -0.342647
0.557147 -0.650306 -0.321038
0.489579 -0.349951 -0.341285
0.493665 0.350325 -0.342647
0.553982 0.344605 -0.342647
0.624208 0.372508 -0.342647
0.53858 0.013197 -0.342647
0.489579 0.142339 -0.340869
0.580067 -0.147491 -0.321038
0.491673 0.006186 -0.342647
0.5203 0.622421 -0.342647
0.633633 -0.297658 -0.336689
0.550622 -0.34156 -0.321038
0.535523 -0.536873 -0.342647
0.621001 0.649779 -0.321038
0.502298 -0.600625 -0.342647
0.579685 0.471159 -0.342647
0.618318 -0.203664 -0.342647
0.489579 0.295648 -0.339796
0.567621 0.206524 -0.342647
0.535254 0.370749 -0.321038
0.582483 -0.340712 -0.342647
0.573885 -0.118356 -0.342647
0.568267 0.641438 -0.342647
0.498683 -0.489408 -0.342647
0.633633 0.289586 -0.323351
0.493901 0.407474 -0.342647
0.551921 0.244863 -0.342647
0.62954 0.106099 -0.321038
0.508753 -0.065039 -0.342647
0.612714 -0.075415 -0.342647
0.536609 0.15703 -0.342647
0.492708 0.586881 -0.342647
0.615131 -0.022069 -0.342647
0.602891 -0.285159 -0.342647
0.564532 -0.592224 -0.342647
0.522269 0.572091 -0.342647
0.620056 -0.432598 -0.342647
0.495374 0.075219 -0.342647
0.590846 -0.568995 -0.342647
0.580996 -0.516833 -0.342647
0.492894 0.235754 -0.342647
0.535166 0.651171 -0.342647
0.55034 0.04596 -0.321038
0.507065 0.477333 -0.342647
0.580168 -0.084347 -0.342647
0.580809 0.371309 -0.342647
0.566337 -0.469096 -0.342647
0.597925 -0.367109 -0.321038
0.526118 0.319416 -0.342647
0.565694 0.315467 -0.342647
0.563051 0.613673 -0.321038
0.490659 -0.419209 -0.342647
0.55058 0.404653 -0.342647
0.541186 -0.036283 -0.342647
0.570923 -0.311207 -0.342647
0.592991 -0.418734 -0.342647
0.576953 -0.269379 -0.342647
0.533549 0.127182 -0.342647
0.489579 -0.290982 -0.337568
0.520726 0.076986 -0.321038
0.531898 0.512767 -0.342647
0.578093 -0.390443 -0.342647
0.564566 -0.683793 -0.334336
0.595928 0.161228 -0.342647
0.543502 -0.370724 -0.342647
0.547561 -0.218284 -0.342647
0.523611 -0.460352 -0.342647
0.494449 -0.683793 -0.325659
0.587672 0.014363 -0.342647
0.552778 -0.093975 -0.342647
0.55389 -0.190096 -0.342647
0.550769 -0.525148 -0.321038
0.626859 -0.68094 -0.342647
0.593804 -0.160334 -0.342647
0.489579 -0.164539 -0.34215
0.611667 0.343641 -0.342647
0.489579 0.256052 -0.322532
0.610498 -0.505866 -0.342647
0.633133 0.19874 -0.342647
0.623314 0.569933 -0.342647
0.489579 -0.640934 -0.338913
0.489579 0.435102 -0.336641
0.548533 0.10679 -0.321038
0.501303 0.166877 -0.342647
0.616735 -0.13684 -0.321038
0.591904 0.321131 -0.342647
0.557196 -0.243592 -0.321038
0.564308 0.1074 -0.342647
0.558839 0.192313 -0.321038
0.571282 -0.043298 -0.342647
0.598807 -0.631 -0.342647
0.533183 -0.389568 -0.321038
0.489579 -0.050066 -0.332255
0.554748 0.525696 -0.342647
0.629555 0.461748 -0.342647
0.541653 -0.171782 -0.321038
0.569695 -0.363429 -0.342647
0.61844 -0.598706 -0.342647
-0.040466 -0.6849261600018883 0.4348750359413778
-0.463159 -0.7026959544580219 0.3253299964462606
-0.01760700000000004 -0.5425054356553447 0.8169841698555067
-0.310857 -0.6223541937499958 0.6027531305200691
-0.509999 -0.6272145910830622 0.5278434896067344
-0.464627 -0.5713009036476548 0.7397270755268703
-0.144053 -0.5939429028221926 0.678979493078017
-0.640654 -0.6891894173906594 0.39815999972408544
-0.170406 -0.4868112866137587 0.9664093546522258
-0.315427 -0.6829546331572135 0.4401645639827748
-0.168454 -0.6526849729928268 0.5213768572242081
-0.02940200000000004 -0.6302556682112752 0.5815537890836529
-0.389732 -0.4883137681878581 0.9623782563999511
-0.159626 -0.524694845908097 0.8028998847882685
-0.153459 -0.7170915593536789 0.3485765499260378
0.0015840000000000298 -0.4944284700473029 0.9459727547261192
-0.572202 -0.5420933184406918 0.818089863936791
-0.429997 -0.5099110139621124 0.8425643173821288
-0.5264 -0.6881040028291152 0.4263490101400185
-0.523771 -0.6058796334683033 0.6469537199338413
-0.398217 -0.6511377871784939 0.5255278951734357
-0.417661 -0.5860999616395185 0.638152403705823
-0.563593 -0.7223684059606215 0.3344189805411893
-0.08510700000000004 -0.5114960600158436 0.9001810902699567
-0.250044 -0.7101868497488568 0.3671016109319583
-0.08537400000000006 -0.5463704651394612 0.744745061257138
-0.212974 -0.49813563768309466 0.8741571831826153
-0.422192 -0.6612435984495888 0.43654501747467267
-0.226663 -0.6580909017574933 0.44500357719649586
-0.204461 -0.6183164928020268 0.6135861214300056
-0.570497 -0.5753843565914879 0.7287713338333335
-0.21684899999999996 -0.5746607067027074 0.7307128576777577
-0.286545 -0.6335727215006538 0.510784878801839
-0.37582 -0.5659859885861384 0.7539867810599051
-0.07689400000000002 -0.6370994669528285 0.5013227611469181
-0.12577300000000002 -0.6628693659362073 0.4321831480268952
-0.589989 -0.6579310854346089 0.5073017463810148
-0.604544 -0.5150255994830328 0.8907114763839763
-0.591699 -0.6228047286710995 0.6015443632617161
0.009094000000000046 -0.6529605434293728 0.4981494445845165
-0.640654 -0.5469078452607123 0.7602309030361724
-0.351112 -0.49213095016484953 0.8902675207584773
-0.04838799999999999 -0.5804316036786555 0.6533603824678913
-0.10508799999999996 -0.6060202409379624 0.5847070873378568
-0.386429 -0.7111626594927047 0.3644835522344094
-0.456366 -0.504936760517201 0.91777942971114
-0.49419 -0.5419431401336572 0.8184927863562419
-0.636598 -0.7082443876092556 0.32420175021148256
-0.259831 -0.600942608937511 0.6601995602160716
-0.341288 -0.5973177237079487 0.6699249829869593
-0.363301 -0.540420401950702 0.8225782322836983
-0.266883 -0.5533772973290172 0.7878153977739033
-0.519929 -0.49477024659801294 0.883186393493847
-0.4574 -0.6255299410659617 0.5942327268920045
-0.640654 -0.5217014018901381 0.8261580089153632
-0.465143 -0.7004193225097037 0.3933074976872734
-0.239064 -0.6388793955538278 0.5584166719183423
-0.145988 -0.49807556636028083 0.8743183521503956
-0.147706 -0.5680748640614262 0.7483824113140067
-0.550495 -0.4859074227565367 0.9688343853999912
-0.461406 -0.6653642131290666 0.4873589606759562
0.009094000000000046 -0.5078763660648742 0.883567744408833
-0.383247 -0.6293179269220012 0.5840697116330154
-0.198525 -0.6789611461609 0.3890095422682816
-0.09614 -0.7078297488321678 0.37342561885957376
-0.02681599999999995 -0.5668500377294023 0.7516685716047384
-0.367898 -0.6712337401709805 0.47161125327760006
-0.09973500000000002 -0.5469503642916913 0.8050586032686402
-0.422622 -0.5313707955335989 0.7849885777003488
-0.577253 -0.5781422576260704 0.6595026067923127
-0.590411 -0.6790325345804734 0.4506873983326225
-0.013676000000000021 -0.7089368772817016 0.37045523730222585
-0.22717500000000002 -0.47769637009568944 0.9289949244698934
-0.638383 -0.6403043432112722 0.5545935940779703
-0.640654 -0.6529780499167519 0.475396799254294
-0.479296 -0.5923744126433734 0.6831876897890736
-0.520952 -0.626415294573712 0.5918573586750087
-0.213702 -0.5373438421677542 0.8308325197091487
-0.27989 -0.49632057567923726 0.8790269222846774
-0.570989 -0.6785385513899422 0.39014334721603905
0.004186000000000023 -0.6068306463288967 0.6444021902869459
-0.317938 -0.5656555963106623 0.7548732103826973
-0.519263 -0.7098382963757859 0.3680367657566376
-0.332534 -0.6407381140422883 0.5534298042059747
-0.426575 -0.5637178058613382 0.6982028366661379
-0.456418 -0.6452934062717113 0.5412081364922557
-0.20634200000000003 -0.5357231724225868 0.7733113237673299
-0.151567 -0.5949199685368466 0.6144886763085788
-0.16869500000000004 -0.6729663787319072 0.46696265299179474
-0.56573 -0.4833064029931228 0.9139434295311932
-0.551332 -0.5386991476650091 0.7653269006600235
-0.526557 -0.5656086555224665 0.6931297622965853
-0.22988399999999998 -0.6578088472777203 0.5076297064898702
-0.09878699999999996 -0.5659547641323996 0.6922011666740833
-0.560878 -0.620306388959472 0.5463779209014795
-0.189979 -0.5796988732410776 0.6553262690632591
-0.640654 -0.6112522484267131 0.6191620428252416
-0.262431 -0.6037385784266673 0.5908286970268644
-0.535697 -0.6700909880300104 0.47467721178095734
-0.409332 -0.5128473155272778 0.8965557255237805
-0.297189 -0.7228667883888502 0.33308184032594157
