-0.46008105977703845 0.135825 -0.226329
-0.45842405977703843 0.145908 0.055131
-0.46008105977703845 0.027138 0.13365
-0.46008105977703845 0.10039 0.179567
-0.4547050597770384 0.110921 -0.076337
-0.4547050597770384 0.051958 -0.055355
-0.46008105977703845 0.049165 -0.167686
-0.46008105977703845 0.140409 0.21567
-0.4547050597770384 0.08147 0.024778
-0.46008105977703845 0.118546 -0.165806
-0.46008105977703845 0.093489 -0.121019
-0.46008105977703845 0.137334 0.154336
-0.46008105977703845 0.021556 -0.20258
-0.46008105977703845 0.06241 0.097723
-0.4547050597770384 0.048674 0.175836
-0.46008105977703845 0.092222 0.065176
-0.4547050597770384 0.141862 0.008544
-0.4547050597770384 0.084207 -0.035078
-0.46008105977703845 0.079688 -0.152865
-0.4587730597770384 0.030121 -0.244839
-0.46008105977703845 0.103045 -0.212286
-0.4547050597770384 0.025894 0.000161
-0.4547050597770384 0.014998 -0.076634
-0.4547050597770384 0.072954 0.156484
-0.45924705977703845 0.165524 0.166499
-0.4547050597770384 0.0541 -0.086652
-0.46008105977703845 0.112621 0.086354
-0.45666605977703845 0.145908 -0.071539
-0.4547050597770384 0.109981 0.027487
-0.46008105977703845 0.116275 -0.041654
-0.4547050597770384 0.019025 0.100193
-0.4547050597770384 0.127078 -0.105999
-0.46008105977703845 0.141594 -0.188106
-0.4547050597770384 0.075412 0.18719
-0.46008105977703845 0.119645 0.197734
-0.46008105977703845 0.05788 0.034524
-0.46008105977703845 0.024059 -0.102571
-0.45540105977703843 0.086446 0.214558
-0.46008105977703845 0.070167 -0.179979
-0.46008105977703845 0.030715 -0.022894
-0.46008105977703845 0.101553 0.139657
-0.4547050597770384 0.046681 -0.138695
-0.46008105977703845 0.045431 -0.203022
-0.4547050597770384 0.116474 -0.193411
-0.46008105977703845 0.11799 0.049095
-0.4547050597770384 0.139308 -0.149513
-0.4547050597770384 0.067474 0.119736
-0.46008105977703845 0.030677 -0.049428
-0.4585220597770384 0.010777 -0.223971
-0.46008105977703845 0.140862 0.176296
-0.4547050597770384 0.105323 -0.101579
-0.46008105977703845 0.141752 0.076404
-0.4547050597770384 0.154938 0.143218
-0.46008105977703845 0.023993 -0.172581
-0.4547050597770384 0.0704 0.006569
-0.4553040597770384 0.146181 -0.245911
-0.4547050597770384 0.023039 0.164343
-0.4547050597770384 0.113156 -0.121621
-0.4547050597770384 0.132881 -0.031099
-0.4547050597770384 0.122547 0.16698
-0.4547050597770384 0.08373 -0.21407
-0.46008105977703845 0.038678 0.03966
-0.4547050597770384 0.094893 0.161239
-0.46008105977703845 0.127621 -0.085629
-0.46008105977703845 0.029052 0.066405
-0.46008105977703845 0.131658 -0.058483
-0.4595530597770384 0.145908 -0.104171
-0.4547050597770384 0.046334 0.199802
-0.3514630597770384 0.032086 0.214558
-0.14086605977703842 0.092539 0.214558
-0.24583005977703842 0.0901 0.219934
-0.38189305977703847 0.094769 0.219934
-0.2588080597770384 0.161177 0.214558
-0.31422005977703843 0.080833 0.219934
0.12711594022296158 0.048724 0.214558
-0.1933930597770384 0.073623 0.214558
-0.4098840597770384 0.041083 0.214558
-0.14334405977703843 0.040382 0.214558
-0.13964705977703842 0.142978 0.214558
-0.3373060597770384 0.121667 0.219934
-0.2821860597770384 0.121284 0.214558
-0.4242430597770384 0.098683 0.214558
-0.39434805977703846 0.159499 0.214558
-0.18414105977703843 0.112569 0.219934
-0.45276405977703843 0.059771 0.219934
-0.2186220597770384 0.03362 0.214558
-0.2223670597770384 0.156766 0.214558
-0.41693005977703845 0.134103 0.214558
-0.22606705977703842 0.11696 0.219934
-0.35071905977703843 0.0861 0.219934
-0.43264505977703843 0.019061 0.214558
-0.42257805977703844 0.068776 0.214558
-0.3326800597770384 0.057398 0.219934
-0.38988405977703844 0.122775 0.214558
-0.37261405977703843 0.067388 0.219934
-0.3073600597770384 0.143928 0.219934
-0.16764305977703842 0.14142 0.219934
-0.20502105977703844 0.134399 0.214558
-0.31272605977703843 0.111388 0.214558
-0.25126305977703844 0.135342 0.214558
0.10284094022296159 0.059337 0.214558
-0.4547900597770384 0.034008 0.214558
-0.15625505977703844 0.071816 0.219934
0.10372694022296158 0.02912 0.219934
-0.44221805977703843 0.122862 0.219934
-0.15800205977703843 0.110238 0.219934
0.11901794022296158 0.077369 0.214558
-0.22226205977703845 0.093976 0.214558
-0.28370605977703844 0.144152 0.219934
-0.09030805977703843 0.161457 0.214558
-0.13099505977703843 0.165524 0.215037
-0.17303405977703842 0.060564 0.214558
-0.39213905977703845 0.032542 0.219934
-0.45427205977703844 0.010777 0.218283
-0.3346340597770384 0.098245 0.219934
-0.3666980597770384 0.043805 0.219934
0.1467489402229616 0.051019 0.219934
-0.11454605977703843 0.126467 0.219934
-0.4365150597770384 0.082482 0.214558
-0.3316980597770384 0.109817 -0.249027
-0.15831305977703844 0.056614 -0.243652
-0.23422705977703842 0.163817 -0.249027
-0.054889059777038424 0.080297 -0.243652
0.10162294022296159 0.142313 -0.243652
-0.24363105977703842 0.057338 -0.249027
-0.3136570597770384 0.045052 -0.249027
-0.38920805977703843 0.07361 -0.243652
-0.2743690597770384 0.112775 -0.243652
0.12587494022296158 0.017397 -0.243652
-0.2198400597770384 0.11194 -0.243652
-0.3742910597770384 0.143345 -0.243652
-0.10323205977703842 0.073124 -0.243652
-0.4257410597770384 0.025917 -0.243652
-0.15753905977703841 0.119229 -0.243652
-0.41492405977703845 0.115105 -0.249027
0.13112494022296156 0.109166 -0.249027
0.16763994022296158 0.042453 -0.24397
-0.19292805977703842 0.145969 -0.249027
-0.31091005977703845 0.146484 -0.249027
-0.19846105977703843 0.048449 -0.249027
-0.3564750597770384 0.044932 -0.243652
-0.4547050597770384 0.09804 -0.24388
-0.08473805977703842 0.152111 -0.243652
0.1226439402229616 0.073231 -0.249027
-0.2991930597770384 0.085775 -0.243652
-0.4250440597770384 0.071775 -0.249027
-0.2730530597770384 0.014843 -0.243652
-0.4141100597770384 0.160287 -0.249027
-0.2764880597770384 0.147889 -0.249027
-0.33764305977703846 0.073085 -0.249027
-0.07487405977703843 0.039819 -0.243652
-0.07578005977703843 0.120511 -0.249027
-0.36587405977703846 0.096472 -0.249027
-0.2154270597770384 0.081076 -0.249027
-0.2578870597770384 0.086088 -0.243652
-0.27190505977703844 0.046552 -0.243652
-0.12811405977703844 0.054924 -0.249027
-0.19018605977703842 0.112415 -0.249027
-0.16870705977703843 0.023046 -0.243652
0.10774394022296158 0.047777 -0.243652
0.15207494022296159 0.068603 -0.249027
-0.3856630597770384 0.039489 -0.243652
-0.43500205977703843 0.140508 -0.243652
-0.24140805977703844 0.131407 -0.243652
-0.3458760597770384 0.14319 -0.249027
-0.30242805977703846 0.112962 -0.249027
-0.21599905977703843 0.026246 -0.243652
0.1264449402229616 0.151857 -0.249027
-0.05201105977703843 0.052015 -0.249027
-0.16705805977703841 0.07981 -0.249027
-0.4547050597770384 0.067566 -0.245989
-0.11518205977703844 0.094458 -0.249027
0.14016694022296156 0.131816 -0.243652
-0.08593305977703843 0.092881 -0.249027
-0.12233505977703843 0.145297 -0.249027
-0.41103205977703844 0.090737 -0.243652
-0.3915040597770384 0.109487 -0.249027
0.13603994022296156 0.051565 -0.243652
-0.10569805977703842 0.047053 -0.249027
-0.21650705977703844 0.144435 -0.249027
-0.3328060597770384 0.03222 -0.249027
-0.22217705977703844 0.048934 -0.249027
-0.24300405977703843 0.035342 -0.243652
-0.24208405977703842 0.107927 -0.243652
-0.3721070597770384 0.118482 -0.243652
-0.13383605977703844 0.122623 -0.249027
-0.10448705977703843 0.010777 -0.247408
-0.4441580597770384 0.045505 -0.243652
-0.3496480597770384 0.165169 -0.249027
-0.37044805977703843 0.068788 -0.249027
0.15198794022296158 0.030142 -0.243652
-0.17594105977703842 0.04735 -0.243652
-0.23208905977703842 0.089809 -0.243652
-0.17254405977703843 0.104004 -0.249027
-0.34551505977703845 0.123607 -0.249027
-0.09498605977703842 0.131461 -0.243652
-0.05883705977703843 0.112858 -0.243652
0.15037794022296158 0.107371 -0.249027
-0.33684105977703843 0.053841 -0.249027
-0.08531005977703843 0.068662 -0.249027
-0.15075105977703843 0.141811 -0.243652
0.16763994022296158 0.135194 0.120332
0.1622639402229616 0.115264 -0.15662
0.16763994022296158 0.066979 -0.030818
0.1622639402229616 0.07328 0.060768
0.16763994022296158 0.140579 -0.00714
0.16763994022296158 0.016903 -0.206115
0.16763994022296158 0.055701 -0.101428
0.16763994022296158 0.060505 0.177453
0.1622639402229616 0.152455 -0.210957
0.16763994022296158 0.114541 -0.097766
0.1622639402229616 0.064824 0.115319
0.16763994022296158 0.053367 -0.171531
0.16763994022296158 0.120944 0.058303
0.16763994022296158 0.026981 0.07007
0.16763994022296158 0.05159 0.014763
0.1628279402229616 0.165524 0.154928
0.1622639402229616 0.097719 -0.197645
0.1622639402229616 0.093284 0.147653
0.16763994022296158 0.13583 -0.058928
0.16763994022296158 0.088901 -0.066118
0.1622639402229616 0.103134 0.099217
0.1622639402229616 0.074096 -0.135096
0.16763994022296158 0.089819 0.000226
0.1622639402229616 0.032809 -0.131015
0.16763994022296158 0.145502 -0.137659
0.16535394022296157 0.047542 0.214558
0.16763994022296158 0.110873 -0.028918
0.16763994022296158 0.139518 -0.248424
0.16763994022296158 0.115132 0.175426
0.1622639402229616 0.145727 -0.174951
0.16763994022296158 0.025496 -0.03131
0.1622639402229616 0.1085 0.025743
0.16763994022296158 0.018644 -0.173681
0.16763994022296158 0.025514 -0.093138
0.16763994022296158 0.04816 0.140973
0.1622639402229616 0.142143 0.090749
0.16763994022296158 0.078498 0.029299
0.1622639402229616 0.073173 -0.219066
0.16763994022296158 0.101903 -0.226686
0.16763994022296158 0.115489 -0.127119
0.16763994022296158 0.037271 0.043499
0.16763994022296158 0.076626 0.09009
0.1622639402229616 0.043174 -0.198314
0.16763994022296158 0.088393 -0.161848
0.16763994022296158 0.08666 -0.097045
0.16763994022296158 0.153912 -0.101004
0.1622639402229616 0.137242 0.147028
0.16763994022296158 0.044841 0.097933
0.16763994022296158 0.123687 -0.19874
0.16763994022296158 0.149718 -0.037705
0.1622639402229616 0.048433 -0.077772
0.1622639402229616 0.152827 -0.076196
0.1622639402229616 0.095033 0.048858
0.1622639402229616 0.112734 0.128394
0.1622639402229616 0.140029 0.044592
0.1622639402229616 0.158214 -0.234911
0.16763994022296158 0.11127 -0.178885
0.1622639402229616 0.075213 -0.193024
0.1622639402229616 0.085576 -0.044451
0.1622639402229616 0.019796 -0.113469
0.16763994022296158 0.068111 0.205085
0.1622639402229616 0.057961 -0.049292
0.16763994022296158 0.089687 0.177956
0.16763994022296158 0.046503 0.076625
0.1622639402229616 0.165094 -0.143924
0.1622639402229616 0.126389 0.077824
0.1622639402229616 0.106827 -0.009795
0.16763994022296158 0.123101 0.012849
0.1622639402229616 0.084405 0.113197
0.16763994022296158 0.029896 0.1161
0.1622639402229616 0.069886 0.010233
0.1622639402229616 0.105428 0.080079
0.16763994022296158 0.150989 -0.156064
-0.16542905977703842 0.007508 0.091442
-0.4510320597770384 0.007508 -0.025951
0.06677094022296157 0.007508 0.037842
-0.1391650597770384 0.007508 -0.098403
-0.30428905977703846 0.010777 0.020755
0.02607894022296156 0.007508 -0.103712
-0.3683660597770384 0.007508 -0.139527
0.16705794022296155 0.010777 0.120684
-0.050500059777038434 0.007508 0.050069
-0.25948105977703845 0.007508 -0.087855
-0.27243605977703844 0.010777 0.129601
-0.3842460597770384 0.007508 0.0874
-0.37707805977703845 0.010777 -0.243989
-0.05843505977703843 0.010777 -0.166471
-0.21216205977703842 0.010777 -0.171497
-0.05654605977703843 0.010777 -0.04583
-0.11302705977703842 0.007508 0.171998
0.042339940222961586 0.007508 0.129985
-0.21173705977703844 0.007508 0.007534
-0.36314805977703846 0.010777 -0.043569
0.07840794022296158 0.010777 -0.17009
0.10366894022296158 0.007508 -0.070347
-0.19561405977703844 0.010777 0.178311
-0.12000205977703843 0.010777 0.004169
0.15051994022296156 0.007508 0.018443
-0.2909480597770384 0.007508 -0.166832
-0.04793205977703843 0.007508 0.128652
0.11254594022296155 0.007508 0.174905
-0.13787605977703843 0.007508 -0.188935
0.016572940222961574 0.010777 -0.026572
-0.3936090597770384 0.010777 0.158425
0.008716940222961572 0.007508 -0.182507
-0.38996705977703844 0.010777 0.018352
-0.19643605977703843 0.007508 -0.064524
-0.23292705977703843 0.010777 0.069709
-0.4209480597770384 0.007508 -0.082874
-0.33337705977703846 0.007508 0.149725
-0.32426505977703846 0.010777 0.077248
-0.10492705977703842 0.010777 0.113301
-0.03277905977703843 0.007508 -0.113361
-0.30446605977703844 0.007508 -0.044649
0.02888094022296156 0.007508 0.185327
0.013513940222961568 0.010777 0.057619
0.07934194022296157 0.010777 -0.017535
-0.3351200597770384 0.010777 -0.206147
-0.32043105977703845 0.010777 -0.110213
-0.23026405977703843 0.007508 -0.228847
0.09652894022296157 0.010777 0.114923
-0.10354905977703843 0.007508 0.059761
-0.21368605977703842 0.010777 0.128901
-0.08469105977703843 0.007508 -0.105026
-0.16192505977703842 0.010777 0.035557
-0.12954505977703842 0.007508 -0.240334
-0.39842105977703846 0.010777 -0.192942
-0.19299905977703843 0.010777 -0.125469
0.12739394022296158 0.007508 -0.025977
-0.15548005977703844 0.007508 0.138334
-0.018017059777038436 0.010777 0.00658
-0.0037560597770384396 0.007508 0.144954
-0.4231180597770384 0.010777 0.051937
-0.06742705977703843 0.010777 0.178705
-0.014450059777038421 0.010777 0.094175
-0.2781550597770384 0.007508 0.061957
-0.24045605977703843 0.007508 -0.046411
0.13965894022296155 0.007508 -0.164567
-0.3474550597770384 0.007508 -0.001238
-0.10081005977703843 0.010777 -0.037432
-0.14153205977703842 0.010777 -0.054356
-0.17292405977703842 0.010777 -0.215488
-0.10532205977703843 0.007508 -0.159356
-0.2860930597770384 0.007508 -0.210439
-0.23552705977703842 0.007508 -0.134706
-0.40855305977703843 0.007508 -0.033661
0.04825994022296157 0.007508 0.083013
0.09069494022296157 0.007508 -0.220731
-0.15607105977703842 0.007508 -0.147319
0.08775894022296157 0.007508 -0.109312
-0.007522059777038431 0.007508 -0.078572
0.0009659402229615643 0.010777 -0.141626
0.050627940222961576 0.007508 -0.13938
-0.46008105977703845 0.00893 0.075076
0.06310894022296157 0.010777 -0.074532
0.15326894022296156 0.010777 0.168785
-0.17616305977703842 0.010777 -0.029386
-0.35160805977703846 0.010777 0.111257
-0.27497605977703843 0.010777 -0.126588
-0.02771605977703842 0.007508 -0.199866
-0.08779505977703843 0.010777 -0.195141
-0.3600930597770384 0.010777 0.182361
-0.06853305977703843 0.007508 -0.008824
0.11536894022296157 0.007508 0.042598
-0.39742205977703843 0.010777 -0.113214
-0.15832005977703842 0.010777 0.184129
0.02686594022296157 0.010777 0.023031
-0.34709005977703844 0.010777 -0.171162
-0.20271405977703844 0.010777 0.049394
-0.02460605977703842 0.010777 0.174581
-0.20521305977703844 0.007508 0.093789
-0.4320750597770384 0.010777 0.176092
-0.3549450597770384 0.010777 -0.099457
-0.08163405977703843 0.007508 0.141676
0.13407694022296157 0.010777 0.108083
-0.26562705977703843 0.007508 -0.021744
0.11487494022296157 0.007508 0.00693
-0.12721505977703843 0.007508 0.08668
-0.07796905977703843 0.007508 0.092553
0.07450994022296156 0.007508 0.141195
-0.08787505977703843 0.007508 -0.071506
-0.21069805977703843 0.007508 -0.097124
0.11150394022296156 0.010777 -0.146842
0.12344594022296157 0.007508 0.143307
-0.3378070597770384 0.007508 0.030746
0.040624940222961564 0.010777 -0.050007
0.020285940222961568 0.010777 0.105492
-0.24637305977703844 0.010777 -0.165579
-0.06720805977703842 0.007508 -0.134985
-0.17609205977703843 0.010777 -0.097649
-0.3124020597770384 0.010777 -0.010744
-0.37049505977703845 0.007508 -0.209013
-0.009413059777038435 0.007508 -0.045615
-0.31040805977703845 0.010777 0.127241
-0.38635305977703843 0.007508 -0.065787
-0.18380205977703842 0.007508 0.118195
0.10131994022296159 0.007508 0.072242
-0.3842620597770384 0.007508 -0.012437
-0.13609405977703842 0.010777 0.20619
-0.28508505977703846 0.007508 -0.0701
-0.10120805977703842 0.010777 -0.223835
-0.04751005977703843 0.007508 -0.087013
-0.27435905977703845 0.007508 0.022864
-0.14992405977703843 0.007508 0.005235
-0.047299059777038424 0.010777 0.013616
-0.42734405977703843 0.010777 -0.17745
0.03798594022296156 0.007508 -0.166611
-0.23472605977703842 0.010777 -0.011413
0.1541409402229616 0.010777 0.216765
-0.24318705977703842 0.007508 0.12426
-0.14526305977703843 0.007508 0.059937
-0.3234800597770384 0.010777 -0.153438
-0.33248205977703843 0.007508 -0.053201
-0.039294059777038426 0.007508 0.079027
-0.22929305977703843 0.007508 -0.07342
0.10682694022296157 0.007508 -0.175965
-0.029282059777038433 0.007508 -0.142144
-0.31393305977703845 0.010777 -0.247641
0.08223594022296157 0.007508 0.176806
-0.44949605977703844 0.007508 0.151722
-0.3908330597770384 0.010777 -0.156845
-0.03405305977703843 0.007508 -0.028942
-0.4134360597770384 0.010777 -0.223281
-0.2931470597770384 0.010777 0.085591
-0.11997305977703843 0.007508 0.136882
-0.22701505977703842 0.010777 0.030941
-0.05526105977703842 0.010777 -0.194399
0.04144594022296158 0.007508 -0.013931
-0.32396905977703844 0.007508 0.176017
-0.3842640597770384 0.010777 0.045583
-0.26224305977703843 0.010777 0.103821
-0.19229005977703842 0.010777 -0.19583
-0.16164805977703842 0.007508 -0.17574
-0.3817360597770384 0.007508 0.114338
-0.41261305977703844 0.010777 -0.002922
-0.18970805977703842 0.007508 0.14435
0.05574194022296158 0.010777 -0.186211
-0.024115059777038428 0.010777 0.050716
0.06514694022296158 0.007508 -0.040338
-0.3504280597770384 0.007508 0.080433
-0.09051205977703843 0.007508 0.036753
-0.23922805977703843 0.010777 -0.108735
0.07665594022296157 0.010777 -0.142465
-0.29636205977703844 0.010777 0.149489
0.12876794022296156 0.010777 0.210752
-0.2302720597770384 0.007508 0.100982
-0.11872005977703842 0.007508 -0.137213
-0.09804605977703842 0.007508 0.193034
-0.13717805977703842 0.010777 -0.214359
-0.4543100597770384 0.010777 0.050285
-0.2897510597770384 0.007508 0.111369
-0.4115770597770384 0.007508 -0.059352
-0.31513805977703846 0.010777 -0.085489
-0.28469105977703846 0.010777 6.9e-05
-0.13124305977703843 0.007508 -0.031555
0.11223794022296157 0.007508 -0.115225
-0.19184405977703842 0.010777 0.072749
-0.09664105977703843 0.010777 -0.005115
-0.29990605977703844 0.010777 -0.129719
-0.11725105977703842 0.007508 0.038762
-0.40736805977703844 0.007911 0.219934
-0.36451105977703846 0.010777 0.132533
-0.3765480597770384 0.007508 -0.181588
0.050970940222961586 0.010777 0.017083
-0.3601140597770384 0.007508 0.157871
0.14064594022296156 0.007508 -0.13631
-0.4047440597770384 0.007508 -0.245919
0.07234594022296156 0.010777 0.085749
0.1659069402229616 0.010777 -0.004969
-0.43271305977703844 0.010777 -0.045492
-0.11688005977703843 0.007508 -0.201547
-0.006085059777038437 0.007508 0.071257
-0.16847705977703842 0.010777 -0.052091
-0.11809005977703843 0.010777 -0.087506
-0.4460800597770384 0.007508 0.119309
-0.06551305977703843 0.007508 0.072174
0.05607994022296156 0.007508 0.05904
0.11794094022296159 0.010777 0.090712
-0.16967805977703843 0.010777 0.06456
0.05104694022296158 0.007508 0.177342
-0.34542305977703847 0.007508 -0.134327
-0.03777105977703843 0.010777 0.155087
-0.3671910597770384 0.010777 0.023506
0.003859940222961572 0.007508 -0.007396
-0.4093360597770384 0.007508 0.179158
-0.27310405977703844 0.010777 -0.181093
0.03625394022296158 0.007508 -0.083093
-0.3531270597770384 0.007508 -0.063971
0.14925794022296157 0.010777 -0.091289
-0.43674405977703845 0.007508 -0.008186
-0.17230705977703842 0.010777 0.007973
-0.3879520597770384 0.007508 0.136599
-0.4599740597770384 0.010777 -0.143395
-0.3262520597770384 0.010777 -0.031662
-0.12064205977703843 0.010777 -0.064991
0.011643940222961585 0.007508 -0.122146
-0.2630110597770384 0.007508 0.081687
-0.13507005977703843 0.010777 0.16995
0.02212994022296158 0.010777 0.078018
-0.36342605977703846 0.010777 -0.021484
-0.46008105977703845 0.008175 -0.050567
0.04140494022296157 0.010777 -0.119786
-0.4225770597770384 0.010777 0.156382
-0.2996960597770384 0.010777 0.063793
-0.13347005977703844 0.010777 0.107349
-0.09976705977703842 0.010777 0.081012
-0.03623605977703842 0.010777 -0.180071
-0.29718505977703846 0.007508 -0.191735
0.15071694022296156 0.010777 0.134853
-0.07847405977703843 0.010777 -0.158841
0.04548494022296157 0.007508 0.040421
-0.28200405977703846 0.007508 -0.147422
-0.15460605977703842 0.010777 -0.201994
-0.22460005977703842 0.007508 -0.188539
-0.09377905977703843 0.010777 -0.141737
0.1592639402229616 0.007508 0.069262
-0.013008059777038422 0.010777 -0.120228
-0.06489105977703842 0.010777 0.157675
-0.3218920597770384 0.007508 0.10975
-0.21932605977703842 0.007508 -0.045327
-0.17393905977703844 0.007508 -0.076976
0.012001940222961582 0.007508 -0.086298
-0.32929905977703844 0.007508 -0.186279
-0.09450705977703842 0.010777 0.163164
-0.21063605977703842 0.010777 -0.136332
-0.40232005977703844 0.010777 0.096763
-0.43468805977703845 0.007508 0.102136
-0.40233705977703843 0.010777 0.055316
-0.2685700597770384 0.007508 -0.057924
0.11740694022296155 0.010777 0.124013
0.10832794022296155 0.007508 -0.033374
-0.02814005977703843 0.010777 0.132605
-0.13867105977703842 0.007508 0.149953
0.10417294022296159 0.010777 -0.010109
-0.39049005977703843 0.007508 -0.212687
0.13374294022296157 0.007508 -0.185694
0.028366940222961573 0.007508 0.165252
-0.3788720597770384 0.007508 0.171653
-0.15387705977703842 0.007508 -0.112031
-0.18033805977703843 0.007508 0.028393
-0.24815805977703842 0.010777 -0.220551
-0.34834505977703845 0.007508 0.200792
0.01269394022296158 0.007508 0.036624
-0.12585605977703843 0.007508 0.06694
-0.4373390597770384 0.010777 -0.194507
-0.2913190597770384 0.007508 -0.244838
-0.021208059777038435 0.010777 -0.097796
-0.3262830597770384 0.010777 -0.131209
-0.3435210597770384 0.010777 0.129183
-0.16084405977703842 0.007508 0.110501
-0.32071805977703843 0.007508 0.010593
-0.39719305977703845 0.010777 -0.132779
-0.04878205977703842 0.007508 -0.143278
-0.43186705977703843 0.010777 -0.127632
0.08063294022296158 0.010777 -0.066024
0.029700940222961575 0.007508 -0.134876
-0.3960750597770384 0.010777 -0.048048
-0.42007805977703844 0.010777 0.137223
-0.43802005977703845 0.010777 -0.091285
-0.03245905977703843 0.007508 -0.161432
-0.008295059777038427 0.007508 0.02291
-0.43145605977703844 0.007508 -0.026599
0.09713894022296157 0.007508 -0.159011
0.03192494022296158 0.007508 0.146533
-0.5685500303461912 0.290993 -0.014033
-0.5739260303461913 0.295397 -0.165657
-0.5685500303461912 0.231996 0.119448
-0.5685500303461912 0.204171 0.021602
-0.5685500303461912 0.232594 -0.09616
-0.5739260303461913 0.310634 0.08207
-0.5739260303461913 0.209334 -0.207269
-0.5685500303461912 0.237916 0.194552
-0.5685500303461912 0.311323 -0.104386
-0.5685500303461912 0.235623 -0.033764
-0.5739260303461913 0.237955 -0.154533
-0.5685500303461912 0.267547 0.044724
-0.5685500303461912 0.284706 0.133637
-0.5739260303461913 0.203746 0.075532
-0.5739260303461913 0.279978 -0.06487
-0.5685500303461912 0.195962 0.164356
-0.5685500303461912 0.313548 0.025972
-0.5685500303461912 0.268387 -0.206814
-0.5739260303461913 0.343056 -0.241095
-0.5685500303461912 0.282292 0.1896
-0.5685500303461912 0.249017 0.082625
-0.5685500303461912 0.268679 -0.110508
-0.5739260303461913 0.200822 -0.164966
-0.5739260303461913 0.323517 -0.139518
-0.5685500303461912 0.240474 0.154937
-0.5739260303461913 0.318048 -0.192825
-0.5685500303461912 0.243358 0.0005
-0.5685500303461912 0.311515 -0.053607
-0.5685500303461912 0.191084 -0.130239
-0.5739260303461913 0.235028 0.045427
-0.5685500303461912 0.218626 -0.061297
-0.5739260303461913 0.273619 0.101062
-0.5685500303461912 0.21216 -0.007946
-0.5739260303461913 0.26608 -0.144205
-0.5685500303461912 0.26204 -0.022172
-0.5719330303461914 0.18841 0.194223
-0.5739260303461913 0.221122 -0.121381
-0.5685500303461912 0.297573 -0.217417
-0.5739260303461913 0.241752 -0.213352
-0.5739260303461913 0.222656 -0.180534
-0.5739260303461913 0.297217 -0.135482
-0.5685500303461912 0.276314 0.158717
-0.5739260303461913 0.315411 -0.005745
-0.5685500303461912 0.310489 0.107469
-0.5739260303461913 0.309853 -0.029332
-0.5739260303461913 0.213375 -0.237276
-0.5685500303461912 0.209234 0.112418
-0.5685500303461912 0.2545 -0.087529
-0.5739260303461913 0.225996 0.015872
-0.5685500303461912 0.218043 0.169339
-0.5739260303461913 0.220487 0.146118
-0.5685500303461912 0.290239 -0.04564
-0.5685500303461912 0.272186 -0.164994
-0.5739260303461913 0.290677 -0.110802
-0.5739260303461913 0.268111 0.066137
-0.5739260303461913 0.325647 0.125066
-0.5739260303461913 0.316852 -0.168193
-0.5685500303461912 0.253161 0.17181
-0.5685500303461912 0.244137 -0.193602
-0.5739260303461913 0.240409 0.100443
-0.5739260303461913 0.287278 0.043887
-0.5739260303461913 0.292607 0.111571
-0.4482030303461913 0.320525 0.219934
-0.1886840303461913 0.260515 0.219934
-0.3421290303461913 0.31403 0.214558
-0.4991490303461913 0.237007 0.219934
-0.37680703034619134 0.233874 0.219934
-0.10082703034619131 0.255433 0.219934
-0.14846803034619133 0.310683 0.214558
-0.2949070303461913 0.273921 0.214558
-0.5127960303461914 0.327684 0.214558
-0.2460070303461913 0.242352 0.219934
-0.43901703034619133 0.221744 0.214558
-0.3986920303461913 0.28286 0.219934
-0.21743303034619132 0.323103 0.214558
-0.39685803034619127 0.343156 0.217882
-0.1428680303461913 0.22227 0.219934
-0.2892840303461913 0.328785 0.214558
-0.28246403034619133 0.192859 0.214558
-0.4624970303461913 0.274001 0.219934
-0.5627790303461913 0.196906 0.219934
-0.3301140303461913 0.238904 0.214558
-0.5379060303461913 0.271215 0.214558
-0.14208203034619132 0.265307 0.214558
-0.4006930303461913 0.18841 0.219068
-0.5367920303461913 0.228332 0.219934
-0.1121650303461913 0.305152 0.219934
-0.3621720303461913 0.26707 0.214558
-0.48002403034619134 0.30486 0.214558
-0.41220003034619135 0.243117 0.219934
-0.5006410303461913 0.270521 0.214558
-0.30023403034619134 0.223898 0.219934
-0.5513280303461914 0.310112 0.214558
-0.4335020303461913 0.28907 0.214558
-0.25488003034619133 0.211607 0.214558
-0.5739260303461913 0.258311 0.218077
-0.2219440303461913 0.261675 0.219934
-0.3086760303461913 0.305461 0.219934
-0.4689810303461913 0.226989 0.214558
-0.5139610303461913 0.297175 0.214558
-0.40976103034619127 0.316382 0.219934
-0.5126100303461913 0.20864 0.214558
-0.3699160303461913 0.331667 0.219934
-0.2630160303461913 0.265615 0.214558
-0.11281703034619131 0.207162 0.219934
-0.3664930303461913 0.302446 0.219934
-0.37805003034619133 0.206522 0.219934
-0.4861420303461913 0.335731 0.219934
-0.11612903034619132 0.234386 0.214558
-0.3300080303461913 0.290543 0.214558
-0.16380903034619132 0.192429 0.214558
-0.15992503034619132 0.287674 0.214558
-0.5664760303461913 0.222457 0.214558
-0.3482770303461913 0.214589 0.219934
-0.1783210303461913 0.320721 0.214558
-0.2978460303461913 0.248348 0.219934
-0.1927900303461913 0.20613 0.219934
-0.4177730303461913 0.205294 0.219934
-0.1602440303461913 0.250517 0.219934
-0.2259640303461913 0.299914 0.214558
-0.5728210303461914 0.300572 0.214558
-0.1978050303461913 0.34175 0.219934
-0.5547040303461913 0.241602 0.214558
-0.14748703034619132 0.33578 0.219934
-0.11620403034619131 0.270742 0.214558
-0.25738003034619134 0.343156 0.215383
-0.4551280303461913 0.253578 0.219934
-0.2050970303461913 0.248252 0.214558
-0.1329100303461913 0.297958 0.219934
-0.4814040303461913 0.262719 0.214558
-0.3928240303461913 0.221069 0.219934
-0.20902003034619132 0.289973 0.219934
-0.17008503034619132 0.267953 0.219934
-0.42825703034619134 0.324016 0.219934
-0.5232930303461913 0.242898 0.219934
-0.5321670303461913 0.305588 0.214558
-0.3167670303461913 0.32346 0.219934
-0.1335500303461913 0.241272 0.219934
-0.2727080303461913 0.281537 0.219934
-0.4956830303461913 0.318718 0.214558
-0.1365600303461913 0.203795 0.214558
-0.10357603034619131 0.341245 -0.249027
-0.3600370303461913 0.294211 -0.249027
-0.2350100303461913 0.331108 -0.249027
-0.48226303034619133 0.258071 -0.249027
-0.1288510303461913 0.251763 -0.243652
-0.4270740303461913 0.19198 -0.243652
-0.30363703034619133 0.233941 -0.243652
-0.5081530303461913 0.188993 -0.249027
-0.4560830303461913 0.316587 -0.249027
-0.1806050303461913 0.292389 -0.249027
-0.3827880303461913 0.236974 -0.243652
-0.5597090303461913 0.292117 -0.243652
-0.2358420303461913 0.229258 -0.243652
-0.3090470303461913 0.289017 -0.243652
-0.4327910303461913 0.251072 -0.249027
-0.2303990303461913 0.282484 -0.243652
-0.1762020303461913 0.243116 -0.249027
-0.08883703034619131 0.225432 -0.249027
-0.5050380303461913 0.299989 -0.249027
-0.5335820303461913 0.252291 -0.243652
-0.12847503034619132 0.296917 -0.243652
-0.3373120303461913 0.208547 -0.249027
-0.06725703034619132 0.320483 -0.249027
-0.1936000303461913 0.332235 -0.243652
-0.5667100303461914 0.191469 -0.243652
-0.1433140303461913 0.338414 -0.243652
-0.4035640303461913 0.276334 -0.243652
-0.1251100303461913 0.2124 -0.243652
-0.3876980303461913 0.318489 -0.243652
-0.1952400303461913 0.213926 -0.243652
-0.4247330303461913 0.330225 -0.243652
-0.4879630303461913 0.22468 -0.243652
-0.45477403034619135 0.283177 -0.249027
-0.3975920303461913 0.204535 -0.249027
-0.3546140303461913 0.251557 -0.249027
-0.5725650303461913 0.2627 -0.243652
-0.5285300303461913 0.318254 -0.243652
-0.4883760303461913 0.32472 -0.249027
-0.1531640303461913 0.224717 -0.249027
-0.5372920303461913 0.206145 -0.243652
-0.24987203034619132 0.304164 -0.249027
-0.2053190303461913 0.269665 -0.249027
-0.1557980303461913 0.262555 -0.249027
-0.2067810303461913 0.306901 -0.243652
-0.5075390303461913 0.272429 -0.249027
-0.0975400303461913 0.192859 -0.243652
-0.2999730303461913 0.263355 -0.243652
0.05025796965380869 0.21321 -0.243652
-0.2896200303461913 0.194664 -0.249027
-0.07324203034619131 0.203947 -0.243652
-0.1453650303461913 0.195468 -0.243652
-0.4404780303461913 0.225851 -0.249027
-0.5331240303461913 0.278601 -0.243652
-0.5064830303461914 0.246988 -0.243652
-0.22461203034619132 0.206116 -0.243652
-0.4081670303461913 0.247993 -0.243652
-0.4734710303461913 0.18841 -0.247725
-0.3854070303461913 0.34284 -0.249027
-0.34555303034619134 0.314358 -0.249027
-0.4163510303461913 0.22067 -0.249027
-0.1702860303461913 0.328418 -0.249027
-0.47397403034619134 0.300465 -0.249027
-0.3492770303461913 0.22911 -0.243652
-0.2007160303461913 0.236763 -0.243652
-0.1483120303461913 0.307627 -0.249027
-0.24889503034619131 0.265109 -0.249027
-0.3243580303461913 0.242095 -0.249027
-0.5586780303461913 0.328457 -0.249027
-0.43835303034619133 0.297523 -0.243652
-0.5465530303461913 0.235161 -0.249027
-0.3931660303461913 0.297309 -0.243652
-0.4561530303461913 0.339384 -0.249027
-0.3139100303461913 0.20602 -0.249027
-0.2767660303461913 0.33673 -0.249027
-0.3421890303461913 0.282662 -0.249027
-0.11717603034619131 0.234181 -0.243652
-0.0800880303461913 0.336817 -0.249027
-0.3181140303461913 0.32393 -0.243652
-0.1228590303461913 0.335111 -0.243652
-0.0796710303461913 0.242661 -0.243652
-0.2323490303461913 0.31148 -0.243652
-0.1617380303461913 0.280404 -0.243652
-0.2001010303461913 0.288868 -0.243652
0.04841896965380871 0.216354 -0.039784
0.04841896965380871 0.302572 0.089646
0.0537949696538087 0.234019 -0.15137
0.0537949696538087 0.235844 0.165261
0.04841896965380871 0.30494 -0.077381
0.0537949696538087 0.214021 0.054778
0.0537949696538087 0.310912 0.006759
0.0537949696538087 0.311497 -0.150578
0.0537949696538087 0.298376 0.15226
0.0537949696538087 0.192342 0.113478
0.0537949696538087 0.258229 0.020919
0.04841896965380871 0.224162 -0.092541
0.04841896965380871 0.274511 -0.112831
0.0537949696538087 0.272993 -0.175969
0.0537949696538087 0.279045 -0.041914
0.0537949696538087 0.235248 0.10516
0.0537949696538087 0.333811 0.049319
0.0537949696538087 0.286761 0.049271
0.0537949696538087 0.333454 -0.109632
0.04841896965380871 0.226385 -0.200802
0.04841896965380871 0.262431 -0.077749
0.04841896965380871 0.266637 0.083338
0.0537949696538087 0.327223 -0.040837
0.04841896965380871 0.295675 -0.203317
0.0537949696538087 0.269141 -0.009922
0.04841896965380871 0.279673 0.12628
0.04841896965380871 0.220599 0.137757
0.04841896965380871 0.196385 0.083445
0.0537949696538087 0.239468 -0.118526
0.04841896965380871 0.246595 -0.036531
0.04841896965380871 0.313366 0.118055
0.04841896965380871 0.264497 0.158276
0.04841896965380871 0.333909 0.149881
0.0537949696538087 0.233149 0.005515
0.05366396965380871 0.18841 0.171989
0.0537949696538087 0.23605 0.073414
0.0537949696538087 0.250109 0.129277
0.04841896965380871 0.244503 -0.181422
0.0537949696538087 0.216182 -0.067858
0.0537949696538087 0.299758 -0.111442
0.053059969653808714 0.343156 -0.066119
0.052892969653808686 0.18841 0.053221
0.04841896965380871 0.233322 0.040474
0.04841896965380871 0.304686 -0.048518
0.04841896965380871 0.209795 0.161644
0.04841896965380871 0.214738 -0.114734
0.04853896965380872 0.343156 0.114284
0.04841896965380871 0.256133 -0.159149
0.0537949696538087 0.213254 -0.016857
0.04841896965380871 0.261268 -0.132469
0.04841896965380871 0.321764 -0.013427
0.04841896965380871 0.280686 0.00984
0.04841896965380871 0.317781 0.033744
0.0537949696538087 0.322109 -0.090955
0.04841896965380871 0.238298 -0.218599
0.0537949696538087 0.214964 0.092059
0.0537949696538087 0.225551 -0.173701
0.04841896965380871 0.311642 0.166649
0.0537949696538087 0.237048 -0.07786
0.04841896965380871 0.296861 -0.163253
0.04841896965380871 0.22104 -0.133641
0.0537949696538087 0.287342 0.068764
0.0537949696538087 0.285013 0.028018
0.0537949696538087 0.28808 -0.070244
0.04841896965380871 0.299604 -0.007635
-0.08823103034619131 0.18841 0.174612
-0.40291003034619133 0.18514 -0.133914
-0.1712840303461913 0.18841 -0.089255
-0.4283240303461913 0.18514 0.091762
-0.2381880303461913 0.18841 0.07672
-0.061903030346191296 0.18841 0.023987
-0.4908350303461913 0.18841 -0.032462
-0.2781330303461913 0.18514 -0.159607
-0.3380450303461913 0.18514 -0.029002
-0.04299303034619131 0.18841 -0.112705
-0.3127760303461913 0.18514 0.163209
-0.1863820303461913 0.18514 -0.207797
-0.15986303034619131 0.18514 0.012942
-0.4970560303461913 0.18514 -0.176839
-0.3347470303461913 0.18841 0.066087
-0.2471570303461913 0.18514 -0.023908
-0.1508090303461913 0.18514 0.108761
-0.016729030346191304 0.18841 0.121644
-0.2339170303461913 0.18514 0.215834
-0.5042180303461913 0.18841 0.067967
-0.4140240303461913 0.18514 -0.010559
-0.09420203034619132 0.18841 -0.174362
-0.019008030346191307 0.18514 -0.034153
-0.4771660303461913 0.18841 0.146233
-0.022863030346191304 0.18514 -0.182881
-0.4051160303461913 0.18841 0.159005
-0.32695103034619133 0.18514 -0.108519
-0.24382203034619132 0.18514 0.146846
-0.11210503034619132 0.18514 -0.052649
-0.4987280303461913 0.18514 -0.108051
-0.3520170303461913 0.18514 -0.179754
-0.2519800303461913 0.18841 -0.09889
-0.1802600303461913 0.18514 0.180655
-0.4314790303461913 0.18841 -0.071932
-0.1086170303461913 0.18514 -0.11246
-0.1837850303461913 0.18841 -0.14828
-0.08623603034619132 0.18841 0.115214
-0.2852880303461913 0.18841 0.033534
-0.4698820303461913 0.18841 0.020909
-0.3734510303461913 0.18841 -0.078224
-0.1171640303461913 0.18514 0.064586
-0.36649803034619133 0.18841 0.10992
-0.48187703034619134 0.18841 0.204012
-0.1928250303461913 0.18514 -0.040065
-0.3879000303461913 0.18514 0.035972
-0.2932190303461913 0.18514 -0.065478
-0.5424030303461913 0.18514 -0.149702
-0.4464500303461913 0.18514 -0.190878
-0.2273260303461913 0.18841 0.025553
-0.048359030346191295 0.18841 0.081102
-0.2336450303461913 0.18841 -0.18988
-0.1120820303461913 0.18841 -0.000489
-0.1948250303461913 0.18514 0.130889
-0.06137103034619132 0.18841 -0.215099
-0.1408650303461913 0.18514 -0.188402
-0.5272460303461913 0.18514 0.12739
-0.3091210303461913 0.18841 0.107547
-0.1897630303461913 0.18514 0.073036
-0.000776030346191281 0.18514 -0.134084
-0.13419103034619131 0.18514 0.175178
-0.3169540303461913 0.18841 -0.216677
-0.3868040303461913 0.18841 -0.222292
-0.011124030346191305 0.18841 0.011512
-0.4453820303461913 0.18841 -0.115015
0.0458319696538087 0.18514 -0.007354
-0.5342600303461913 0.18841 -0.207357
-0.06749603034619131 0.18514 -0.050706
-0.4707060303461913 0.18841 0.10009
-0.3978320303461913 0.18514 -0.176438
-0.2175760303461913 0.18514 -0.122851
0.02570796965380867 0.18841 -0.203459
-0.2866190303461913 0.18514 -0.011592
-0.21121503034619132 0.18841 -0.080103
-0.3546770303461913 0.18841 -0.138427
-0.1396660303461913 0.18841 -0.147649
-0.4328250303461913 0.18841 0.188843
0.008242969653808718 0.18841 -0.074317
-0.5445090303461912 0.18841 0.053169
-0.5177460303461914 0.18514 -0.064943
-0.5275560303461913 0.18514 -0.019094
-0.31726803034619133 0.18514 -0.158732
-0.3444300303461913 0.18514 0.028523
-0.19720003034619132 0.18514 0.001139
-0.3718890303461913 0.18841 0.178788
-0.4749340303461913 0.18514 -0.145272
0.05345196965380872 0.18841 -0.079495
-0.15520503034619132 0.18514 -0.033652
0.049360969653808706 0.18841 -0.130071
-0.00643903034619131 0.18841 0.06296
-0.3298410303461913 0.18841 -0.068648
-0.5080210303461913 0.18841 0.166388
-0.4558920303461913 0.18841 -0.021239
-0.2952850303461913 0.18514 0.068647
-0.1284400303461913 0.18841 0.139508
-0.2768840303461913 0.18841 0.124131
-0.2787260303461913 0.18841 0.173855
-0.2498240303461913 0.18841 -0.137955
-0.3726340303461913 0.18514 -0.020584
-0.1342390303461913 0.18514 -0.088003
-0.48012803034619134 0.18514 -0.066053
-0.1546080303461913 0.18514 0.06918
-0.0680950303461913 0.18841 -0.150678
-0.03819703034619132 0.18841 -0.077951
-0.4523230303461913 0.18514 0.051038
-0.5058180303461913 0.18514 0.009549
-0.2373160303461913 0.18514 -0.057401
-0.3526180303461913 0.18514 -0.214233
-0.40257603034619127 0.18514 -0.053478
-0.2383940303461913 0.18841 0.11322
-0.1334000303461913 0.18841 0.034187
-0.4230480303461913 0.18841 0.130043
-0.21373203034619132 0.18514 0.162693
-0.28560503034619134 0.18841 -0.103114
-0.1780040303461913 0.18514 0.041155
-0.2609690303461913 0.18514 0.010825
-0.2795850303461913 0.18841 -0.192737
-0.34077103034619133 0.18841 0.145697
-0.2462270303461913 0.18841 0.180397
-0.20501803034619132 0.18514 -0.173659
-0.0850860303461913 0.18841 0.070475
-0.4409340303461913 0.18841 -0.147164
-0.39942803034619134 0.18514 0.078378
-0.027664030346191304 0.18514 0.039601
-0.5706810303461913 0.18841 -0.080262
0.0531559696538087 0.18514 -0.219754
-0.3223140303461913 0.18841 -0.002219
-0.3716960303461913 0.18514 0.147282
-0.4779820303461913 0.18514 -0.202872
-0.3543850303461913 0.18841 0.204503
-0.2956230303461913 0.18514 -0.131989
-0.5739260303461913 0.18815 -0.043709
-0.1629300303461913 0.18514 0.136289
-0.3641030303461913 0.18841 -0.049641
-0.2660140303461913 0.18514 0.062598
-0.05154103034619131 0.18841 0.146669
-0.4248150303461913 0.18841 0.016805
-0.3631030303461913 0.18841 -0.242776
-0.2045900303461913 0.18514 0.217644
-0.0824490303461913 0.18841 0.003016
-0.025547030346191296 0.18841 -0.154259
-0.1534700303461913 0.18841 -0.122425
-0.5255240303461913 0.18841 -0.176777
-0.48719703034619133 0.18514 0.045187
-0.4701180303461913 0.18514 0.178148
-0.3763490303461913 0.18841 -0.120029
-0.06600703034619132 0.18514 -0.096419
-0.4575260303461913 0.18841 0.218471
-0.4808680303461913 0.18841 -0.005987
-0.5551760303461912 0.18841 0.135216
-0.26212503034619133 0.18841 0.097844
-0.5618860303461913 0.18841 0.101108
-0.09470303034619132 0.18841 -0.074534
-0.0507240303461913 0.18841 -0.181489
-0.11900303034619131 0.18841 0.092308
-0.3123750303461913 0.18514 0.046801
-0.5159460303461914 0.18841 0.093278
-0.3381680303461913 0.18514 0.093396
-0.2540330303461913 0.18841 0.037236
0.026846969653808672 0.18514 0.118736
-0.3611260303461913 0.18514 0.060355
-0.42291003034619135 0.18514 -0.100067
0.023347969653808698 0.18841 0.076794
0.010128969653808717 0.18514 -0.03862
-0.07951503034619131 0.18514 0.141183
-0.0879910303461913 0.18514 -0.218022
0.01756796965380869 0.18841 -0.009365
-0.4985850303461913 0.18841 0.130349
-0.45771203034619135 0.18841 0.076845
0.023371969653808666 0.18841 -0.113306
-0.0513630303461913 0.18841 0.050831
-0.1855830303461913 0.18841 -0.067112
-0.32048603034619133 0.18841 -0.184538
-0.3922070303461913 0.18514 0.107007
-0.03774403034619131 0.18841 -0.016534
-0.1413660303461913 0.18514 -0.055561
-0.1731320303461913 0.18514 -0.185601
-0.5367940303461913 0.18841 0.028541
-0.2598570303461913 0.18841 -0.074414
-0.5714410303461913 0.18514 0.004565
-0.3506640303461913 0.18841 -0.090026
-0.44299003034619133 0.18841 0.112457
-0.0326590303461913 0.18514 -0.206443
0.029052969653808713 0.18841 -0.149098
-0.4231470303461913 0.18841 -0.165168
-0.0016320303461913044 0.18514 -0.206263
-0.4708650303461913 0.18514 -0.089477
-0.5095880303461913 0.18841 0.034288
-0.2229420303461913 0.18514 0.132577
-0.4637820303461913 0.18841 -0.173228
0.009419969653808702 0.18841 0.101362
-0.1214110303461913 0.18514 -0.203607
0.036294969653808684 0.18841 -0.02984
-0.045151030346191307 0.18514 -0.136871
-0.34623803034619133 0.18514 0.181716
0.034796969653808685 0.18514 -0.064083
-0.4316860303461913 0.18841 0.164472
-0.3291260303461913 0.18514 -0.2428
-0.3946120303461913 0.18514 -0.089615
-0.5120680303461913 0.18514 -0.216319
0.04145196965380871 0.18514 0.137855
-0.4108080303461913 0.18841 -0.221049
-0.2274910303461913 0.18841 -0.010574
-0.2524410303461913 0.18841 -0.175034
-0.27245103034619134 0.18841 -0.127104
-0.2755830303461913 0.18514 0.150418
-0.5668300303461913 0.18514 -0.195369
-0.5432100303461913 0.18514 -0.079861
-0.4959530303461913 0.18514 -0.131666
-0.08142903034619131 0.18841 0.047028
-0.3131220303461913 0.18514 0.084218
-0.3821590303461913 0.18841 -0.144492
-0.06869903034619132 0.18514 -0.119784
-0.2607630303461913 0.18514 -0.051159
-0.0418680303461913 0.18514 0.103447
-0.09474803034619131 0.18514 -0.016725
-0.1112270303461913 0.18514 0.124032
-0.2159500303461913 0.18514 -0.036789
-0.2773340303461913 0.18841 -0.032756
-0.019969030346191297 0.18514 -0.111298
-0.44309803034619133 0.18514 0.002779
-0.1910740303461913 0.18841 -0.234727
-0.5216160303461913 0.18841 -0.108928
-0.4004930303461913 0.18514 0.133736
-0.0745120303461913 0.18841 -0.196163
-0.1272780303461913 0.18841 -0.12541
-0.5077200303461913 0.18514 0.211951
0.01960196965380867 0.18841 0.044108
-0.4352210303461913 0.18514 0.214646
-0.4705240303461913 0.18514 -0.042004
-0.004348030346191301 0.18841 -0.014857
-0.3060770303461913 0.18514 0.025184
-0.4542260303461913 0.18514 -0.07436
-0.2342190303461913 0.18841 0.047619
-0.3005510303461913 0.18841 0.128014
-0.20613203034619132 0.18841 -0.058628
-0.2591900303461913 0.18841 -0.201131
-0.3286780303461913 0.18841 0.127284
0.038461969653808714 0.18514 -0.0953
0.0020979696538087067 0.18841 -0.108132
-0.1350680303461913 0.18841 -0.025812
-0.021338030346191306 0.18514 -0.055785
-0.4657170303461913 0.18514 -0.121495
-0.3674680303461913 0.18841 0.029974
-0.3927820303461913 0.18514 -0.007106
-0.09683403034619131 0.18841 -0.19868
-0.3601840303461913 0.18841 -0.003357
-0.1204090303461913 0.18514 -0.181857
-0.1596080303461913 0.18514 -0.071666
-0.5402960303461912 0.18514 0.188222
-0.5416830303461913 0.18514 0.111709
-0.4857060303461913 0.18514 -0.228255
-0.026845030346191318 0.18514 0.088459
-0.09791403034619131 0.18841 0.094161
-0.3531560303461913 0.18514 0.128879
-0.49555603034619133 0.18514 -0.15579
-0.4914430303461913 0.18841 0.103855
-0.5117580303461913 0.18514 -0.085128
-0.0711830303461913 0.18514 -0.175632
-0.5110420303461913 0.18841 -0.19214
-0.4458840303461913 0.18841 0.031406
-0.3223840303461913 0.18841 -0.138761
-0.17039403034619133 0.18514 -0.053202
-0.1661190303461913 0.18841 -0.211417
-0.40339303034619134 0.18514 -0.244583
-0.03691403034619131 0.18514 0.124907
-0.2316420303461913 0.18514 0.19527
-0.3142020303461913 0.18514 -0.092229
-0.04743803034619132 0.18841 -0.054259
-0.5270450303461913 0.18841 0.01059
-0.5221010303461913 0.18514 -0.151091
-0.03500503034619132 0.18841 0.003526
0.008588969653808676 0.18514 0.162881
-0.1703210303461913 0.18514 0.113991
-0.1367660303461913 0.18514 0.08338
-0.2539100303461913 0.18514 0.218115
-0.0030560303461912852 0.18514 -0.153995
-0.2819400303461913 0.18841 0.193619
0.03641296965380869 0.18514 0.162378
-0.2972540303461913 0.18841 -0.213373
-0.3908110303461913 0.18514 0.173331
-0.5395860303461912 0.187078 -0.249027
-0.3331280303461913 0.18514 -0.049391
-0.1241340303461913 0.18514 -0.223143
0.03339696965380867 0.18514 -0.225751
-0.20721203034619132 0.18841 0.081236
-0.1150880303461913 0.18841 -0.090085
-0.3925420303461913 0.18514 0.054937
-0.20077903034619132 0.18841 -0.096581
-0.3731150303461913 0.18514 0.200648
0.01733396965380868 0.18841 -0.164545
-0.4384620303461913 0.18841 -0.228387
-0.5718880303461913 0.18514 0.08037
-0.2599420303461913 0.18514 0.136485
-0.17524703034619132 0.18841 -0.165307
-0.3326570303461913 0.18841 0.047168
-0.7398971816794737 0.395006 0.098781
-0.7398971816794737 0.429605 0.051991
-0.7398971816794737 0.454568 0.120687
-0.7452731816794738 0.378719 0.056356
-0.7398971816794737 0.398968 0.13796
-0.7452731816794738 0.428371 0.103631
-0.7452731816794738 0.375202 -0.247735
-0.7398971816794737 0.423212 0.134177
-0.7452731816794738 0.464182 0.044117
-0.7452731816794738 0.374907 0.079459
-0.7424261816794737 0.366042 0.135079
-0.7398971816794737 0.390408 0.040946
-0.3296931816794737 0.466428 0.219934
-0.18300018167947368 0.395362 0.219934
-0.32519218167947367 0.397875 0.214558
-0.16028218167947367 0.43804 0.219934
-0.3673141816794737 0.421592 0.214558
-0.45341418167947367 0.401794 0.214558
-0.2293241816794737 0.397165 0.219934
-0.1462821816794737 0.373719 0.219934
-0.4932201816794737 0.40196 0.214558
-0.3963401816794737 0.39548 0.219934
-0.3822131816794737 0.455816 0.219934
-0.3372291816794737 0.429723 0.219934
-0.3620091816794737 0.488898 0.219934
-0.19801518167947368 0.419887 0.214558
-0.2755051816794737 0.381046 0.219934
-0.4762671816794737 0.379919 0.219934
-0.4687091816794737 0.470928 0.219934
-0.4080881816794737 0.468046 0.214558
-0.2979981816794737 0.418594 0.214558
-0.12292818167947367 0.407279 0.21789
-0.4284951816794737 0.410673 0.214558
-0.35758118167947367 0.448829 0.214558
-0.4947711816794737 0.456406 0.214558
-0.16836118167947367 0.415078 0.214558
-0.25221518167947365 0.381544 0.214558
-0.5142811816794737 0.430955 0.214558
-0.38388718167947367 0.477663 0.214558
-0.4519531816794737 0.456611 0.219934
-0.4498741816794737 0.422612 0.219934
-0.41926618167947366 0.485858 0.219934
-0.3048381816794737 0.394892 0.214558
-0.20294818167947368 0.390799 0.219934
-0.5099431816794737 0.412056 0.219934
-0.3378761816794737 0.44835 0.214558
-0.3538751816794737 0.446188 -0.249027
-0.1959161816794737 0.418911 -0.243652
-0.5765661816794737 0.458868 -0.243652
-0.3423371816794737 0.373513 -0.249027
-0.4217421816794737 0.439979 -0.243652
-0.5353201816794737 0.413025 -0.249027
-0.4798231816794737 0.484495 -0.243652
-0.2949071816794737 0.385233 -0.243652
-0.5272651816794737 0.459654 -0.243652
-0.46375318167947366 0.412632 -0.243652
-0.3968341816794737 0.376166 -0.243652
-0.1608331816794737 0.389779 -0.243652
-0.5883271816794737 0.409245 -0.249027
-0.3133771816794737 0.428148 -0.243652
-0.38384818167947365 0.48202 -0.249027
-0.48590718167947367 0.445456 -0.249027
-0.2601971816794737 0.402256 -0.243652
-0.6937591816794737 0.370878 -0.249027
-0.4505891816794737 0.462457 -0.249027
-0.4223231816794737 0.402072 -0.243652
-0.2002691816794737 0.375917 -0.243652
-0.4999311816794737 0.406684 -0.249027
-0.2259191816794737 0.399593 -0.243652
-0.2405961816794737 0.433778 -0.249027
-0.3462191816794737 0.415515 -0.243652
-0.19551618167947368 0.450644 -0.243652
-0.5673431816794736 0.386734 -0.249027
-0.4487341816794737 0.379599 -0.243652
-0.35641518167947367 0.493385 -0.249027
-0.5361601816794737 0.489116 -0.249027
-0.1339851816794737 0.410287 -0.249027
-0.6125371816794737 0.461442 -0.249027
-0.4230291816794737 0.468368 -0.243652
-0.6117031816794737 0.395208 -0.243652
-0.3796601816794737 0.448088 -0.249027
-0.4517391816794737 0.437418 -0.243652
-0.5297111816794737 0.366042 -0.245642
-0.40028818167947366 0.414857 -0.243652
-0.3186791816794737 0.393384 -0.243652
-0.4435411816794737 0.500217 -0.243652
-0.3623451816794737 0.389448 -0.249027
-0.5003731816794736 0.472712 -0.249027
-0.18387418167947367 0.393665 -0.249027
-0.3643631816794737 0.466857 -0.243652
-0.21429818167947368 0.436102 -0.243652
-0.1506061816794737 0.36622 -0.243652
-0.5712461816794737 0.438316 -0.249027
-0.6366131816794737 0.388006 -0.249027
-0.1736751816794737 0.442224 -0.249027
-0.3204191816794737 0.493277 -0.249027
-0.5137741816794736 0.391429 -0.243652
