0.639889 -0.143503 -0.216782
0.662915 -0.009117 0.097134
0.662915 -0.627402 -0.178261
0.662915 0.437167 -0.130943
0.639889 -0.380633 0.214745
0.662915 -0.474586 -0.227956
0.639889 -0.457541 0.182091
0.639889 -0.260442 -0.030967
0.639889 0.63579 -0.044462
0.639889 0.390655 0.040681
0.639889 0.185069 -0.137161
0.639889 -0.483313 -0.107478
0.639889 0.415032 0.196352
0.639889 0.425174 0.150334
0.639889 -0.181007 -0.088807
0.639889 -0.315424 0.197342
0.662915 0.190092 -0.0561
0.662915 0.20633 0.086549
0.662915 -0.182839 -0.25854
0.662915 0.548992 0.094601
0.662915 -0.33521 0.110884
0.662915 0.090201 0.131214
0.639889 -0.524432 0.0535
0.639889 0.534554 -0.158285
0.662915 0.169821 0.011682
0.662915 0.059364 0.186424
0.639889 0.453012 -0.206954
0.639889 0.429539 -0.03435
0.639889 -0.283183 0.103205
0.662915 -0.056571 0.169476
0.639889 -0.228531 -0.087548
0.639889 -0.444512 0.114186
0.662915 0.25816 -0.047295
0.662915 0.116596 0.004963
0.639889 0.292758 -0.225295
0.662915 0.082592 -0.134403
0.662915 -0.365641 -0.084119
0.639889 -0.062616 0.018215
0.662915 0.029284 -0.215333
0.662915 -0.485682 0.010145
0.639889 -0.234957 0.182401
0.639889 -0.146346 0.211288
0.639889 -0.084309 -0.095464
0.662915 0.330171 0.012437
0.639889 -0.011691 -0.039812
0.662915 0.604685 -0.026679
0.662915 -0.271703 -0.155102
0.639889 -0.52081 0.168914
0.639889 0.301131 0.188883
0.639889 0.167354 0.183835
0.662915 0.294315 -0.16989
0.662915 0.435872 0.206669
0.639889 0.321448 -0.047749
0.662915 -0.249399 -0.122996
0.639889 0.406866 -0.065481
0.639889 -0.386203 -0.096687
0.662915 -0.194714 0.02965
0.662915 -0.591681 -0.224977
0.639889 -0.200037 -0.151499
0.639889 0.151763 -0.236714
0.639889 -0.619116 0.040462
0.639889 0.194836 0.135031
0.639889 -0.598418 -0.039964
0.639889 0.525855 -0.255343
0.639889 -0.347883 0.174443
0.639889 -0.077637 0.110681
0.639889 -0.057511 -0.066975
0.639889 -0.656798 -0.051009
0.639889 -0.420077 -0.130792
0.662915 0.327806 0.09376
0.639889 -0.633009 0.082348
0.662915 0.02939 -0.133446
0.662915 -0.126502 -0.064588
0.639889 0.61788 -0.076566
0.639889 -0.326676 -0.009293
0.662915 0.620772 0.08557
0.639889 -0.431563 0.143986
0.662915 0.152301 0.115101
0.662915 0.503972 -0.115439
0.662915 0.38965 -0.135244
0.639889 0.476568 -0.228186
0.662915 0.306941 -0.244361
0.662915 0.538151 -0.092379
0.662915 -0.395247 -0.069545
0.662915 -0.441072 0.087698
0.662915 0.234884 -0.228467
0.662915 -0.112814 0.017169
0.662915 -0.317208 -0.136494
0.639889 0.179701 0.226978
0.662915 -0.256639 -0.243093
0.639889 0.252329 -0.117267
0.639889 -0.277315 -0.079103
0.662915 -0.206759 0.198025
0.639889 -0.095611 -0.196146
0.662915 0.441345 0.011629
0.662915 0.263541 0.017042
0.639889 0.028468 0.133435
0.639889 0.527256 0.178595
0.662915 0.530298 -0.18671
0.639889 -0.537533 -0.122159
0.639889 -0.311214 -0.258972
0.662915 0.074379 -0.012318
0.639889 -0.111773 -0.126846
0.662915 0.339733 -0.241189
0.639889 -0.598058 -0.113106
0.662915 -0.012575 -0.229335
0.662915 -0.464811 0.16281
0.662915 -0.633598 0.158677
0.662915 -0.383845 -0.244576
0.639889 -0.553169 0.042528
0.639889 0.452764 0.057538
0.662915 0.100836 -0.097481
0.662915 0.598446 0.030215
0.662915 -0.303441 0.104365
0.639889 0.385437 -0.216025
0.639889 0.337468 0.064534
0.662915 -0.206611 -0.234014
0.662915 0.075062 -0.049932
0.662915 -0.369472 0.175025
0.639889 -0.118693 -0.004595
0.639889 -0.047132 -0.116985
0.662915 0.480721 0.144306
0.639889 -0.373714 -0.031333
0.662915 -0.213445 -0.002289
0.639889 0.425665 -0.182144
0.662915 -0.212334 0.129905
0.662915 -0.236211 0.073592
0.639889 -0.420409 0.08537
0.639889 -0.164978 0.111737
0.639889 -0.246451 -0.219305
0.662915 0.465759 -0.083386
0.662915 0.47148 0.213226
0.639889 -0.546898 0.080022
0.662915 0.568255 0.049608
0.639889 0.072936 -0.081578
0.639889 0.316894 -0.11314
0.639889 -0.18917 0.169078
0.639889 -0.01388 -0.154018
0.662915 -0.467738 0.053031
0.662915 0.565 0.14537
0.662915 0.333964 -0.15786
0.639889 -0.415133 0.036535
0.662915 0.604677 -0.263605
0.639889 -0.067952 0.13962
0.662915 0.048387 -0.073318
0.639889 0.480391 0.004808
0.639889 -0.087088 0.227775
0.639889 0.362858 -0.029803
0.639889 0.443435 0.089404
0.662915 -0.235339 -0.069144
0.662915 -0.606464 -0.003051
0.639889 0.215711 0.002414
0.639889 0.590183 -0.20784
0.662915 -0.163712 -0.186734
0.662915 -0.554843 -0.112704
0.639889 -0.468449 -0.00805
0.639889 0.285115 -0.03291
0.662915 0.197274 0.058343
0.639889 0.127636 0.134571
0.639889 -0.260353 0.077761
0.639889 0.016863 -0.068276
0.639889 -0.328639 -0.20853
0.662915 -0.107352 0.108758
0.662915 -0.372907 0.105074
0.639889 0.448247 -0.07825
0.639889 -0.434228 -0.177815
0.639889 -0.461645 -0.215207
0.639889 0.077955 0.012095
0.662915 0.157848 -0.205236
0.639889 0.641291 0.012959
0.662915 -0.571851 0.047504
0.662915 0.097805 -0.200673
0.639889 -0.550178 0.007286
0.662915 -0.023021 0.124767
0.662915 -0.129629 0.071383
0.639889 -0.312944 0.158079
0.662915 0.096025 0.044749
0.639889 0.202169 0.199335
0.662915 -0.54161 0.097176
0.662915 -0.070846 0.094477
0.662915 -0.588032 -0.095036
0.662915 0.631216 -0.005356
0.662915 0.23272 0.098435
0.639889 -0.362163 0.089171
0.639889 0.508578 0.103783
0.662915 0.433679 -0.016176
0.662915 -0.622931 -0.216773
0.662915 -0.102354 -0.144778
0.639889 -0.100158 0.145989
0.662915 -0.664572 -0.141134
0.639889 0.193332 -0.034607
0.662915 0.3033 0.035696
0.639889 0.09427 0.066312
0.639889 -0.629339 0.182228
0.639889 0.619397 -0.124041
0.662915 0.536583 0.220654
0.639889 -0.022814 0.205866
0.662915 -0.029479 -0.048555
0.662915 -0.563289 0.201784
0.662915 -0.362802 0.028412
0.639889 -0.087382 0.083843
0.662915 0.038166 -0.018005
0.639889 0.221807 -0.144541
0.639889 -0.352851 -0.118465
0.662915 0.520756 -0.221753
0.639889 -0.058066 -0.18911
0.639889 -0.424795 0.180485
0.662915 -0.543268 0.173589
0.639889 0.041008 0.107936
0.639889 0.015262 -0.239475
0.662915 -0.335414 -0.179701
0.639889 -0.373366 0.052697
0.662915 0.600655 -0.09718
0.662915 0.070161 0.063922
0.662915 -0.064994 0.219299
0.662915 0.026697 0.216019
0.639889 -0.567359 -0.068786
0.639889 -0.239673 0.120846
0.639889 -0.560933 -0.144054
0.639889 0.039362 0.159402
0.639889 0.1068 -0.168066
0.639889 -0.161299 0.186382
0.662915 -0.00169 -0.196186
0.662915 -0.333434 0.05904
0.639889 0.336318 -0.006885
0.639889 -0.1204 0.223579
0.639889 0.095087 -0.218091
0.639889 0.595327 -0.046095
0.662915 0.477421 0.068861
0.639889 0.044122 0.015212
0.662915 0.067221 -0.254693
0.639889 -0.553081 -0.040844
0.639889 -0.538225 -0.236974
0.662915 0.43825 -0.198948
0.662915 -0.219272 -0.104264
0.662915 -0.381037 -0.045299
0.662915 0.320589 -0.032026
0.662915 0.433944 -0.260931
0.662915 -0.528419 -0.012906
0.662915 0.28758 -0.048426
0.639889 -0.038146 0.18259
0.662915 -0.405553 -0.136669
0.662915 -0.388662 -0.188726
0.639889 0.473414 -0.168043
0.639889 -0.36532 -0.000909
0.662915 0.181406 -0.016296
0.662915 -0.624637 -0.149343
0.662915 -0.166415 -0.009019
0.639889 0.105094 0.220525
0.639889 0.348478 -0.152654
0.662915 0.054627 -0.162713
0.639889 0.01819 -0.185847
0.662915 -0.294556 -0.006648
0.639889 0.518615 0.072723
0.662915 0.512396 -0.080609
0.639889 -0.353068 0.212893
0.639889 -0.404388 -0.208453
0.639889 0.363534 0.008483
0.639889 0.509189 0.147255
0.639889 -0.13781 -0.036701
0.639889 -0.635214 -0.234871
0.639889 0.187617 -0.224985
0.662915 0.180824 -0.095763
0.662915 -0.407662 0.141134
0.639889 -0.182833 -0.224926
0.662915 0.000463 -0.141625
0.662915 0.344527 -0.068079
0.639889 -0.499593 -0.129299
0.662915 -0.521436 -0.229058
0.662915 -0.13308 -0.002787
0.639889 -0.119161 0.181961
0.639889 -0.008854 -0.183202
0.662915 -0.190747 -0.199425
0.662915 -0.518448 -0.154684
0.639889 0.112304 -0.106156
0.639889 -0.220393 -0.169943
0.662915 0.276964 0.169445
0.639889 0.52623 -0.019724
0.639889 0.014644 -0.09827
0.662915 -0.2058 0.090225
0.639889 -0.663075 0.130233
0.662915 -0.052549 0.142783
0.639889 -0.081189 -0.171204
0.639889 0.365343 0.146963
0.639889 0.253621 0.140819
0.639889 -0.371792 0.188865
0.662915 0.279941 -0.126782
0.662915 -0.663328 -0.038609
0.662915 -0.074274 -0.005367
0.639889 -0.210674 0.116034
0.662915 -0.093889 0.161874
0.662915 0.364644 -0.046901
0.639889 0.248136 0.009537
0.662915 -0.189561 -0.1008
0.639889 0.540159 -0.232489
0.662915 0.004747 0.027726
0.662915 -0.574725 0.140232
0.639889 -0.195859 -0.066535
0.639889 0.553877 -0.04989
0.662915 -0.35439 -0.02518
0.662915 -0.245726 0.190577
0.662915 -0.052508 0.075112
0.639889 -0.645154 0.046198
0.639889 -0.339212 0.149248
0.662915 0.566098 -0.074325
0.662915 0.113527 -0.052992
0.662915 0.425488 -0.072758
0.639889 0.380201 0.096675
0.662915 -0.592869 -0.052779
0.662915 -0.542423 -0.250654
0.639889 -0.116741 0.073389
0.662915 0.394166 -0.068415
0.662915 0.273598 0.084206
0.662915 0.305514 0.003068
0.662915 0.463244 -0.252695
0.639889 -0.234836 -0.243263
0.662915 0.388054 -0.022699
0.639889 -0.613258 -0.159982
0.662915 -0.491109 0.087487
0.639889 0.059181 0.227126
0.639889 -0.588401 -0.172445
0.639889 0.127001 -0.19716
0.662915 0.00887 0.162876
0.639889 0.516135 -0.117638
0.662915 0.643934 0.119465
0.639889 -0.416282 -0.256982
0.662915 0.361302 -0.226462
0.662915 0.161236 -0.033387
0.662915 -0.339751 -0.213829
0.662915 -0.06804 -0.133944
0.639889 -0.174741 -0.192102
0.662915 -0.646312 -0.09795
0.639889 -0.505024 -0.044884
0.639889 -0.420207 -0.006427
0.639889 0.554147 -0.18661
0.639889 -0.022592 0.07235
0.639889 -0.600211 0.100127
0.662915 -0.128112 -0.1485
0.662915 0.452747 0.153975
0.639889 -0.444969 -0.065402
0.639889 -0.17407 -0.150256
0.662915 -0.610972 0.031612
0.639889 -0.194865 0.196592
0.639889 -0.060683 0.088207
0.662915 -0.084143 -0.218352
0.639889 0.288652 0.04833
0.639889 -0.058613 -0.032539
0.639889 -0.585612 0.164175
0.639889 0.29463 0.082676
0.662915 0.213503 -0.152728
0.639889 -0.441542 -0.038348
0.662915 -0.299981 -0.252983
0.639889 0.61476 0.020891
0.639889 0.311867 -0.086104
0.639889 0.295293 0.163805
0.662915 -0.128657 0.142953
0.639889 0.502315 0.172228
0.639889 0.099345 -0.049691
0.662915 0.582476 -0.039642
0.662915 -0.547906 -0.079076
0.639889 0.038016 -0.11216
0.662915 0.595513 0.195611
0.639889 0.338169 0.133846
0.662915 -0.005648 -0.024983
0.662915 -0.607646 0.155766
0.662915 0.468772 -0.219996
0.639889 0.13771 0.110981
0.662915 0.53131 -0.063305
0.639889 0.510164 -0.039688
0.662915 0.352918 0.223465
0.639889 0.357685 -0.250021
0.662915 0.046757 0.085184
0.662915 0.089004 0.010743
0.662915 0.054868 -0.193084
0.662915 0.26557 -0.240786
0.662915 0.244319 0.036217
0.662915 0.382021 0.184824
0.662915 -0.440242 -0.204109
0.662915 -0.281613 0.152222
0.662915 -0.279835 0.207301
0.662915 0.083116 -0.077918
0.639889 0.191491 -0.005363
0.639889 -0.451498 -0.12942
0.639889 0.278969 -0.089965
0.662915 -0.476375 0.134001
0.639889 0.386056 -0.051052
0.639889 0.238354 -0.036372
0.639889 -0.101556 -0.236547
0.639889 -0.530437 0.218831
0.662915 0.411561 -0.217748
0.639889 -0.013357 -0.108806
0.639889 0.583751 -0.002974
0.639889 -0.270168 0.037314
0.639889 0.249685 0.057581
0.662915 -0.174391 0.228813
0.639889 -0.164151 0.052649
0.639889 0.266313 -0.184603
0.639889 0.061205 -0.176429
0.662915 -0.573549 0.084929
0.639889 -0.112591 -0.093515
0.662915 0.117812 -0.145653
0.662915 0.442922 0.058581
0.639889 0.448568 0.018251
0.639889 0.024474 -0.158703
0.662915 -0.39433 0.117986
0.662915 0.144881 -0.166341
0.662915 0.418738 0.224779
0.662915 -0.441618 -0.237235
0.639889 0.109467 0.117555
0.639889 0.534219 0.034183
0.662915 -0.490385 0.174931
0.639889 0.468656 0.110935
0.639889 0.417339 0.126751
0.662915 0.545165 0.170767
0.662915 0.197311 0.147379
0.639889 0.287741 0.218733
0.639889 0.599689 -0.241634
0.639889 -0.117829 0.048629
0.639889 0.040374 0.055592
0.639889 0.564077 -0.132568
0.662915 0.052358 0.131974
0.639889 0.19802 -0.085102
0.662915 -0.288274 -0.098013
0.639889 0.209193 0.167077
0.662915 0.411322 0.074603
0.639889 0.135696 0.04546
0.662915 -0.561019 0.119772
0.662915 0.357969 -0.093006
0.662915 -0.044506 0.200218
0.662915 -0.240584 0.142958
0.662915 0.270027 -0.068857
0.662915 -0.068582 -0.0722
0.639889 0.473166 0.034998
0.662915 0.161668 0.190341
0.662915 0.388964 -0.16518
0.639889 -0.352768 -0.044078
0.639889 -0.212601 0.224304
0.662915 0.399055 0.044228
0.662915 -0.117295 -0.264367
0.639889 0.57392 -0.063909
0.662915 -0.343129 0.082244
0.639889 0.248348 0.194203
0.639889 0.415229 0.090123
0.639889 -0.142193 -0.185063
0.662915 -0.314262 -0.069314
0.639889 -0.293624 -0.047407
0.639889 -0.220003 0.155228
0.639889 -0.407129 0.062121
0.662915 0.61398 -0.118616
0.639889 0.17013 0.08145
0.662915 0.230133 -0.179492
0.639889 -0.264681 0.124988
0.639889 -0.482832 0.036893
0.662915 0.200363 0.028702
0.639889 0.475485 -0.087079
0.639889 0.011045 0.210866
0.639889 -0.466676 0.09716
0.662915 0.635887 0.227831
0.639889 0.121925 6.4e-05
0.662915 -0.154812 -0.235835
0.662915 0.421895 0.143909
0.639889 -0.349918 -0.019578
0.639889 -0.497785 0.143748
0.639889 0.140576 -0.064267
0.662915 -0.604212 -0.11672
0.639889 -0.224158 -0.146141
0.639889 -0.305818 -0.178272
0.639889 0.482937 -0.118967
0.639889 -0.013519 0.102628
0.662915 0.507277 -0.171441
0.639889 -0.3088 -0.11194
0.662915 -0.258118 -0.061415
0.662915 -0.45308 -0.085569
0.662915 0.196619 -0.135612
0.639889 -0.031042 -0.170789
0.662915 -0.642509 0.180942
0.639889 0.373932 0.176087
0.662915 0.481179 -0.050115
0.639889 0.381623 0.065509
0.639889 0.137449 -0.139964
0.662915 0.143798 0.0277
0.639889 -0.534131 0.144621
0.639889 -0.162119 0.015558
0.662915 -0.334288 -0.113355
-0.672601 0.294822 -0.077103
-0.649574 -0.270663 0.015688
-0.649574 0.019923 0.009554
-0.672601 0.369354 0.132809
-0.672601 -0.472715 -0.059098
-0.672601 0.152395 0.168475
-0.672601 0.507092 -0.109095
-0.649574 -0.134772 -0.113898
-0.649574 -0.140972 0.1561
-0.672601 -0.437481 0.118477
-0.649574 0.129352 -0.12347
-0.672601 0.550155 0.096531
-0.649574 -0.547514 -0.211351
-0.672601 -0.295454 -0.143655
-0.672601 0.17166 0.015895
-0.649574 0.001677 0.150054
-0.649574 -0.571383 0.070628
-0.672601 0.4181 -0.001196
-0.672601 -0.1132 0.024495
-0.672601 0.542511 -0.255126
-0.649574 0.392743 -0.169009
-0.672601 -0.008562 -0.120852
-0.672601 -0.306516 0.135487
-0.649574 0.282265 0.053597
-0.649574 0.229903 -0.178623
-0.649574 -0.417736 -0.163858
-0.649574 -0.593327 -0.062168
-0.672601 -0.359833 -0.045497
-0.649574 0.530054 -0.00585
-0.672601 0.086091 0.086815
-0.672601 0.261646 0.152364
-0.649574 -0.130133 -0.214815
-0.649574 -0.228073 -0.074489
-0.649574 -0.524795 0.160037
-0.672601 -0.217132 0.093426
-0.649574 0.618494 0.172893
-0.649574 0.475521 0.149476
-0.649574 0.645993 -0.198236
-0.649574 -0.358668 0.042953
-0.649574 -0.056986 -0.046944
-0.672601 -0.20537 -0.169767
-0.672601 -0.029705 -0.209781
-0.672601 -0.452989 0.030551
-0.672601 0.1997 -0.078195
-0.649574 0.2003 0.094423
-0.649574 0.388146 -0.07877
-0.672601 0.314213 -0.194502
-0.672601 0.603577 -0.053548
-0.672601 0.11449 -0.203539
-0.649574 -0.519731 -0.125227
-0.649574 0.456005 -0.230522
-0.672601 0.102096 -0.029282
-0.649574 0.558132 -0.177385
-0.649574 -0.614297 0.162146
-0.672601 -0.040469 0.061
-0.649574 0.467773 0.058603
-0.649574 0.364173 0.052301
-0.672601 -0.611771 -0.172576
-0.649574 -0.186391 0.016877
-0.672601 -0.53858 -0.014158
-0.649574 0.052312 -0.080104
-0.649574 -0.375244 0.152915
-0.672601 -0.621405 0.020553
-0.672601 0.248252 -0.008473
-0.672601 0.54822 0.178863
-0.672601 -0.06943 0.129277
-0.672601 -0.30994 -0.215572
-0.649574 -0.479044 -0.231663
-0.649574 -0.144665 -0.040431
-0.649574 0.050022 -0.186777
-0.649574 0.608439 0.064568
-0.649574 -0.067589 -0.155327
-0.649574 -0.500176 0.076758
-0.672601 0.086241 0.190766
-0.672601 0.466813 -0.050749
-0.672601 -0.417809 -0.099217
-0.649574 -0.237919 0.153556
-0.649574 -0.302823 -0.073655
-0.672601 0.354162 -0.020987
-0.649574 0.443986 -0.127023
-0.672601 -0.282318 0.1969
-0.649574 -0.148831 0.090948
-0.649574 0.601145 -0.128601
-0.649574 0.173785 -0.229014
-0.649574 -0.420848 -0.020685
-0.672601 0.021635 0.08821
-0.649574 0.219769 0.195449
-0.672601 0.171949 -0.165059
-0.649574 0.085388 0.027629
-0.649574 -0.347835 -0.170253
-0.672601 -0.280693 0.073438
-0.672601 0.413189 0.084257
-0.649574 0.241958 -0.11798
-0.649574 -0.462428 0.176834
-0.672601 -0.09641 0.191935
-0.672601 0.147741 0.074354
-0.649574 0.302598 0.11538
-0.672601 -0.346233 -0.112169
-0.672601 0.386636 -0.242478
-0.672601 0.620157 -0.249931
-0.672601 0.424557 0.169069
-0.649574 -0.626179 -0.116106
-0.672601 0.335697 -0.140019
-0.649574 0.10721 0.136314
-0.672601 -0.530728 -0.072904
-0.649574 -0.478105 -0.165667
-0.672601 -0.195029 -0.235333
-0.649574 0.62213 -0.000491
-0.672601 -0.083263 -0.104714
-0.649574 0.296667 0.212832
-0.672601 0.010779 -0.041777
-0.649574 -0.074082 -0.236848
-0.672601 0.567861 0.029748
-0.672601 -0.410707 0.068531
-0.649574 0.281362 -0.237152
-0.672601 -0.045451 0.003162
-0.672601 -0.025721 0.199911
-0.672601 -0.408391 -0.214163
-0.649574 0.535094 -0.061555
-0.649574 0.298596 -0.015717
-0.649574 0.503095 -0.174976
-0.672601 -0.351143 0.09189
-0.672601 -0.255527 -0.191033
-0.649574 -0.571803 -0.143592
-0.672601 -0.574122 0.133663
-0.672601 0.453549 -0.1753
-0.672601 0.073827 -0.239004
-0.649574 0.167045 -0.042134
-0.672601 -0.617301 0.085992
-0.672601 0.031163 0.18829
-0.672601 0.079259 -0.148657
-0.672601 -0.316929 -0.014052
-0.672601 0.100696 -0.082217
-0.672601 -0.247364 -0.12155
-0.672601 -0.190336 0.153739
-0.649574 -0.199597 -0.122657
-0.672601 -0.602398 -0.224419
-0.672601 -0.343415 0.187639
-0.649574 0.050228 0.130392
-0.672601 -0.636956 -0.044674
-0.672601 0.482187 0.195826
-0.649574 -0.535333 0.032118
-0.649574 0.011587 -0.230523
-0.672601 0.200416 0.149527
-0.649574 0.126292 -0.249183
-0.649574 0.637611 0.122917
-0.672601 -0.474477 -0.11701
-0.649574 0.231154 0.049515
-0.672601 -0.411891 0.218117
-0.672601 -0.25576 -0.242272
-0.649574 -0.226783 -0.023812
-0.672601 -0.102112 -0.057724
-0.672601 0.507989 0.038367
-0.649574 0.357174 0.182805
-0.672601 -0.52636 0.115306
-0.672601 -0.238221 0.046473
-0.672601 0.470343 -0.000642
-0.672601 0.318195 0.024234
-0.672601 -0.174249 -0.073437
-0.649574 0.354223 -0.2125
-0.649574 -0.651428 -0.19128
-0.672601 0.461267 0.108151
-0.649574 0.006372 -0.163771
-0.672601 -0.156595 -0.180365
-0.672601 0.586493 -0.210078
-0.649574 0.52239 0.129718
-0.672601 0.558008 -0.126565
-0.649574 0.276373 -0.152505
-0.672601 -0.658489 -0.247871
-0.649574 0.438403 0.219589
-0.672601 -0.419659 0.170866
-0.649574 0.255709 0.105824
-0.672601 -0.639377 0.128389
-0.649574 0.2318 -0.051416
-0.649574 0.577476 -0.017168
-0.649574 0.044809 0.051906
-0.649574 0.181125 -0.114852
-0.672601 0.33962 0.085015
-0.672601 0.401722 -0.129144
-0.672601 -0.108993 0.097357
-0.672601 0.147402 -0.077181
-0.649574 -0.454114 0.076734
-0.672601 -0.355618 -0.210291
-0.649574 -0.024315 -0.079027
-0.672601 0.344287 -0.065645
-0.672601 -0.385028 -0.136371
-0.649574 0.308382 0.160716
-0.672601 -0.089599 -0.200567
-0.649574 -0.374866 -0.08506
-0.649574 0.133615 0.026038
-0.649574 0.163416 0.218033
-0.672601 -0.516309 -0.18779
-0.649574 -0.265862 -0.047331
-0.649574 -0.307698 0.0418
-0.672601 -0.552071 0.18765
-0.672601 0.155596 0.123463
-0.649574 0.567109 0.212232
-0.672601 0.52458 -0.206684
-0.672601 -0.577796 0.010878
-0.649574 0.416233 -0.038985
-0.672601 0.593561 0.144634
-0.649574 -0.359024 -0.007923
-0.672601 0.5014 0.081909
-0.672601 -0.497952 0.188586
-0.649574 0.416079 0.047126
-0.649574 0.041627 -0.137846
-0.649574 -0.522601 -0.253823
-0.649574 0.362331 -0.114505
-0.649574 0.001435 0.054146
-0.649574 -0.314938 0.086
-0.672601 -0.143391 0.055133
-0.649574 -0.604525 -0.013108
-0.672601 0.297962 -0.120286
-0.649574 0.484027 -0.081759
-0.649574 0.405055 -0.212187
-0.649574 0.637832 -0.082254
-0.649574 -0.55383 -0.099584
-0.649574 0.429487 -0.08504
-0.649574 0.140101 -0.179231
-0.649574 0.583004 0.107844
-0.672601 0.262725 -0.189976
-0.649574 -0.14685 0.003987
-0.672601 0.489237 -0.240099
-0.672601 -0.473541 0.144086
-0.672601 -0.474716 -0.004859
-0.649574 0.324891 -0.097198
-0.649574 -0.431188 -0.067766
-0.672601 0.590643 -0.160983
-0.672601 0.584836 -0.095704
-0.672601 0.050066 -0.005645
-0.649574 -0.22539 -0.206152
-0.672601 -0.383032 0.11733
-0.672601 0.198997 -0.032083
-0.672601 -0.649356 -0.1571
-0.649574 -0.292064 -0.187275
-0.649574 -0.111573 -0.147239
-0.649574 0.191852 -0.192492
-0.649574 -0.035812 0.165182
-0.672601 -0.619656 -0.081978
-0.672601 0.20592 -0.143696
-0.672601 -0.447001 -0.224488
-0.672601 0.514052 -0.034318
-0.649574 0.130566 0.102061
-0.649574 -0.486353 0.025568
-0.649574 -0.040673 -0.115929
-0.672601 0.408847 0.12795
-0.672601 -0.398912 -0.052829
-0.672601 0.622724 0.035484
-0.649574 -0.059923 0.0984
-0.649574 0.124693 -0.05423
-0.649574 -0.273485 -0.102803
-0.649574 0.536593 0.067417
-0.672601 -0.109688 -0.014829
-0.672601 0.637416 0.078292
-0.649574 0.23107 0.136639
-0.649574 -0.503713 -0.051755
-0.649574 -0.278442 0.150422
-0.672601 -0.650037 0.186937
-0.649574 0.348484 -0.168986
-0.649574 -0.583474 0.188609
-0.672601 -0.143322 -0.250193
-0.672601 0.201445 0.063223
-0.649574 -0.455731 0.218391
-0.649574 0.088703 -0.110941
-0.649574 -0.610255 0.055705
-0.649574 0.393468 0.168913
-0.649574 -0.313617 0.178863
-0.672601 -0.030843 0.130211
-0.672601 -0.420083 0.010256
-0.672601 -0.435855 -0.138787
-0.649574 0.387586 0.003594
-0.649574 -0.315588 -0.113335
-0.672601 0.204352 -0.230614
-0.649574 -0.181728 -0.197817
-0.672601 -0.030359 -0.032033
-0.649574 -0.035381 -0.179836
-0.672601 0.24463 0.077473
-0.672601 -0.079785 0.04289
-0.649574 0.130976 0.198013
-0.649574 0.202323 0.024647
-0.672601 0.065814 0.158713
-0.672601 -0.613544 0.209541
-0.672601 -0.179211 0.093938
-0.672601 0.139302 -0.022141
-0.649574 -0.414253 0.098314
-0.649574 -0.353309 0.121773
-0.649574 0.572783 -0.059028
-0.672601 -0.512697 0.223241
-0.672601 0.316269 -0.03957
-0.672601 0.124741 -0.154283
-0.649574 -0.236349 -0.148624
-0.672601 -0.472921 0.106974
-0.672601 0.299851 0.086421
-0.672601 0.410019 0.225772
-0.649574 -0.006966 0.092214
-0.672601 0.354581 0.017917
-0.672601 0.479862 -0.133969
-0.649574 0.450735 0.02035
-0.672601 -0.544583 0.083327
-0.672601 0.076117 -0.198572
-0.672601 0.521948 0.205357
-0.672601 0.279815 0.010296
-0.649574 0.043 -0.249505
-0.649574 -0.018975 0.013855
-0.672601 0.543743 -0.088722
-0.649574 0.168098 0.044007
-0.672601 -0.318676 -0.177716
-0.649574 0.016115 -0.083388
-0.649574 -0.072657 0.177122
-0.672601 -0.194034 0.043751
-0.672601 0.054365 -0.113043
-0.672601 -0.389103 0.190123
-0.672601 0.551092 -0.03893
-0.649574 -0.255672 0.204373
-0.649574 0.515531 -0.249279
-0.672601 0.529753 -0.14876
-0.649574 0.385853 0.087875
-0.649574 -0.462376 -0.092286
-0.672601 -0.246569 0.113705
-0.672601 -0.136013 0.129263
-0.672601 0.638849 0.154706
-0.672601 -0.57668 -0.178629
-0.649574 0.377678 -0.044836
-0.672601 -0.161137 -0.018999
-0.649574 -0.412322 -0.125692
-0.649574 0.610171 -0.197513
-0.649574 -0.248712 0.070969
-0.649574 -0.405582 0.132395
-0.672601 0.281316 -0.035858
-0.649574 -0.198224 -0.055976
-0.672601 -0.224559 0.17634
-0.672601 0.244167 0.026541
-0.672601 -0.122195 -0.186828
-0.649574 0.269813 0.177349
-0.649574 0.005825 0.194866
-0.649574 -0.126677 0.187882
-0.649574 0.178297 0.171735
-0.672601 0.109261 0.038168
-0.672601 -0.519391 0.059431
-0.672601 0.322477 0.214134
-0.649574 -0.597349 -0.193995
-0.672601 0.435363 -0.215278
-0.649574 -0.380784 -0.215155
-0.672601 0.391498 -0.023373
-0.672601 0.336062 0.124235
-0.672601 -0.059988 0.202471
-0.649574 0.247098 -0.237882
-0.672601 -0.330265 -0.142472
-0.649574 0.635779 -0.141311
-0.649574 -0.008643 -0.019035
-0.649574 -0.222675 0.009984
-0.649574 -0.064541 -0.080091
-0.649574 0.270026 -0.080202
-0.672601 -0.468771 -0.188803
-0.672601 -0.372014 0.065123
-0.672601 -0.116994 0.164967
-0.649574 -0.117812 -0.077014
-0.649574 -0.024722 -0.147685
-0.672601 0.421514 -0.156526
-0.649574 -0.171092 -0.160495
-0.649574 0.323221 0.048294
-0.672601 0.210999 -0.000703
-0.672601 0.046616 -0.219307
-0.672601 0.025833 0.153649
-0.672601 0.396948 0.026134
-0.649574 0.597432 0.22651
-0.672601 0.607184 0.105615
-0.649574 -0.569368 0.157472
-0.649574 0.480567 -0.207804
-0.649574 0.444638 0.182594
-0.672601 -0.519322 0.013977
-0.672601 0.244306 0.180827
-0.672601 -0.352367 -0.243458
-0.672601 0.213063 0.114802
-0.649574 -0.625933 -0.212648
-0.672601 -0.575476 -0.089334
-0.672601 0.071461 -0.042115
-0.649574 -0.562833 0.112574
-0.649574 0.28662 -0.189712
-0.649574 -0.065049 0.065686
-0.672601 -0.114123 -0.232398
-0.649574 -0.660412 -0.048466
-0.649574 -0.508802 -0.094005
-0.672601 0.029988 -0.161277
-0.672601 -0.483086 -0.255018
-0.649574 -0.099861 0.1192
-0.672601 -0.141498 -0.077439
-0.649574 0.570612 0.14883
-0.672601 -0.204541 -0.099944
-0.672601 -0.476402 0.070312
-0.649574 -0.595342 0.093414
-0.672601 0.608103 0.193531
-0.649574 0.176935 -0.011089
-0.649574 -0.451795 -0.042529
-0.672601 0.621953 -0.118812
-0.649574 -0.497417 0.142451
-0.672601 0.098472 -0.175145
-0.649574 0.103021 0.168414
-0.649574 -0.333893 -0.029171
-0.672601 -0.370126 -0.174136
-0.649574 -0.386039 -0.034313
-0.672601 -0.295865 -0.10072
-0.649574 0.576702 0.069569
-0.672601 -0.510645 -0.145586
-0.672601 0.282284 0.127861
-0.649574 -0.638916 0.080765
-0.672601 -0.376181 0.02926
-0.672601 -0.271732 0.042759
-0.649574 -0.461303 -0.134788
-0.672601 -0.32777 0.159813
-0.672601 0.170504 -0.198004
-0.649574 0.432563 -0.193413
-0.649574 -0.287252 -0.023703
-0.649574 0.07195 -0.007947
-0.649574 -0.565104 -0.246978
-0.649574 -0.212697 0.055073
-0.672601 -0.508293 -0.030444
-0.649574 0.63864 0.197284
-0.672601 0.044766 0.030374
-0.672601 0.590642 0.0526
-0.649574 0.481534 0.089957
-0.649574 -0.416392 0.048023
-0.649574 -0.628993 -0.151041
-0.649574 -0.042928 -0.234292
-0.649574 -0.282997 -0.217144
-0.649574 0.035312 0.208938
-0.672601 -0.590449 -0.041353
-0.649574 0.234904 0.00762
-0.649574 0.249856 0.203321
-0.649574 -0.112972 0.045371
-0.649574 -0.389277 0.07984
-0.672601 0.357944 -0.26354
-0.649574 -0.285548 0.095838
-0.672601 0.463159 0.036959
-0.649574 -0.162214 0.046776
-0.672601 0.010032 0.127151
-0.672601 0.194512 0.202578
-0.649574 0.444067 -0.025958
-0.672601 -0.222148 0.140741
-0.649574 0.160126 0.090463
-0.672601 0.297425 0.192526
-0.649574 0.074039 0.061271
-0.649574 -0.07008 -0.195071
-0.672601 -0.260722 -0.087099
-0.649574 0.198829 0.129393
-0.649574 -0.016241 -0.048677
-0.649574 -0.579072 -0.21851
-0.672601 0.467026 -0.092518
-0.649574 -0.135639 -0.166098
-0.649574 0.499376 -0.129164
-0.649574 -0.440945 0.014465
-0.672601 -0.161814 0.017355
-0.672601 -0.158278 -0.210815
-0.649574 -0.54489 -0.157926
-0.649574 -0.007322 -0.191704
-0.672601 0.003397 0.020651
-0.672601 0.242524 -0.137852
-0.672601 0.030482 -0.19353
-0.672601 -0.496304 -0.221844
-0.649574 0.52636 0.186004
-0.649574 -0.365316 -0.138634
-0.672601 -0.211884 -0.138225
-0.649574 0.479313 -0.153755
-0.672601 0.227729 -0.198272
-0.672601 -0.43484 -0.253206
-0.649574 -0.333653 0.062191
-0.649574 0.550547 -0.107159
-0.672601 -0.180498 -0.126426
-0.649574 -0.66396 -0.218969
-0.672601 -0.077795 0.090965
-0.672601 -0.269703 -0.159185
-0.672601 0.227568 -0.089367
-0.649574 0.287527 -0.054092
-0.672601 -0.644806 0.044163
-0.672601 0.090081 -0.001528
-0.649574 -0.519715 -0.222513
-0.672601 0.4359 -0.109703
-0.649574 -0.180451 0.170067
-0.649574 0.557972 0.046328
-0.649574 0.356108 0.119225
-0.672601 0.134751 -0.105456
-0.649574 -0.623238 -0.057536
-0.672601 0.546074 0.003986
-0.649574 0.07422 0.205188
-0.649574 -0.577287 -0.027968
-0.649574 0.623412 -0.056289
-0.672601 -0.239256 -0.059587
-0.672601 -0.003195 -0.241931
-0.672601 0.349668 -0.194557
-0.672601 0.255418 -0.10542
-0.649574 0.366009 -0.145286
-0.672601 0.553704 -0.202226
-0.649574 -0.518487 0.20582
-0.649574 0.33064 -0.050891
-0.672601 -0.0116 -0.166483
-0.649574 0.064051 -0.214195
-0.649574 -0.479517 -0.032976
-0.672601 0.453567 0.164887
-0.672601 0.373535 -0.068139
-0.672601 -0.637931 -0.129745
-0.649574 -0.510626 -0.170765
-0.649574 0.061049 0.175993
-0.649574 -0.372844 0.197652
-0.672601 0.447805 0.134016
-0.649574 -0.196975 0.092446
-0.649574 0.283604 -0.109774
-0.672601 -0.172527 -0.253779
-0.649574 -0.157916 -0.084091
-0.672601 0.038822 0.111615
-0.672601 -0.391058 0.160717
-0.672601 0.07199 -0.071113
-0.672601 0.213508 -0.172519
-0.649574 0.063179 0.104535
-0.649574 -0.081182 -0.031119
-0.649574 0.577796 0.01174
-0.649574 0.539059 0.021595
-0.649574 0.273297 0.082939
-0.649574 0.09949 -0.21231
-0.649574 -0.027497 0.041406
-0.649574 -0.622026 0.128105
-0.649574 -0.233366 -0.239374
-0.649574 -0.529699 -0.03929
-0.672601 0.426273 -0.053052
-0.649574 -0.465649 -0.206189
-0.672601 0.431307 0.203853
-0.672601 -0.007568 -0.083041
-0.649574 -0.239329 -0.100888
-0.649574 0.156701 -0.091547
-0.672601 0.075025 0.044275
-0.649574 0.332695 -0.231335
-0.672601 0.376729 0.166514
-0.672601 0.412695 -0.197104
-0.672601 -0.081021 -0.133187
-0.672601 -0.437615 -0.021889
-0.672601 0.541393 -0.176032
-0.649574 -0.332479 -0.194205
-0.649574 0.255204 -0.03538
-0.649574 0.201422 -0.159607
-0.672601 -0.044341 0.092938
-0.649574 0.493539 0.030516
-0.672601 -0.389523 -0.099083
-0.649574 -0.302855 -0.158216
-0.672601 -0.581873 0.084226
-0.649574 -0.511544 0.108541
-0.672601 -0.291735 -0.237085
-0.649574 -0.033054 0.081255
-0.672601 0.369242 -0.099818
-0.672601 0.004692 0.178657
-0.649574 0.32796 0.011301
-0.649574 0.117607 -0.024644
-0.672601 -0.33028 0.120422
-0.649574 -0.179356 -0.231475
-0.672601 -0.59786 0.109307
-0.649574 -0.104627 -0.101814
-0.649574 0.482857 -0.051682
-0.672601 -0.513152 0.14503
-0.672601 -0.149159 -0.107156
-0.672601 0.498129 -0.003889
-0.649574 -0.447159 0.131067
-0.649574 -0.086886 -0.261712
-0.672601 0.349599 0.058367
-0.649574 -0.178332 -0.036394
-0.649574 0.531348 0.158579
-0.672601 -0.510814 -0.264199
-0.672601 0.622181 -0.081422
-0.672601 -0.061409 -0.061959
-0.649574 -0.490065 -0.115756
-0.649574 -0.320682 0.017194
-0.672601 -0.572415 -0.26167
-0.649574 0.437022 -0.157054
-0.672601 -0.283566 -0.201656
-0.672601 -0.345639 0.052375
-0.649574 -0.650079 0.155376
-0.649574 0.020179 -0.054009
-0.649574 0.50298 0.152652
-0.649574 0.423644 0.014942
-0.649574 -0.472415 0.049391
-0.649574 0.232622 -0.212635
-0.672601 0.2571 -0.050408
-0.672601 -0.358496 0.135947
-0.649574 0.26864 0.000241
-0.672601 0.022563 -0.005245
-0.649574 -0.308447 0.224547
-0.672601 -0.55174 -0.114082
-0.672601 -0.066379 -0.214781
-0.672601 0.591186 0.079807
-0.672601 0.380138 0.107825
-0.649574 -0.400146 -0.003043
-0.649574 -0.655861 0.208195
-0.649574 -0.002789 -0.102919
-0.672601 -0.398173 -0.188995
-0.672601 -0.372968 -0.00437
-0.672601 -0.315656 -0.067173
-0.649574 -0.131917 0.115516
-0.672601 -0.091136 0.145551
-0.672601 0.226213 -0.246665
-0.649574 -0.568561 -3e-05
-0.672601 0.441527 -0.077377
-0.649574 0.147833 -0.010739
-0.672601 -0.570078 0.03681
-0.672601 -0.506332 -0.118882
-0.649574 -0.43098 0.162376
-0.649574 -0.618319 -0.258769
-0.672601 -0.6344 -0.223913
-0.672601 0.267718 -0.233989
-0.672601 -0.477466 -0.143771
-0.649574 0.330192 -0.200371
-0.649574 -0.12882 -0.264999
-0.672601 0.544145 0.047244
-0.672601 -0.28077 0.127823
-0.672601 0.177624 -0.051043
-0.672601 0.172103 -0.258516
-0.672601 0.146015 0.007961
-0.649574 0.098984 0.08191
-0.649574 0.531317 -0.162462
-0.672601 0.2849 -0.174891
-0.672601 0.24318 0.111451
-0.672601 0.11522 0.064267
-0.649574 -0.31454 0.112746
-0.649574 0.290368 0.140993
-0.649574 0.352304 0.08974
-0.672601 -0.449607 -0.161682
-0.649574 0.144939 0.061149
-0.672601 -0.250608 0.022864
-0.672601 0.070279 0.016317
-0.649574 0.349495 0.208331
-0.649574 0.083012 -0.035361
-0.672601 0.033153 -0.096957
-0.649574 -0.20685 -0.241718
-0.672601 -0.211476 -0.057504
-0.672601 0.585357 0.221125
-0.672601 0.125325 0.209896
-0.649574 0.172416 0.127191
-0.649574 0.595966 -0.042866
-0.649574 -0.537996 0.072051
-0.672601 0.208204 0.037641
-0.649574 0.53913 -0.033767
-0.672601 -0.186355 0.003878
-0.672601 -0.550413 -0.055264
-0.672601 -0.053725 0.176798
-0.649574 -0.637096 0.186489
-0.672601 0.449793 -0.242958
-0.672601 -0.426061 0.09334
-0.672601 -0.542626 -0.187855
-0.649574 -0.090868 -0.216588
-0.649574 -0.086214 0.031933
-0.649574 0.332809 0.15098
-0.649574 -0.370592 -0.239367
-0.649574 -0.267565 -0.177848
-0.649574 0.590768 0.200869
-0.649574 -0.384625 0.039278
-0.672601 -0.4428 0.158217
-0.672601 -0.465266 0.189016
-0.672601 -0.19083 0.11741
-0.649574 -0.339175 0.164763
-0.672601 -0.503347 -0.064093
-0.672601 0.431807 -0.026538
-0.672601 0.179509 -0.126928
-0.649574 0.225534 -0.077401
-0.672601 0.473713 0.136374
-0.649574 -0.588124 0.118398
-0.672601 -0.520985 0.176659
-0.672601 -0.553053 -0.221917
-0.649574 0.018997 0.169299
-0.672601 0.488073 -0.035988
-0.672601 0.136118 -0.051272
-0.649574 0.517149 -0.102975
-0.649574 0.615777 0.02456
-0.649574 -0.111057 -0.050166
-0.649574 -0.454977 -0.182675
-0.649574 -0.536029 0.136808
-0.649574 -0.253609 0.17867
-0.649574 0.576224 -0.10348
-0.672601 0.034488 -0.257379
-0.672601 -0.453387 0.058714
-0.672601 -0.090293 0.002126
-0.649574 0.449104 -0.101736
-0.649574 0.206044 -0.022989
-0.672601 -0.222003 -0.240439
-0.672601 -0.561965 -0.149307
-0.672601 0.389418 0.210436
-0.672601 0.14265 0.049189
-0.649574 -0.363711 0.081528
-0.649574 -0.43579 -0.224436
-0.649574 -0.287734 0.057805
-0.672601 -0.320178 0.076159
-0.672601 0.363954 -0.21792
-0.672601 0.045207 0.063033
-0.649574 -0.223796 0.084559
-0.672601 0.473104 0.082815
-0.649574 0.184932 0.074113
-0.672601 -0.047047 -0.244269
-0.672601 -0.038636 -0.07326
-0.672601 -0.56568 0.228568
-0.672601 -0.030401 -0.138573
-0.649574 -0.200826 -0.214535
-0.649574 0.466515 -0.175642
-0.649574 -0.318773 -0.221441
-0.649574 -0.393397 -0.170881
-0.649574 -0.489706 0.218384
-0.649574 0.303066 -0.083535
-0.672601 -0.637549 0.101132
-0.672601 -0.6156 -0.197539
-0.649574 -0.438212 0.107452
-0.649574 -0.345231 0.197843
-0.672601 0.176913 0.049445
-0.649574 0.375502 -0.018563
-0.672601 0.207967 -0.11857
-0.672601 0.004994 0.069302
-0.672601 0.488213 0.021831
-0.672601 -0.316286 -0.250046
-0.649574 -0.30038 -0.048616
-0.672601 0.119811 -0.129619
-0.672601 -0.628648 -0.003526
-0.672601 0.231601 -0.041369
-0.649574 0.566867 -0.200933
-0.649574 -0.59817 0.011174
-0.672601 -0.546488 0.028246
-0.649574 0.557927 0.188894
-0.672601 0.267325 0.036139
-0.649574 0.63021 0.149958
-0.649574 0.190195 -0.080542
-0.649574 -0.479445 0.195163
-0.649574 0.529311 -0.198174
-0.672601 0.457883 -0.121584
-0.649574 -0.5404 -0.072521
-0.649574 -0.03343 -0.02208
-0.672601 0.395969 -0.160094
-0.672601 0.168519 -0.015295
-0.672601 0.42943 0.113987
-0.672601 0.197728 -0.206653
-0.672601 -0.323228 0.202135
-0.649574 0.077946 -0.133341
-0.649574 0.309767 -0.116901
-0.649574 0.4067 -0.121294
-0.649574 0.363344 -0.079919
-0.672601 -0.489639 0.016938
-0.649574 -0.638268 -0.035653
-0.672601 0.279227 -0.136478
-0.649574 0.442985 0.043857
-0.672601 -0.343888 -0.064384
-0.672601 0.139422 0.103536
-0.672601 -0.16283 0.112395
-0.649574 0.096273 0.192144
-0.649574 0.044414 0.012505
-0.649574 -0.055001 0.20977
-0.649574 -0.426189 -0.251459
-0.649574 -0.600481 -0.232985
-0.649574 0.030061 0.085969
-0.672601 0.180325 0.180067
-0.649574 -0.407514 0.169589
-0.672601 -0.443796 -0.115571
-0.672601 0.612108 -0.149118
-0.649574 0.542155 0.095517
-0.672601 -0.315012 0.045137
-0.649574 -0.080989 0.134648
-0.649574 -0.117513 -0.013052
-0.672601 -0.460403 -0.246205
-0.649574 -0.198072 -0.166942
-0.672601 0.130199 0.178403
-0.649574 0.593429 -0.179891
-0.672601 -0.445386 -0.046935
-0.649574 0.151978 -0.218358
-0.649574 -0.606153 0.197234
-0.672601 -0.621365 0.165034
-0.649574 -0.549021 -0.014381
-0.649574 0.453968 0.129861
-0.649574 -0.237866 0.028809
-0.649574 -0.351098 -0.089487
-0.672601 0.283135 0.060886
-0.672601 -0.221956 -0.212629
-0.649574 0.600616 0.142953
-0.672601 -0.33916 -0.164858
-0.672601 0.072248 -0.095159
-0.672601 -0.187376 -0.201823
-0.649574 0.488306 0.192666
-0.649574 0.505597 -0.043918
-0.672601 -0.080634 -0.247731
-0.672601 -0.17528 -0.155138
-0.672601 0.414415 -0.226964
-0.649574 0.106905 -0.189511
-0.649574 0.181581 0.202401
-0.672601 -0.421055 -0.061948
-0.672601 -0.321917 -0.115099
-0.672601 0.203999 0.087027
-0.649574 0.232722 -0.154879
-0.672601 0.342432 0.147243
-0.649574 0.084322 -0.156347
-0.649574 0.455891 -0.046695
-0.672601 0.188991 -0.182921
-0.672601 0.616255 -0.002348
-0.672601 -0.647751 0.020515
0.44264 0.19382 0.229666
0.027076 0.388442 0.264205
-0.528889 0.264274 0.264205
0.35075 0.427869 0.258626
0.207279 0.209916 0.264205
-0.015866 0.190557 0.229666
-0.400754 0.407655 0.264205
-0.462111 0.094311 0.229666
0.51232 0.356599 0.229666
-0.120347 0.338487 0.229666
-0.561732 0.418032 0.229666
-0.381403 0.237699 0.264205
0.327948 0.28208 0.264205
0.209972 0.365125 0.264205
0.103541 0.283021 0.229666
-0.136448 0.223502 0.264205
-0.303897 0.335344 0.264205
-0.07717 0.08338 0.229666
0.552544 0.239451 0.229666
0.122247 0.145026 0.229666
-0.452498 0.325031 0.229666
-0.065406 0.42787 0.242676
-0.012124 0.294724 0.264205
0.321583 0.177497 0.229666
0.450781 0.42739 0.264205
0.418861 0.301156 0.229666
0.132814 0.426229 0.229666
-0.619062 0.211283 0.264205
0.579247 0.142358 0.229666
-0.19407 0.396531 0.264205
-0.536002 0.157838 0.229666
-0.618435 0.059875 0.229666
-0.368738 0.064943 0.229666
-0.330872 0.170158 0.229666
0.491366 0.059451 0.234872
-0.581529 0.325317 0.229666
-0.438619 0.171853 0.264205
-0.28356 0.423763 0.264205
0.011991 0.060567 0.229666
0.284515 0.385098 0.229666
0.065564 0.196425 0.264205
-0.456452 0.243842 0.229666
0.493379 0.140719 0.264205
0.485651 0.272459 0.264205
0.590533 0.401854 0.229666
0.189269 0.28738 0.264205
-0.181226 0.059692 0.229666
-0.483356 0.42787 0.229852
0.26016 0.263721 0.229666
-0.370183 0.317117 0.229666
0.389358 0.09337 0.229666
0.383932 0.358063 0.264205
-0.112094 0.152391 0.264205
0.527887 0.427869 0.26122
0.093159 0.353375 0.264205
-0.610544 0.1434 0.229666
-0.282288 0.101272 0.229666
0.034589 0.137747 0.229666
-0.074347 0.23622 0.229666
-0.302599 0.263674 0.264205
0.147457 0.227081 0.229666
0.032034 0.251577 0.229666
0.567442 0.31249 0.229666
0.378558 0.200258 0.264205
0.078465 0.081654 0.229666
-0.051382 0.345905 0.229666
-0.133582 0.42787 0.248455
-0.545192 0.0902 0.229666
0.148667 0.336847 0.229666
-0.51794 0.368197 0.229666
-0.206886 0.236276 0.264205
-0.283315 0.199618 0.264205
-0.167898 0.291385 0.229666
-0.390606 0.143564 0.229666
-0.505509 0.20244 0.264205
0.355394 0.13671 0.264205
0.374478 0.256195 0.229666
0.185567 0.161782 0.229666
-0.03401 0.130474 0.229666
-0.591493 0.274267 0.264205
0.288791 0.137441 0.264205
-0.10921 0.279347 0.264205
0.274262 0.214096 0.264205
-0.561629 0.224728 0.229666
0.081507 0.427869 0.264061
-0.596026 0.380215 0.264205
0.323596 0.346928 0.264205
-0.354032 0.388034 0.229666
0.45118 0.355023 0.229666
0.055646 0.297973 0.264205
-0.414557 0.292808 0.264205
0.275569 0.059476 0.229666
0.252303 0.333936 0.229666
0.496429 0.200888 0.264205
-0.462656 0.3727 0.264205
0.009398 0.343819 0.229666
0.437641 0.059451 0.258653
0.566231 0.362435 0.264205
0.17052 0.100261 0.264205
0.584728 0.271185 0.264205
-0.170487 0.140212 0.229666
-0.246961 0.398392 0.229666
-0.009138 0.427869 0.249474
-0.406097 0.352486 0.264205
0.399076 0.14741 0.229666
-0.289977 0.145138 0.264205
0.433251 0.247881 0.229666
0.364152 0.320446 0.229666
0.084974 0.124855 0.264205
-0.248157 0.059451 0.246817
0.317538 0.241131 0.229666
0.144268 0.185221 0.264205
-0.474462 0.150301 0.229666
0.542831 0.186103 0.229666
-0.021434 0.231656 0.264205
0.174093 0.405414 0.264205
0.522434 0.111289 0.229666
0.261134 0.167951 0.229666
-0.062367 0.1726 0.264205
-0.101691 0.387876 0.264205
-0.337586 0.24298 0.229666
-0.499074 0.290561 0.229666
0.094481 0.222882 0.229666
0.483672 0.383214 0.264205
-0.242777 0.287323 0.264205
0.302072 0.311175 0.229666
-0.420598 0.206749 0.229666
-0.010554 0.097543 0.264205
-0.521707 0.427202 0.264205
-0.077078 0.29943 0.229666
0.530464 0.319777 0.264205
-0.351523 0.42787 0.261535
0.264116 0.416289 0.264205
0.473092 0.325123 0.264205
0.136647 0.266465 0.264205
0.417243 0.411867 0.229666
0.266502 0.300153 0.264205
0.12782 0.069342 0.229666
-0.025052 0.370352 0.264205
-0.562032 0.182209 0.264205
-0.157341 0.325244 0.264205
0.058442 0.372163 0.229666
-0.234949 0.190726 0.264205
-0.004882 0.149009 0.264205
0.598686 0.205153 0.229666
-0.273055 0.303451 0.229666
-0.364698 0.117808 0.264205
-0.095636 0.192577 0.229666
-0.36098 0.281617 0.264205
0.44177 0.137462 0.264205
0.355286 0.059451 0.232978
-0.162013 0.386559 0.229666
-0.548179 0.329048 0.264205
0.2385 0.069097 0.264205
-0.432267 0.417793 0.229666
0.227128 0.258157 0.264205
-0.301856 0.367892 0.229666
0.115555 0.382057 0.229666
0.554173 0.11643 0.264205
-0.400733 0.063042 0.264205
-0.054058 0.273703 0.264205
0.430847 0.379352 0.264205
-0.499849 0.059451 0.251008
0.375524 0.390721 0.229666
-0.35446 0.356531 0.264205
0.34027 0.107095 0.229666
-0.080303 0.131928 0.229666
0.028789 0.205384 0.229666
0.043066 0.342517 0.264205
-0.596475 0.190434 0.229666
0.262711 0.362685 0.264205
-0.373322 0.168459 0.264205
0.585579 0.083046 0.264205
0.479709 0.41916 0.229666
0.079393 0.321647 0.229666
-0.55608 0.275922 0.229666
0.298475 0.427869 0.236263
-0.328744 0.200679 0.264205
0.264725 0.120339 0.229666
-0.209158 0.074398 0.264205
-0.50693 0.118935 0.229666
0.335352 0.218607 0.264205
0.514622 0.263295 0.229666
0.052968 0.427327 0.229666
0.451845 0.220596 0.264205
0.579826 0.226094 0.264205
0.371984 0.293718 0.264205
-0.439225 0.127497 0.264205
-0.251155 0.237988 0.264205
-0.055249 0.318492 0.264205
-0.504504 0.344068 0.264205
-0.190215 0.182461 0.229666
0.174251 0.372701 0.229666
0.234317 0.164286 0.264205
-0.200857 0.36633 0.229666
-0.047093 0.390278 0.229666
-0.452986 0.272429 0.264205
0.234118 0.221385 0.229666
0.072908 0.15826 0.229666
0.610857 0.311402 0.229666
-0.168198 0.255558 0.264205
-0.479598 0.203875 0.229666
-0.125443 0.117689 0.229666
-0.411173 0.105669 0.229666
-0.100901 0.059451 0.259385
-0.028409 0.27398 0.229666
0.32678 0.392442 0.229666
0.539385 0.212007 0.264205
-0.450772 0.219206 0.264205
0.001169 0.385818 0.229666
-0.395765 0.379218 0.229666
0.504554 0.167559 0.229666
-0.115424 0.246335 0.229666
0.476366 0.245276 0.229666
0.092913 0.26133 0.264205
0.103256 0.066997 0.264205
0.18274 0.204464 0.229666
0.186471 0.329176 0.264205
0.433071 0.27154 0.264205
0.40731 0.354699 0.229666
-0.073253 0.109416 0.264205
-0.284949 0.223095 0.229666
-0.416682 0.26951 0.229666
0.562107 0.172915 0.264205
0.103984 0.161769 0.264205
-0.383626 0.422993 0.229666
0.054565 0.079649 0.264205
-0.325069 0.425492 0.229666
-0.025167 0.078774 0.229666
-0.336676 0.129206 0.229666
-0.496954 0.149983 0.264205
-0.564505 0.128134 0.264205
0.444967 0.087753 0.229666
0.39663 0.25244 0.264205
0.545853 0.059451 0.238127
-0.241851 0.420042 0.264205
0.295257 0.1778 0.264205
-0.57035 0.059451 0.239155
0.167224 0.140771 0.264205
0.226063 0.304639 0.264205
-0.205029 0.325112 0.264205
0.160935 0.118487 0.229666
0.417935 0.192576 0.264205
-0.487597 0.307244 0.264205
-0.309334 0.282565 0.229666
0.133403 0.391014 0.264205
0.305094 0.125951 0.229666
-0.614964 0.374494 0.229666
0.39278 0.068495 0.264205
0.129951 0.331186 0.264205
0.05283 0.258502 0.264205
-0.151127 0.158834 0.264205
-0.125841 0.16709 0.229666
0.457605 0.147948 0.229666
-0.377273 0.256233 0.229666
-0.340744 0.343127 0.229666
0.458044 0.301989 0.229666
0.142626 0.283864 0.229666
-0.514487 0.326426 0.229666
-0.316764 0.377856 0.264205
0.523213 0.165602 0.264205
-0.087062 0.223952 0.264205
-0.54298 0.228337 0.264205
-0.606439 0.42787 0.238178
-0.553848 0.402788 0.264205
0.401875 0.427869 0.261166
-0.608336 0.098043 0.229666
-0.619068 0.172824 0.264205
-0.173146 0.360273 0.264205
-0.273976 0.140404 0.229666
0.530339 0.303513 0.229666
-0.241269 0.381946 0.264205
0.430225 0.341296 0.264205
-0.173795 0.328942 0.229666
-0.148512 0.39483 0.264205
0.109914 0.226285 0.264205
0.379883 0.180156 0.229666
0.514361 0.247563 0.264205
0.340875 0.181147 0.264205
-0.198092 0.221368 0.229666
-0.107387 0.346971 0.264205
0.48128 0.202051 0.229666
-0.518568 0.253138 0.229666
-0.464528 0.387401 0.229666
-0.279272 0.086871 0.264205
-0.064997 0.394989 0.264205
-0.149737 0.089293 0.229666
0.187343 0.25013 0.264205
0.579627 0.319104 0.264205
0.394717 0.163546 0.264205
0.049888 0.16281 0.264205
-0.120511 0.286287 0.229666
0.279926 0.202153 0.229666
-0.417389 0.16996 0.229666
-0.126215 0.395522 0.229666
-0.268432 0.266929 0.229666
-0.091351 0.311556 0.264205
0.017691 0.273257 0.264205
-0.440139 0.323273 0.264205
0.227618 0.42642 0.264205
0.236751 0.081041 0.229666
-0.493129 0.404432 0.264205
-0.203288 0.110677 0.264205
-0.003942 0.245447 0.229666
-0.547595 0.347004 0.229666
0.551815 0.286676 0.264205
-0.5215 0.379016 0.264205
0.488124 0.128185 0.229666
0.123093 0.102036 0.264205
0.565769 0.427869 0.234946
-0.411323 0.06409 0.229666
0.481416 0.331552 0.229666
0.014725 0.096467 0.229666
-0.412944 0.213229 0.264205
-0.239919 0.33365 0.264205
-0.046868 0.172495 0.229666
0.317023 0.353372 0.229666
0.106664 0.112858 0.229666
0.514185 0.409762 0.229666
-0.044755 0.216258 0.229666
-0.295437 0.059451 0.236231
0.514462 0.365206 0.264205
-0.585603 0.251096 0.229666
0.187298 0.277304 0.229666
-0.275993 0.419847 0.229666
0.59034 0.411266 0.264205
0.555067 0.345758 0.229666
-0.41725 0.32874 0.229666
-0.103819 0.424739 0.229666
0.097697 0.427869 0.232553
0.058881 0.29217 0.229666
0.207448 0.094902 0.264205
0.338252 0.146592 0.229666
-0.209532 0.403936 0.229666
0.169707 0.082913 0.229666
0.073036 0.122519 0.229666
-0.350966 0.279253 0.229666
0.129331 0.137704 0.264205
-0.314796 0.088534 0.229666
-0.386206 0.20099 0.229666
0.298372 0.370988 0.264205
-0.374588 0.318682 0.264205
0.008348 0.339736 0.264205
-0.420918 0.258622 0.264205
0.261159 0.418419 0.229666
-0.09695 0.363993 0.229666
0.075843 0.193981 0.229666
-0.055191 0.237371 0.264205
-0.313365 0.169817 0.264205
-0.569835 0.358912 0.264205
0.457419 0.393932 0.229666
0.172247 0.427869 0.239284
-0.300408 0.193274 0.229666
0.084743 0.320943 0.264205
-0.568204 0.148592 0.229666
0.49457 0.427869 0.258939
0.236753 0.38485 0.264205
-0.287013 0.338133 0.229666
-0.030677 0.199751 0.264205
-0.362955 0.388629 0.264205
0.048718 0.41358 0.264205
-0.349459 0.246103 0.264205
0.395208 0.059451 0.232565
-0.374173 0.35438 0.229666
-0.155913 0.260851 0.229666
0.302485 0.411206 0.264205
0.177673 0.372907 0.264205
0.540539 0.397906 0.264205
0.22904 0.162445 0.229666
-0.333668 0.059451 0.23889
0.589044 0.154972 0.264205
0.198594 0.1487 0.264205
-0.564692 0.184509 0.229666
-0.214087 0.267698 0.264205
-0.253417 0.140944 0.264205
-0.317769 0.118816 0.264205
0.59612 0.079994 0.229666
-0.582871 0.374461 0.229666
0.518845 0.207074 0.229666
0.486324 0.232635 0.264205
0.353177 0.415125 0.229666
-0.521769 0.067676 0.229666
-0.243856 0.085554 0.264205
0.055341 0.222565 0.229666
0.082895 0.383274 0.264205
0.3003 0.325565 0.264205
0.27451 0.235565 0.229666
-0.132467 0.059451 0.260739
0.263286 0.299749 0.229666
-0.013691 0.159167 0.229666
-0.620547 0.285321 0.229666
0.110728 0.323647 0.229666
0.508462 0.293961 0.264205
-0.570247 0.109038 0.229666
0.609097 0.427869 0.23734
0.277844 0.245168 0.264205
0.570479 0.112368 0.229666
0.4173 0.312909 0.264205
0.384147 0.402489 0.264205
-0.159108 0.075064 0.264205
-0.335764 0.299768 0.264205
0.113668 0.195478 0.264205
0.228361 0.251857 0.229666
-0.215385 0.139161 0.264205
0.353609 0.23338 0.229666
-0.431077 0.370633 0.264205
0.15687 0.256465 0.229666
-0.474841 0.199322 0.264205
0.157521 0.242625 0.264205
0.164694 0.307597 0.264205
-0.46643 0.059451 0.240684
0.573848 0.376285 0.229666
0.296437 0.059451 0.254093
-0.041247 0.42787 0.261286
-0.468913 0.161891 0.264205
0.295878 0.281371 0.229666
-0.614184 0.321926 0.229666
0.347619 0.328336 0.264205
-0.615787 0.403269 0.264205
-0.274547 0.394768 0.264205
0.197274 0.426879 0.264205
-0.506532 0.165031 0.229666
-0.086355 0.424273 0.264205
0.305284 0.215634 0.264205
0.285973 0.087823 0.229666
0.48478 0.080938 0.264205
0.384605 0.209946 0.229666
0.041963 0.062584 0.229666
-0.358725 0.159034 0.229666
