0.183151 0.760038 -0.195227
0.117156 0.816982 -0.195227
-0.269777 -0.049419 -0.192073
-0.388777 -0.061194 -0.195227
0.135904 -0.77707 -0.195227
0.167641 -0.524987 -0.192073
-0.487196 0.031236 -0.195227
0.271439 0.188315 -0.195227
-0.384299 0.385672 -0.192073
-0.384722 0.50721 -0.192073
0.573625 0.297601 -0.195227
-0.554565 0.327229 -0.195062
0.443568 -0.522682 -0.192073
0.358494 -0.598272 -0.192073
0.213491 -0.608989 -0.192073
-0.069177 0.047334 -0.195227
-0.406174 -0.307303 -0.192073
0.168531 0.000122 -0.192073
-0.080173 -0.312675 -0.195227
0.333954 0.795618 -0.192073
0.035465 -0.425124 -0.192073
-0.048666 -0.257052 -0.195227
0.305616 -0.231401 -0.192073
0.196074 0.44981 -0.195227
0.461487 0.262332 -0.195227
-0.553264 -0.390318 -0.195227
0.442358 -0.311998 -0.192073
0.188035 -0.404705 -0.192073
-0.320648 0.720776 -0.192073
0.521927 0.782235 -0.192073
-0.606838 -0.708848 -0.195227
0.318925 -0.160026 -0.195227
-0.001957 -0.013793 -0.195227
-0.46095 -0.406641 -0.195227
-0.547389 -0.765897 -0.195227
-0.386099 0.680476 -0.195227
0.409624 0.47896 -0.192073
0.214871 0.095585 -0.195227
0.084852 -0.647312 -0.192073
0.568275 -0.653774 -0.192073
0.09499 -0.268865 -0.192073
0.554841 0.78337 -0.195227
0.121587 0.095187 -0.195227
-0.381494 -0.529583 -0.195227
-0.073632 -0.508077 -0.195227
-0.130309 -0.782578 -0.193377
-0.026983 0.813479 -0.195227
-0.173366 0.5812 -0.192073
-0.028011 0.65628 -0.195227
0.211607 0.26521 -0.195227
-0.43026 0.138909 -0.192073
-0.557657 0.536516 -0.192073
-0.382634 -0.729824 -0.195227
-0.201041 -0.163615 -0.192073
0.471685 -0.224782 -0.192073
-0.253839 0.813525 -0.192073
-0.120483 -0.591393 -0.192073
-0.369262 -0.555481 -0.195227
0.452087 0.740183 -0.195227
-0.584836 0.792203 -0.195227
-0.420324 -0.545954 -0.192073
-0.203965 -0.318368 -0.195227
0.023212 -0.345376 -0.195227
0.335424 -0.741664 -0.192073
-0.397868 0.728298 -0.195227
0.032839 0.204286 -0.192073
-0.503623 -0.089242 -0.195227
-0.374768 -0.464149 -0.192073
0.476224 -0.166225 -0.195227
0.483846 0.724318 -0.192073
0.560365 0.650653 -0.192073
0.031067 0.167791 -0.195227
-0.136562 0.123521 -0.195227
0.04986 -0.541714 -0.195227
-0.093453 0.521246 -0.195227
0.412891 -0.423715 -0.195227
-0.296506 0.018405 -0.195227
0.116291 -0.109969 -0.195227
0.278771 -0.121924 -0.195227
-0.180745 0.197644 -0.192073
-0.503248 -0.219746 -0.195227
0.140484 -0.297723 -0.192073
-0.146509 -0.09011 -0.195227
0.017793 0.037029 -0.195227
-0.453818 -0.284879 -0.192073
-0.273904 -0.382568 0.087286
-0.48048 -0.366795 0.02075
0.459243 -0.382568 -0.042692
0.123125 -0.398335 0.113727
-0.234823 -0.382568 -0.095898
0.157507 -0.382568 -0.054989
-0.024999 -0.397646 -0.192073
-0.112894 -0.366795 0.069678
-0.389606 -0.366795 -0.077843
0.330755 -0.382568 -0.064911
-0.114615 -0.398335 -0.105103
0.05102 -0.366795 -0.107217
0.376377 -0.382568 0.045694
-0.583787 -0.398335 0.003662
-0.364723 -0.398335 0.021563
-0.19927 -0.382568 0.008242
-0.524379 -0.382568 -0.089709
-0.511938 -0.398335 0.116007
-0.621046 -0.382568 -0.165256
0.030537 -0.366795 0.082099
0.24748 -0.398335 -0.010587
-0.277064 -0.366795 -0.186164
-0.421134 -0.382568 0.093909
-0.189336 -0.398335 0.120582
0.112319 -0.366795 0.023484
-0.047957 -0.382568 0.140386
-0.310152 -0.398335 -0.053607
0.180666 -0.382568 -0.135607
-0.119991 -0.382568 -0.010254
0.359046 -0.366795 0.123628
-0.341558 -0.398335 -0.147299
0.424382 -0.398335 -0.112623
0.521693 -0.398335 -0.106648
-0.031129 -0.366795 -0.087704
0.507043 -0.366795 0.034832
0.320091 -0.398335 -0.143997
0.072644 -0.398335 -0.034009
-0.45707 -0.398335 -0.057818
-0.044431 -0.398335 0.064653
0.247973 -0.382568 -0.089757
-0.452078 -0.366795 -0.123886
-0.623027 -0.398335 -0.09603
0.316715 -0.382568 0.007412
0.111007 -0.398335 -0.126717
-0.159924 -0.366795 0.185583
-0.266506 -0.366795 -0.004738
-0.577431 -0.382568 0.14229
0.448071 -0.398335 0.027219
-0.339465 -0.398335 0.083843
0.209222 -0.382568 0.125054
0.396068 -0.398335 -0.033044
-0.167723 -0.382568 -0.070027
0.532273 -0.398335 -0.038416
-0.566385 -0.366795 0.057174
-0.116399 -0.382568 0.130547
0.56007 -0.366795 0.068708
-0.404091 -0.366795 -0.015627
-0.299167 -0.366795 -0.106139
-0.064092 -0.366795 0.015222
-0.061766 -0.366795 -0.140827
-0.566492 -0.366795 -0.04835
-0.181493 -0.398335 -0.127333
0.060763 -0.398335 0.025381
0.1706 -0.398335 0.003958
0.010285 -0.366795 0.13983
-0.503337 -0.366795 -0.036612
0.127877 -0.366795 -0.173902
-0.19996 -0.366795 0.071814
0.476736 -0.398335 -0.144831
-0.241821 -0.398335 -0.152695
0.017062 -0.382568 -0.05989
0.39334 -0.382568 -0.158928
0.317045 -0.366795 0.066852
-0.244815 -0.398335 0.13426
-0.557917 -0.382568 -0.135966
-0.073131 -0.382568 -0.042496
0.010585 -0.366795 -0.160261
0.313136 -0.398335 0.115059
0.368154 -0.382568 -0.108649
-0.528452 -0.398335 0.013603
-0.37276 -0.398335 0.129125
0.085796 -0.366795 0.076889
-0.399477 -0.382568 -0.131214
0.001976 -0.382568 0.031229
0.256392 -0.398335 -0.152615
-0.430823 -0.382568 0.034939
0.162914 -0.366795 0.095566
-0.128012 -0.382568 -0.158468
-0.574702 -0.377917 -0.192073
0.462152 -0.366795 -0.093312
-0.490943 -0.366795 0.079822
-0.346503 -0.366795 -0.015906
0.25451 -0.366795 0.041601
-0.351615 -0.398335 -0.09382
0.216228 -0.398335 -0.051681
-0.159888 -0.398335 0.078412
-0.002272 -0.398335 -0.116125
-0.495327 -0.382568 -0.160671
-0.269456 -0.382568 0.193451
0.545337 -0.366795 -0.001448
-0.373415 -0.366795 0.064848
-0.246005 -0.382568 0.037736
0.413637 -0.366795 -0.067114
0.105544 -0.366795 -0.088821
0.367196 -0.366795 -0.000431
0.289027 -0.366795 -0.123065
-0.122824 -0.366795 -0.058807
-0.449256 -0.398335 -0.009623
-0.570268 -0.398335 -0.089189
-0.155766 -0.366795 0.021676
-0.338368 -0.382568 0.158856
-0.481006 -0.398335 -0.102043
-0.559393 -0.398335 0.092028
0.076122 -0.366795 -0.147256
0.118657 -0.398335 -0.025398
0.41095 -0.366795 0.016011
-0.622078 -0.398335 0.15816
-0.199061 -0.366795 0.160276
-0.267107 -0.382568 -0.049687
0.197753 -0.382568 -0.0907
-0.616474 -0.371821 -0.055545
0.485284 -0.398335 -0.00856
-0.387053 -0.398335 -0.043964
0.231457 -0.366795 -0.130976
0.513971 -0.366795 -0.065812
0.553578 -0.366795 -0.145059
-0.431898 -0.398335 -0.095614
0.146938 -0.382568 0.056101
-0.466729 -0.398335 0.101593
-0.068714 -0.398335 -0.172931
0.141882 -0.366795 -0.118865
-0.072804 -0.398335 -0.089019
-0.205104 -0.366795 -0.051349
0.341435 -0.382568 0.161939
-0.284655 -0.398335 -0.141731
0.167668 -0.398335 -0.182622
-0.29451 -0.398335 0.051851
0.447293 -0.366795 -0.152171
0.20825 -0.382568 0.019664
-0.288797 -0.398335 0.157543
0.373772 -0.398335 0.097225
-0.064653 -0.382568 0.099742
0.351328 -0.398335 -0.030049
0.065886 -0.366795 -0.066533
0.267394 -0.398335 -0.048894
0.448702 -0.366795 -0.003876
-0.129991 -0.398335 0.033243
-0.157074 -0.382568 0.142432
0.504418 -0.366795 -0.160571
0.098946 -0.398335 -0.177867
0.083418 -0.366795 -0.008759
-0.304898 -0.382568 -0.000853
-0.151066 -0.366795 -0.127764
0.223627 -0.366795 -0.022741
0.10464 -0.398335 0.058364
-0.624712 -0.382568 -0.003063
0.276855 -0.382568 0.130319
-0.09049 -0.386492 0.198474
0.509295 -0.366795 -0.019775
0.273774 -0.398335 0.057958
-0.545937 -0.366795 -0.00459
0.346106 -0.398335 0.067823
0.044335 -0.382568 -0.010046
0.560266 -0.398335 -0.074855
0.202121 -0.366795 0.083248
-0.535144 -0.366795 0.097497
0.172555 -0.366795 0.028553
0.119218 -0.366795 -0.049627
-0.229135 -0.398335 -0.059893
0.295144 -0.382568 -0.170417
0.184606 -0.366795 -0.01653
-0.349708 -0.382568 -0.051913
-0.233575 -0.382568 0.085004
0.371714 -0.366795 -0.072731
-0.534462 -0.382568 0.144119
-0.459189 -0.382568 0.06282
0.570046 -0.398335 -0.181738
0.119582 -0.366795 0.136899
-0.423891 -0.382568 0.133851
-0.124602 -0.382568 0.179196
0.049785 -0.398335 0.069044
0.059573 -0.398335 -0.128692
-0.023854 -0.382568 -0.052718
-0.18824 -0.366795 -0.154304
0.028323 -0.398335 0.114189
0.492614 -0.398335 -0.074085
0.011677 -0.366795 -0.024703
0.283237 -0.398335 0.020212
-0.332512 -0.366795 0.11202
0.295862 -0.382568 -0.025373
-0.166049 -0.398335 -0.004269
-0.616474 -0.371632 -0.123221
-0.181011 -0.398335 0.178269
-0.242802 -0.366795 0.156444
-0.588318 -0.398335 -0.052153
-0.139888 -0.398335 -0.04473
-0.513922 -0.366795 -0.123161
0.162496 -0.398335 -0.105684
0.036297 -0.366795 0.025946
0.047519 -0.398335 -0.077323
0.580217 -0.398335 0.062355
0.155667 -0.382568 0.12927
-0.491042 -0.382568 -0.06879
0.415726 -0.366795 -0.131501
-0.346232 -0.366795 -0.127333
-0.494856 -0.366795 0.127169
-0.594818 -0.366795 0.10274
-0.583231 -0.398335 0.045885
-0.59406 -0.366795 -0.017592
-0.426085 -0.366795 -0.069687
-0.484639 -0.398335 -0.029391
-0.54664 -0.398335 0.053468
-0.439924 -0.366795 -0.027212
-0.394773 -0.398335 0.04349
-0.146282 -0.366795 0.092624
-0.059771 -0.366795 0.1824
0.245281 -0.366795 0.141843
0.313093 -0.366795 0.134621
-0.536697 -0.366795 0.034924
0.395666 -0.366795 0.133537
-0.045489 -0.398335 0.020446
-0.181743 -0.382568 0.042674
-0.425708 -0.382568 -0.157099
0.428138 -0.398335 -0.054452
-0.094594 -0.398335 0.073364
-0.080694 -0.398335 0.142237
0.433095 -0.398335 -0.163398
-0.393161 -0.366795 0.019005
0.0275 -0.398335 -0.154177
-0.20721 -0.398335 -0.176405
0.337816 -0.366795 -0.142188
0.181256 -0.398335 0.108665
-0.55459 -0.398335 -0.035711
-0.617131 -0.398335 0.109658
-0.03267 -0.382568 -0.127248
-0.526277 -0.398335 -0.141351
0.122045 -0.398335 -0.091899
-0.237712 -0.366795 -0.036881
0.228489 -0.398335 0.099612
-0.371203 -0.366795 0.145393
-0.381763 -0.366795 -0.157555
0.126662 -0.366795 0.097959
-0.11692 -0.366795 0.021311
-0.593073 -0.382568 0.18502
-0.281572 -0.366795 0.12506
-0.05694 -0.366795 0.054683
0.025975 -0.367785 -0.192073
-0.274559 -0.366795 0.051245
-0.486376 -0.398335 0.035421
0.47231 -0.366795 0.046882
-0.034167 -0.366795 -0.01639
-0.573921 -0.366795 -0.104269
-0.171518 -0.366795 -0.038911
0.295882 -0.398335 -0.069341
0.363284 -0.366795 -0.167473
-0.392233 -0.398335 0.082048
0.375781 -0.366795 0.076905
-0.032036 -0.366795 -0.159209
0.598068 -0.388918 -0.041291
-0.090357 -0.398335 -0.001083
-0.222901 -0.366795 -0.156018
-0.460837 -0.382568 -0.164401
0.212819 -0.398335 -0.011239
0.385847 -0.366795 0.166467
0.367818 -0.398335 0.016589
-0.309971 -0.373908 -0.192073
0.549118 -0.398335 0.011068
-0.369846 -0.398335 -0.166375
-0.233169 -0.382568 0.004836
0.280424 -0.398335 -0.113608
-0.310259 -0.398335 0.101167
0.149688 -0.366795 -0.085827
-0.301246 -0.366795 0.074809
0.018196 -0.366795 -0.115716
-0.233671 -0.366795 0.123801
-0.598952 -0.366795 0.046763
0.566804 -0.366795 0.035499
-0.374181 -0.366795 -0.10818
0.145428 -0.382568 -0.149652
-0.454911 -0.366795 0.104235
-0.000588 -0.366795 0.060971
-0.426847 -0.366795 0.064613
0.150117 -0.382568 -0.022073
-0.27776 -0.382568 -0.085488
0.114008 -0.398335 0.00792
-0.272415 -0.398335 -0.174746
-0.552818 -0.398335 0.170944
-0.144436 -0.398335 -0.182925
0.484763 -0.382568 -0.11217
0.316456 -0.366795 -0.090636
0.108363 -0.366795 -0.137342
-0.170401 -0.398335 -0.158819
-0.332546 -0.366795 -0.157749
-0.03009 -0.398335 0.163656
-0.506006 -0.382568 -0.005288
0.542672 -0.366795 -0.036738
-0.371725 -0.398335 -0.120285
0.253865 -0.366795 -0.036527
-0.175155 -0.366795 0.108817
0.338301 -0.382568 0.039834
-0.266058 -0.398335 0.016825
-0.030884 -0.366795 0.117019
0.336695 -0.398335 -0.093117
-0.396185 -0.398335 -0.011141
-0.098022 -0.382568 0.044837
-0.449208 -0.398335 -0.138186
0.565793 -0.366795 -0.110421
0.403801 -0.382568 -0.189851
0.245638 -0.382568 -0.179153
-0.591462 -0.366795 -0.075646
-0.091549 -0.398335 0.108479
0.563673 -0.398335 -0.030553
0.185122 -0.366795 -0.06047
0.225655 -0.382568 0.046768
0.294208 -0.382568 0.083144
-0.151098 -0.398335 -0.116763
-0.2225 -0.398335 -0.126971
0.375373 -0.398335 -0.077716
0.422233 -0.382568 -0.023232
-0.260714 -0.366795 -0.158562
-0.569623 -0.398335 -0.161254
0.351772 -0.398335 -0.139571
-0.080537 -0.366795 0.136929
-0.585667 -0.366795 -0.135487
-0.336986 -0.382568 0.021992
0.087326 -0.382568 -0.112317
0.016021 -0.398335 -0.025674
0.335435 -0.382568 0.098739
0.445957 -0.398335 -0.005418
0.230085 -0.398335 -0.128882
-0.001498 -0.382568 -0.08871
-0.492059 -0.398335 0.080046
0.140845 -0.366795 0.010234
-0.527427 -0.382568 -0.058555
-0.168805 -0.366795 -0.102023
-0.257686 -0.382568 -0.130985
-0.361975 -0.366795 0.101893
-0.316689 -0.382568 -0.126475
-0.432171 -0.398335 -0.035417
-0.065351 -0.36759 -0.192073
-0.127079 -0.366795 -0.108303
-0.318982 -0.398335 -0.024035
0.31651 -0.366795 -0.185783
-0.630407 -0.398335 -0.128959
-0.220623 -0.366795 0.031234
0.033352 -0.398271 -0.192073
-0.529508 -0.366795 0.067452
0.234385 -0.398335 0.019707
0.014274 -0.398335 0.008264
0.577409 -0.398335 -0.105774
0.224878 -0.398335 -0.163512
-0.38822 -0.366795 -0.041376
-0.093915 -0.398335 -0.067543
0.52998 -0.382568 -0.160253
0.484011 -0.366795 -0.065451
-0.376888 -0.398335 -0.077855
-0.217369 -0.398335 0.110289
-0.361015 -0.382568 -0.190121
0.048103 -0.366795 -0.136813
0.12251 -0.366795 -0.020082
-0.093381 -0.382568 -0.118497
-0.476366 -0.382568 -0.005694
-0.191702 -0.398335 -0.062711
-0.39852 -0.366795 0.08055
0.119958 -0.398335 0.083651
-0.115294 -0.382568 0.094534
0.423509 -0.366795 -0.169646
-0.535524 -0.366795 -0.032148
-0.195423 -0.382568 -0.020961
0.227381 -0.382568 0.161624
-0.078929 -0.366795 -0.010167
0.287298 -0.366795 0.023871
-0.210359 -0.366795 -0.099272
-0.560107 -0.382568 0.027121
-0.308551 -0.382568 0.143081
0.224419 -0.398335 -0.095866
0.339102 -0.366795 -0.007567
0.051585 -0.382568 0.094188
-0.417501 -0.398335 0.014693
-0.150744 -0.398335 0.165742
-0.224739 -0.382568 0.057199
-0.231145 -0.366795 -0.119635
-0.133664 -0.398335 -0.083602
-0.365283 -0.398335 0.050211
-0.551739 -0.382568 -0.073718
-0.323047 -0.398335 -0.095154
-0.455754 -0.382568 -0.09566
-0.460693 -0.382568 0.034294
-0.052151 -0.398335 -0.05361
0.475496 -0.382568 0.012993
-0.294957 -0.382568 0.025766
-0.192813 -0.366795 0.130994
0.335869 -0.382568 0.128701
-0.275738 -0.398335 -0.027798
-0.166907 -0.398335 0.024471
-0.295992 -0.382568 -0.169099
0.131201 -0.382568 -0.0704
0.344701 -0.398335 0.187686
0.149064 -0.398335 0.032925
-0.59709 -0.382568 -0.104821
0.223583 -0.366795 -0.104123
-0.223575 -0.398335 0.03219
-0.025651 -0.382568 0.035246
0.044164 -0.382568 -0.037927
-0.037559 -0.382568 0.09325
0.525419 -0.382568 0.021092
0.230183 -0.366795 -0.051113
-0.319024 -0.382568 0.060379
-0.105224 -0.398335 -0.16063
0.43183 -0.366795 -0.046116
-0.527763 -0.398335 0.093191
0.374046 -0.382568 -0.039136
-0.307774 -0.366795 -0.060642
-0.036971 -0.366795 -0.186525
0.30628 -0.366795 -0.150542
-0.330307 -0.366795 -0.039992
-0.23365 -0.366795 -0.073175
0.036806 -0.382568 0.050374
-0.498082 -0.382568 0.054902
-0.091769 -0.366795 -0.055373
-0.238253 -0.382568 0.179321
-0.07219 -0.382568 0.163515
-0.130258 -0.366795 0.048359
0.455247 -0.382568 -0.173236
-0.265037 -0.382568 0.159748
-0.13532 -0.382568 0.07079
-0.59798 -0.366795 0.009551
0.023386 -0.366795 0.115742
0.148138 -0.366795 0.15033
0.229058 -0.366795 0.078425
0.203042 -0.398335 -0.132642
0.470521 -0.366795 -0.129282
-0.20204 -0.366795 -0.130768
0.195775 -0.382568 -0.040943
-0.397414 -0.382568 -0.098644
0.348783 -0.366795 0.05942
-0.08569 -0.366795 0.071158
0.412664 -0.382568 -0.089289
0.212949 -0.366795 -0.074683
-0.374973 -0.382568 -0.005026
-0.40294 -0.382568 -0.059214
0.376664 -0.382568 -0.184936
0.120629 -0.398335 -0.161768
0.098859 -0.382568 0.094446
-0.619132 -0.382568 0.07588
-0.54534 -0.382568 -0.159716
0.275374 -0.382568 -0.080815
0.097868 -0.382568 -0.046494
-0.027679 -0.366795 0.163405
-0.592658 -0.398335 0.127109
0.528678 -0.398335 -0.006011
0.08107 -0.366795 0.050711
0.352295 -0.366795 -0.090834
0.394838 -0.398335 -0.059715
-0.254237 -0.366795 -0.106614
-0.140802 -0.366795 -0.005843
0.251447 -0.382568 -0.115986
-0.172287 -0.394495 -0.192073
0.337433 -0.366795 -0.044829
-0.404172 -0.382568 0.114092
-0.351782 -0.382568 0.131578
0.148995 -0.398335 0.077116
-0.574291 -0.382568 -0.028235
0.018877 -0.398335 -0.100493
0.130649 -0.366795 0.069357
-0.269193 -0.366795 0.025538
-0.150785 -0.366795 0.118548
-0.57583 -0.398335 -0.125263
0.263591 -0.396513 -0.192073
-0.122087 -0.387666 -0.192073
-0.189146 -0.382568 -0.106411
-0.264224 -0.398335 0.068884
0.574043 -0.382568 -0.14847
-0.609497 -0.398335 -0.017098
-0.325597 -0.398335 0.188669
0.443504 -0.382568 -0.084359
-0.560615 -0.398335 0.118005
-0.213143 -0.382568 0.134201
0.191216 -0.398335 0.031135
0.539675 -0.382568 -0.057516
0.373021 -0.366795 0.024746
-0.13445 -0.366795 0.161258
0.321534 -0.398335 -0.114016
-0.01396 -0.382568 0.003138
-0.130089 -0.382568 -0.132782
-0.034935 -0.398335 -0.103726
-0.464556 -0.382568 -0.032432
0.291386 -0.382568 0.109149
-0.592619 -0.382568 -0.154462
0.244019 -0.398335 -0.038499
-0.264889 -0.382568 0.113791
-0.271627 -0.366795 -0.029778
0.272667 -0.398335 -0.014818
0.116433 -0.366795 -0.113142
0.502124 -0.398335 0.010567
0.320194 -0.391211 -0.192073
-0.422806 -0.382568 -0.121062
0.028369 -0.366795 -0.076224
-0.127246 -0.366795 -0.033838
0.300484 -0.366795 -0.00401
0.409301 -0.398335 -0.008191
-0.309409 -0.382568 0.174113
0.256522 -0.366795 0.068688
-0.105829 -0.398335 0.025843
0.546456 -0.382568 -0.106466
0.242301 -0.366795 -0.001492
-0.450168 -0.382568 0.009986
0.067262 -0.366795 -0.041396
-0.528469 -0.398335 0.177312
0.065361 -0.382568 -0.086119
0.315933 -0.366795 -0.115769
0.088264 -0.398335 0.077985
0.183483 -0.398335 -0.163116
-0.632248 -0.383065 0.134298
0.164782 -0.366795 0.002724
0.325307 -0.382568 -0.162652
-0.258503 -0.398335 -0.087083
-0.243935 -0.382568 -0.0176
-0.148921 -0.382568 -0.095215
0.151161 -0.398335 -0.127758
-0.574084 -0.366795 0.080755
0.429496 -0.382568 0.040011
-0.041947 -0.366795 -0.039828
-0.617771 -0.398335 -0.050579
-0.50879 -0.382568 0.093779
0.371055 -0.382568 -0.148349
0.503947 -0.398335 -0.024686
0.053236 -0.398335 -0.177496
-0.047377 -0.382568 0.001679
-0.192674 -0.382568 -0.081503
-0.472585 -0.398335 -0.149707
0.067444 -0.382568 0.001158
0.180409 -0.398335 -0.083428
-0.283776 -0.366795 0.158343
0.284855 -0.366795 0.148882
-0.612604 -0.382568 -0.080586
-0.125283 -0.398335 0.160601
-0.162302 -0.398335 0.193916
-0.190844 -0.398335 0.144921
0.293137 -0.382568 0.041461
-0.152461 -0.382568 -0.163365
-0.175264 -0.382568 0.16071
0.284968 -0.382568 -0.148392
-0.519882 -0.382568 0.04234
-0.112134 -0.398335 -0.051591
-0.323759 -0.382568 -0.174226
-0.400161 -0.366795 0.042095
0.140183 -0.366795 -0.03723
0.211085 -0.366795 0.105515
-0.377116 -0.382568 0.034744
0.241065 -0.382568 0.122285
-0.013177 -0.382568 -0.159988
-0.346333 -0.382568 -0.076574
-0.104623 -0.366795 0.144156
-0.439145 -0.382568 -0.056152
0.062007 -0.366795 0.079314
-0.412522 -0.398335 0.069459
0.18001 -0.382568 0.047293
-0.188343 -0.382568 -0.045144
-0.206172 -0.366795 -0.177974
-0.490657 -0.382568 -0.117046
0.353463 -0.398335 -0.170113
-0.419699 -0.366795 -0.039751
0.002011 -0.382568 0.078537
0.497482 -0.382568 -0.091164
-0.415384 -0.382568 -0.181598
0.192931 -0.366795 -0.122852
-0.511312 -0.398335 -0.16827
0.441903 -0.382568 -0.114732
0.574538 -0.382568 -0.016656
0.384803 -0.382568 -0.001001
-0.540966 -0.366795 -0.140759
0.211844 -0.382568 -0.147884
-0.517464 -0.366795 -0.073553
-0.065934 -0.398335 -0.149494
0.265699 -0.382568 0.020837
-0.479794 -0.366795 0.109041
0.033981 -0.382568 -0.12326
-0.068267 -0.398335 0.026345
0.096239 -0.382568 0.030073
-0.235749 -0.382568 -0.18256
0.076828 -0.382568 -0.164514
-0.360261 -0.366795 -0.148372
0.363931 -0.366795 0.097031
-0.077638 -0.382568 0.120011
-0.133106 -0.366795 -0.079713
0.301697 -0.398335 0.142208
0.539649 -0.382568 -0.019121
-0.528955 -0.382568 0.114541
0.506834 -0.382568 -0.119452
-0.56474 -0.366795 0.130881
-0.579438 -0.366795 0.034224
0.016943 -0.382568 -0.140903
-0.330759 -0.398335 -0.064088
-0.579542 -0.366795 -0.172395
-0.593139 -0.382568 0.062628
-0.480159 -0.398335 -0.055882
0.3539 -0.398335 -0.007109
-0.21849 -0.382568 -0.021355
-0.319833 -0.398335 -0.154838
-0.426392 -0.398335 -0.011739
0.410787 -0.366795 -0.036959
-0.070064 -0.382568 0.065384
-0.331452 -0.382568 -0.000245
-0.470432 -0.369038 -0.192073
-0.138483 -0.382568 0.197382
-0.211656 -0.382568 0.091556
0.517061 -0.398335 -0.170634
-0.267012 -0.382568 0.136534
-0.589105 -0.366795 -0.039844
0.391565 -0.366795 0.05203
-0.18324 -0.366795 0.004592
-0.072143 -0.382568 -0.10541
0.443871 -0.366795 0.01835
0.579341 -0.366795 -0.090126
0.460216 -0.382568 -0.015518
0.07445 -0.398335 -0.189339
-0.008031 -0.366795 -0.048678
0.046801 -0.366795 -0.183104
-0.219877 -0.398335 -0.005104
0.551564 -0.382568 -0.167154
0.275576 -0.366795 -0.171683
0.193017 -0.398335 0.006855
0.195866 -0.366795 0.06153
-0.286622 -0.366795 0.011183
0.39558 -0.382568 -0.136476
-0.150764 -0.382568 -0.033001
-0.49639 -0.382568 0.019205
0.310995 -0.381926 0.186486
-0.300828 -0.398335 0.073355
0.034468 -0.398335 -0.059104
-0.621506 0.847746 0.188881
0.098743 0.847746 0.192249
-0.257647 0.847746 -0.072794
-0.538861 0.847746 -0.071211
0.341266 0.831973 0.194908
-0.395805 0.847746 0.126938
0.171663 0.847746 -0.024633
-0.040026 0.847746 0.009473
0.460391 0.847746 0.015974
0.309869 0.847746 0.038198
-0.251086 0.831973 0.073425
-0.396502 0.831973 -0.051164
-0.033692 0.847746 0.145772
-0.528526 0.847746 0.089118
0.216547 0.831973 0.134471
-0.089914 0.831973 -0.108361
0.368072 0.847746 -0.071883
-0.467339 0.847746 -0.188173
0.082731 0.831973 0.0721
0.57549 0.847746 -0.051921
0.058933 0.847746 -0.062176
0.470314 0.847746 0.198364
-0.130351 0.831973 0.074225
-0.632248 0.84587 -0.01125
0.404301 0.831973 0.108992
0.589686 0.840896 -0.192073
0.239091 0.847746 -0.116937
-0.158027 0.847746 -0.036325
0.508664 0.831973 0.108255
-0.27722 0.847746 0.166442
-0.437893 0.847746 0.035397
-0.632248 0.846747 0.092267
0.488703 0.831973 -0.084161
-0.632248 0.844025 -0.148075
-0.177727 0.847746 -0.159763
0.589628 0.847746 0.068082
0.131076 0.847746 -0.114772
0.228237 0.847746 0.05388
-0.338433 0.831973 -0.107984
0.283868 0.831973 -0.037135
-0.543513 0.831973 0.007511
0.390469 0.847746 -0.146349
0.382402 0.831973 0.015799
-0.250485 0.831973 -0.179361
0.156387 0.847746 0.085646
0.243191 0.846783 -0.192073
-0.482669 0.831973 -0.115038
-0.188359 0.831973 0.12289
-0.395026 0.831973 -0.178495
0.310705 0.847746 -0.117899
0.598068 0.837611 -0.119061
-0.465036 0.831973 0.129386
-0.060557 0.847746 0.080211
-0.473685 0.831973 -0.044786
0.02775 0.831973 0.016151
-0.21264 0.847746 0.017389
0.099781 0.831973 -0.008344
0.526659 0.831973 0.027476
0.069948 0.847746 -0.145618
0.029043 0.847746 0.109588
-0.551814 0.847746 0.1738
-0.108566 0.831973 0.14292
-0.196845 0.831973 -0.088955
-0.104542 0.831973 -0.00326
-0.004488 0.847746 -0.045422
-0.323074 0.847746 0.121077
0.439263 0.847746 -0.046949
0.101388 0.831973 0.130282
-0.064906 0.847746 -0.053932
-0.0636 0.842407 0.198474
0.155719 0.847746 0.171401
-0.5893 0.831973 -0.099292
0.347842 0.847746 0.138401
-0.278006 0.847746 -0.017485
0.512579 0.847746 -0.135401
0.35169 0.831973 0.075961
-0.287215 0.847746 -0.136858
0.170564 0.831973 0.031243
0.229031 0.847746 -0.059746
-0.224741 0.847094 0.198474
0.450144 0.831973 -0.126627
0.424469 0.845404 -0.192073
-0.45369 0.847746 0.186849
0.004426 0.847746 -0.131629
-0.120797 0.847746 -0.153217
0.456077 0.847746 0.12256
-0.489255 0.831973 0.020669
0.183154 0.831973 -0.13861
-0.35309 0.831973 0.072905
0.113809 0.831973 -0.06108
-0.158386 0.847746 0.020435
0.447057 0.847746 0.069105
-0.216028 0.831973 -0.038401
0.499512 0.831973 -0.019227
-0.385627 0.847746 -0.001088
-0.581004 0.831973 0.095109
-0.474623 0.831973 0.076966
0.333301 0.847746 -0.027132
-0.011118 0.847746 0.19774
0.29742 0.847746 0.17039
0.560765 0.831973 0.115717
-0.579131 0.831973 -0.030922
-0.194154 0.831973 0.070965
-0.577725 0.847746 0.043522
0.122064 0.847746 0.040143
-0.425666 0.847746 -0.09083
0.026456 0.831973 0.159962
-0.238112 0.831973 -0.129874
-0.237003 0.847746 0.135256
0.250189 0.831973 0.010976
-0.283759 0.847746 0.03868
-0.402845 0.831973 0.071841
-0.422905 0.847746 -0.140301
-0.530088 0.831973 -0.151796
-0.347603 0.831973 -0.060247
0.168523 0.847746 -0.072998
-0.070074 0.847746 -0.149458
0.41756 0.831973 -0.087004
-0.383304 0.847746 -0.114428
0.024293 0.847746 0.062542
0.321384 0.847746 -0.072352
-0.52108 0.831973 0.142664
-0.613896 0.847746 -0.057214
0.036304 0.831973 -0.102149
0.548069 0.831973 -0.018381
0.258367 0.847746 0.11614
0.536275 0.847746 -0.075948
-0.098659 0.831973 0.04183
0.134697 0.831973 -0.166528
0.269112 0.847746 -0.080572
0.549952 0.831973 -0.115985
-0.440001 0.831973 -0.015348
0.512126 0.847746 0.149867
0.070737 0.847746 0.157821
0.346469 0.847746 -0.146812
0.054926 0.841619 -0.192073
-0.409984 0.847746 0.184841
0.432686 0.831973 0.157023
0.402857 0.831973 0.054362
0.551375 0.831973 -0.164706
0.263476 0.831973 0.073323
-0.552652 0.847746 -0.118568
-0.136633 0.847746 0.114223
-0.632248 0.833236 -0.097957
-0.141719 0.847746 0.164827
0.391908 0.847746 -0.022742
-0.592442 0.831973 -0.157713
-0.517143 0.847746 -0.021728
0.205363 0.847746 0.172192
0.147069 0.831973 0.12352
-0.019876 0.847746 0.106172
-0.074173 0.847746 0.119638
0.070664 0.847746 0.017016
0.254817 0.831973 -0.152052
-0.632248 0.835093 0.030705
-0.250264 0.831973 0.010235
0.548504 0.831973 0.062498
-0.152251 0.831973 -0.131378
-0.562717 0.847746 0.128432
-0.512862 0.847746 0.051341
0.202272 0.847746 -0.171124
-0.515455 0.847746 0.19223
-0.029527 0.843412 -0.192073
-0.031758 0.831973 -0.117422
-0.015328 0.847746 -0.084142
0.303297 0.847746 0.088799
0.07896 0.831973 -0.092972
-0.488065 0.847746 -0.154014
0.345778 0.847746 0.013299
0.553582 0.831973 0.154974
-0.199406 0.831973 0.160983
-0.483901 0.831973 0.166835
-0.305734 0.831973 -0.064741
0.418676 0.831973 0.001915
0.493936 0.831973 0.048216
0.581475 0.847746 0.030227
-0.431026 0.831973 0.147636
-0.116456 0.847522 -0.192073
0.04532 0.831973 -0.02993
0.136196 0.831973 -0.020359
-0.046409 0.831973 0.043779
-0.436063 0.831973 -0.172831
0.398853 0.847746 0.149019
-0.098209 0.847746 0.087418
0.203511 0.847746 0.102268
-0.498933 0.831973 0.111645
-0.395225 0.831973 0.034868
-0.45853 0.831973 -0.081961
-0.372568 0.844758 0.198474
0.122485 0.831973 0.084003
0.242677 0.847746 0.166295
0.42714 0.847746 -0.153357
-0.266957 0.847746 0.113027
-0.472864 0.847746 -0.00879
-0.330139 0.831973 -0.02787
-0.307733 0.840945 0.198474
-0.502328 0.847746 -0.07024
0.096848 0.845609 -0.192073
-0.166509 0.847746 -0.076925
-0.521575 0.831973 -0.098661
-0.32528 0.847746 0.050123
0.59003 0.847746 -0.015385
-0.432863 0.847746 0.115637
-0.360432 0.831973 0.15717
-0.22649 0.847746 0.053563
0.589678 0.847746 -0.086395
0.314821 0.847746 0.126542
-0.206157 0.847746 -0.118789
-0.574444 0.847746 -0.061565
0.454944 0.847746 -0.077991
0.209043 0.847746 -0.099592
-0.374147 0.831973 -0.143849
-0.137141 0.847746 -0.008757
-0.157887 0.847746 0.054855
-0.188489 0.847746 -0.020514
-0.012965 0.847746 -0.012171
0.36132 0.831973 -0.038348
-0.360783 0.831973 0.02671
0.058881 0.831973 0.10702
-0.548572 0.831973 0.050311
-0.59558 0.831973 0.161293
0.197452 0.831973 -0.065751
-0.272492 0.838297 0.198474
0.39306 0.831973 -0.055718
0.468348 0.847746 -0.030204
0.082058 0.831973 -0.043936
0.50862 0.847746 -0.047195
0.462873 0.847746 -0.153035
0.268949 0.847746 -0.011405
-0.237623 0.847746 -0.018891
0.283672 0.831973 -0.128595
0.227932 0.831973 0.08666
-0.045879 0.847746 -0.027026
-0.098039 0.847746 -0.080742
-0.429043 0.831973 -0.04685
-0.327128 0.847746 -0.134426
-0.205713 0.831973 -0.153895
-0.126281 0.847746 -0.043514
-0.17759 0.847746 0.096541
0.131919 0.831973 0.156009
0.474681 0.847746 0.096016
-0.310962 0.847746 -0.101305
-0.289419 0.847746 0.136287
0.000782 0.847746 0.14832
-0.610717 0.831973 0.064443
0.498154 0.831973 0.174262
0.020666 0.842637 0.198474
-0.358294 0.847746 -0.018036
-0.072863 0.831973 0.022652
0.223646 0.847746 -0.14501
-0.243759 0.847746 -0.102672
0.1625 0.847746 -0.109139
0.176196 0.831973 0.106765
0.107948 0.847746 -0.15978
0.148468 0.831973 -0.049602
0.538865 0.847746 0.099384
0.341607 0.831973 -0.119938
-0.014989 0.831973 -0.155602
-0.415068 0.847746 0.009664
0.407675 0.831973 -0.12544
0.156146 0.847746 -0.140303
0.458601 0.847746 0.169415
-0.562369 0.831973 -0.149525
-0.065172 0.847746 -0.085085
0.112389 0.831973 -0.09205
0.478043 0.831973 -0.11314
-0.449211 0.847746 0.089572
-0.456543 0.847746 0.154387
0.504078 0.831973 0.077208
-0.118078 0.847746 0.019338
-0.296823 0.847746 0.105211
0.167644 0.847746 0.14326
0.303902 0.847746 0.000809
-0.300137 0.847746 0.003382
0.598068 0.844206 -0.163082
-0.196147 0.847746 0.188656
-0.055528 0.831973 -0.176199
0.300994 0.831973 -0.174029
-0.405279 0.831973 0.103312
-0.100596 0.831973 0.114075
0.015096 0.831973 -0.029202
0.108355 0.847746 0.105104
-0.025079 0.831973 0.070624
-0.182161 0.831973 0.028431
0.348865 0.847746 -0.178489
-0.22074 0.847746 0.110623
0.432184 0.831973 0.089075
0.148215 0.831973 -0.087269
0.14814 0.831973 0.012272
-0.620451 0.847746 0.150095
-0.432483 0.847746 0.064057
0.200296 0.847746 -0.019155
0.459514 0.831973 0.040254
-0.056945 0.847746 0.163038
0.226064 0.847746 0.013627
0.350904 0.831973 -0.089036
0.312683 0.832737 0.198474
-0.137619 0.847746 0.198263
0.49062 0.831973 -0.145272
-0.506578 0.831973 0.074505
-0.077523 0.831973 0.06324
-0.538325 0.847746 -0.041115
0.38339 0.847746 -0.096129
-0.3709 0.847746 -0.0653
-0.421959 0.847746 -0.191953
0.538435 0.847746 -0.04753
0.374478 0.831973 0.058893
-0.632248 0.841177 -0.176302
-0.586584 0.831973 0.198426
0.438962 0.847746 -0.009933
0.178358 0.831973 0.165284
-0.138352 0.831973 -0.174071
0.351606 0.847746 0.173874
-0.461042 0.847746 0.05153
-0.564402 0.847746 0.078738
0.471365 0.831973 0.073035
0.30705 0.831973 0.061195
0.538258 0.847746 0.00238
0.13663 0.84279 -0.192073
-0.537403 0.847746 0.117001
0.050716 0.831973 0.031764
0.032496 0.831973 -0.074683
-0.600014 0.831973 -0.006017
-0.472413 0.847746 0.104375
0.245139 0.831973 0.039019
0.308795 0.847746 -0.03957
0.430012 0.847746 -0.105732
-0.603391 0.847746 0.033805
-0.047307 0.847746 0.10595
-0.260429 0.847746 -0.045552
0.078574 0.847746 -0.171605
0.097158 0.831973 0.018894
0.04689 0.847746 0.077858
-0.307407 0.831973 0.149701
-0.551259 0.847746 0.028356
-0.410856 0.831973 -0.011879
-0.583216 0.831973 -0.18879
0.08161 0.847746 0.101293
0.290909 0.847746 0.112777
-0.338992 0.847746 0.153119
-0.269745 0.847746 0.084719
-0.542216 0.842893 0.198474
0.477832 0.847746 -0.004498
-0.264744 0.847746 -0.122257
0.423899 0.831973 0.028009
-0.094542 0.847746 0.191709
-0.231193 0.847746 0.081207
0.450844 0.831973 -0.10015
-0.178431 0.847746 -0.053156
0.121325 0.831973 0.008362
0.334631 0.847746 0.088399
-0.237387 0.847746 0.029649
-0.089865 0.847746 -0.180649
0.033333 0.847746 -0.122928
0.574416 0.831973 0.138087
0.429966 0.847746 0.120544
0.436349 0.846959 0.198474
0.060218 0.831973 0.180792
0.249815 0.831973 -0.06073
-0.273797 0.831973 -0.167654
-0.518299 0.831973 -0.124469
0.476654 0.831973 0.121783
-0.509448 0.831973 0.004458
-0.066961 0.847746 0.045654
0.124073 0.847746 -0.043387
0.197958 0.847746 -0.124497
0.385669 0.847746 0.126836
-0.450712 0.847746 0.004326
0.181417 0.831973 -0.045645
-0.261298 0.831973 -0.142231
0.525818 0.831973 -0.166861
0.411503 0.847746 -0.047445
-0.60991 0.835987 -0.192073
0.103715 0.847746 0.150327
-0.279318 0.847746 -0.187029
0.369097 0.831973 0.094636
-0.198038 0.831973 -0.002904
0.231839 0.831973 -0.07951
-0.081777 0.847746 -0.03493
0.57804 0.831973 -0.104476
-0.58992 0.831973 0.118864
-0.17516 0.831973 -0.10204
0.125858 0.831973 -0.133856
-0.599686 0.831973 -0.123401
0.184852 0.831973 0.133925
-0.366382 0.847746 -0.0959
0.299582 0.831973 -0.101962
-0.347188 0.847746 0.010543
0.355243 0.847746 -0.009774
-0.568122 0.831973 0.011407
0.075057 0.831973 -0.00172
0.49881 0.847746 0.124703
-0.113329 0.831973 -0.100204
-0.264317 0.831973 -0.090578
0.268775 0.847746 0.053646
-0.408605 0.831973 -0.082798
0.072439 0.847746 0.133328
0.066874 0.847746 -0.032978
-0.481822 0.847746 0.137624
0.11581 0.847746 -0.017965
-0.039066 0.847746 -0.078372
0.256944 0.847746 -0.171927
0.187672 0.831973 0.048573
-0.169838 0.847746 -0.12547
-0.150159 0.831973 0.037046
-0.561383 0.831973 0.110076
-0.057853 0.831973 0.128143
-0.472514 0.847746 -0.09972
-0.453643 0.831973 0.026049
0.450708 0.831973 -0.025332
0.018041 0.847746 -0.100988
0.023388 0.847746 0.139946
0.507821 0.831973 -0.09883
-0.344869 0.831973 -0.084178
0.512061 0.847746 0.047554
-0.410202 0.847746 -0.039335
-0.087044 0.831973 -0.132194
-0.388368 0.847746 0.149687
-0.550289 0.847746 -0.009135
0.226775 0.844405 0.198474
0.158223 0.847746 0.109443
0.583924 0.847746 0.110161
-0.303974 0.847746 -0.020162
0.180025 0.847746 0.08315
-0.01201 0.831973 -0.066769
-0.018246 0.831973 0.007266
0.257838 0.831973 0.175303
-0.598568 0.847746 0.183227
-0.240474 0.831973 -0.069262
0.556829 0.847746 -0.087404
-0.220422 0.831973 0.150403
0.129389 0.847746 -0.068944
-0.424745 0.831973 0.090106
0.229958 0.831973 0.154417
0.314642 0.831973 -0.055954
-0.052927 0.831973 -0.127508
0.16465 0.831973 -0.17017
-0.143202 0.831973 0.147588
-0.033509 0.831973 0.116791
0.396902 0.847746 0.038161
0.029215 0.847746 -0.039043
-0.470139 0.847746 0.017256
-0.513858 0.847746 0.158261
0.01317 0.831973 -0.005955
-0.598847 0.831973 -0.065466
-0.118833 0.847746 0.180153
0.024958 0.847746 0.039415
0.335622 0.831973 0.026806
-0.369531 0.831973 -0.172149
-0.563367 0.847746 -0.098091
-0.218332 0.831973 0.180257
0.242829 0.831973 0.110018
0.276472 0.831973 0.121924
-0.143546 0.847746 -0.15009
-0.57366 0.831973 0.168105
-0.122866 0.847746 0.041786
0.047783 0.847746 0.015235
-0.141419 0.831973 0.094312
-0.27293 0.831973 0.134252
0.423155 0.847746 0.075186
-0.315825 0.831973 -0.120771
-0.414691 0.847746 0.049715
0.123923 0.847746 0.139864
0.481876 0.847746 0.175986
-0.346686 0.847746 0.057744
-0.073678 0.847746 -0.106382
-0.035393 0.847746 0.055859
-0.109084 0.831973 0.066324
-0.416845 0.831973 0.170118
-0.5991 0.847746 -0.139574
-0.151667 0.847746 -0.059943
-0.167132 0.847746 0.178588
-0.090827 0.847746 -0.158256
0.520552 0.847746 -0.011361
0.321492 0.831973 -0.164964
-0.632248 -0.074714 -0.152864
-0.623763 0.606963 -0.192073
-0.616474 0.055377 0.08679
-0.632248 0.394993 -0.027883
-0.616474 -0.21568 -0.0097
-0.632248 0.18131 -0.046729
-0.632248 -0.366029 0.105311
-0.616474 0.74415 0.042531
-0.632248 -0.095597 0.081479
-0.632248 0.119103 -0.184781
-0.632248 0.42728 0.119355
-0.616474 0.281858 0.060638
-0.632248 0.031054 -0.058546
-0.632248 -0.326294 -0.078036
-0.632248 0.694551 0.162125
-0.616474 0.710446 -0.080928
-0.632248 0.293506 -0.09927
-0.632248 -0.102125 -0.03597
-0.632248 0.488996 -0.093213
-0.632248 -0.196738 -0.135977
-0.616474 0.171935 0.061079
-0.616474 0.481726 0.028286
-0.632248 -0.257884 0.097666
-0.632248 0.645362 0.000207
-0.632248 -0.309076 0.016879
-0.616474 -0.017876 0.01955
-0.616474 0.247513 0.151131
-0.632248 0.605741 -0.101589
-0.632248 0.339327 0.139842
-0.632248 0.215114 -0.177187
-0.616474 0.521028 -0.18533
-0.632248 0.087117 0.005787
-0.616474 0.103721 -0.096492
-0.632248 0.791784 -0.077256
-0.632248 0.770131 0.123446
-0.632248 -0.175711 0.064869
-0.616474 0.660172 0.087831
-0.632248 0.687212 -0.188736
-0.616474 0.388312 -0.105472
-0.616474 0.368423 0.065293
-0.632248 0.570619 0.0198
-0.616474 -0.26968 -0.123165
-0.616474 0.508902 0.121066
-0.616474 -0.136657 -0.097594
-0.616474 0.180667 -0.117389
-0.616474 0.221794 0.008428
-0.632248 0.102046 0.136302
-0.632248 -0.086522 0.149716
-0.616474 0.022569 0.146158
-0.616474 0.245239 -0.055521
-0.632248 0.559372 0.169047
-0.616474 0.460248 -0.035862
-0.632248 0.559118 -0.045034
-0.632248 0.018008 -0.145467
-0.631159 -0.229749 -0.192073
-0.616474 0.774083 -0.014971
-0.616474 -0.208469 -0.074632
-0.616474 0.281309 -0.17624
-0.632248 -0.157052 0.125751
-0.632248 -0.305327 0.139946
-0.632248 0.549602 -0.130559
-0.632248 -0.121493 0.023454
-0.631933 -0.026405 -0.192073
-0.616474 0.665947 -0.124012
-0.632248 0.763337 -0.132115
-0.632248 -0.05222 -0.071194
-0.632248 0.162286 0.12645
-0.616474 -0.268013 -0.061814
-0.632248 0.223919 0.098621
-0.616474 0.802934 0.051535
-0.632248 0.450663 -0.14113
-0.632248 0.628142 0.134554
-0.632248 0.340391 -0.134814
-0.630998 -0.382568 0.049526
-0.616474 -0.333452 -0.133529
-0.632248 0.000216 0.077509
-0.632248 0.718808 0.091967
-0.616474 0.242292 -0.120465
-0.616474 0.616649 -0.047071
-0.632248 0.106602 0.066634
-0.616474 0.147906 -0.003121
-0.632248 -0.158786 -0.033907
-0.616474 0.070956 -0.156234
-0.616474 -0.31699 0.08335
-0.616474 -0.237519 0.041168
-0.632248 0.700044 0.013287
-0.616474 -0.331188 -0.191138
-0.632248 0.446837 0.068787
-0.632248 0.526991 0.0728
-0.616474 -0.208578 0.112401
-0.616474 0.821912 0.136753
-0.632248 -0.141543 -0.148097
-0.632248 0.469999 0.160254
-0.632248 -0.025771 0.139969
-0.616474 0.295266 0.121158
-0.616474 0.711864 -0.147771
-0.632248 0.052421 -0.108971
-0.616474 0.380975 -0.16012
-0.616474 0.524882 -0.013289
-0.632248 0.65064 -0.080398
-0.616474 0.111347 -0.048311
-0.632248 0.379363 0.11013
-0.632248 0.166145 -0.173291
-0.632248 -0.091268 -0.103345
-0.632248 0.262945 -0.011153
-0.616474 0.133492 -0.134319
-0.632248 0.731849 -0.030248
-0.632248 -0.333324 -0.023666
-0.616474 -0.072752 0.043789
-0.632248 0.439664 -0.0742
-0.632248 0.053686 0.043362
-0.616474 0.680884 -0.045396
-0.616474 0.046446 -0.009456
-0.632248 -0.047843 0.099746
-0.616474 0.64143 0.046208
-0.632248 0.445319 0.004205
-0.632248 -0.262518 -0.019443
-0.616474 0.202231 0.150461
-0.632248 -0.008895 -0.084686
-0.616474 0.531167 -0.092706
-0.616474 0.508307 -0.138229
-0.632248 0.351214 0.003983
-0.616474 -0.339183 0.163578
-0.632248 0.590905 -0.147188
-0.616474 0.413425 0.163985
-0.616474 -0.078208 0.000569
-0.616474 0.751462 -0.065741
-0.616474 -0.265416 0.146226
-0.616474 0.13132 0.098378
-0.632248 0.803879 0.096015
-0.632248 -0.240783 -0.15043
-0.632248 -0.199942 0.030258
-0.632248 -0.297308 -0.172023
-0.616474 0.605856 0.003508
-0.632248 0.615182 0.084945
-0.616474 0.234517 0.04766
-0.62685 0.327229 0.068175
-0.616474 0.463212 0.107372
-0.632248 0.020022 0.020224
-0.616474 0.496457 -0.054617
-0.632248 -0.243008 -0.089715
-0.616474 0.406401 0.078277
-0.632248 -0.347895 0.02947
-0.616474 0.219286 -0.086012
-0.616474 0.066008 -0.04727
-0.632248 -0.001246 -0.01835
-0.616474 0.579201 0.05928
-0.616474 0.723873 0.141686
-0.632248 -0.034733 0.051224
-0.632248 0.749003 -0.177754
-0.616474 0.570493 -0.100879
-0.632248 -0.039465 -0.00832
-0.632248 0.121016 0.030876
-0.632248 0.425231 -0.112279
-0.632248 0.395434 0.010497
-0.632248 -0.130362 -0.063228
-0.632248 -0.117944 0.127894
-0.616474 0.07226 0.154338
-0.616474 0.814338 -0.129949
-0.616474 0.386504 -0.067426
-0.616474 0.810056 -0.002577
-0.632248 0.661463 -0.160749
-0.616474 -0.004509 0.111708
-0.632248 0.166127 0.026106
-0.616474 -0.127259 0.09485
-0.616474 -0.178369 -0.177971
-0.616474 -0.181771 0.149094
-0.632248 0.186967 0.091554
-0.616474 -0.263985 -0.178213
-0.616474 0.54683 0.116453
-0.616474 0.760863 0.091261
-0.616474 0.621872 -0.134851
-0.616474 0.79796 -0.044532
-0.616474 -0.355895 0.073651
-0.632248 0.343786 0.101919
-0.632248 0.303525 -0.143236
-0.632248 0.155301 -0.097656
-0.632248 0.611318 0.035428
-0.616474 -0.168007 0.0288
-0.632248 0.079193 0.108062
-0.616474 -0.301819 -0.026804
-0.616474 0.026471 0.059489
-0.616474 0.444608 0.037278
-0.616474 0.559976 -0.013352
-0.616474 0.543623 0.035719
-0.616474 -0.116851 -0.008347
-0.632248 0.673498 0.116069
-0.616474 -0.056218 0.156925
-0.632248 0.38803 0.145988
-0.632248 0.070395 -0.07791
-0.632248 0.729309 -0.122602
-0.632248 0.593909 -0.024634
-0.616474 0.524514 0.151651
-0.632248 0.252885 0.117029
-0.616474 0.190925 -0.006548
-0.616474 -0.364529 0.140476
-0.632248 0.220788 -0.141851
-0.616474 -0.078412 0.12054
-0.632248 -0.301349 0.179246
-0.632248 0.491499 -0.000183
-0.632248 0.494227 -0.164795
-0.632248 0.246705 -0.188907
-0.616474 0.768468 -0.095724
-0.616474 0.783469 -0.153922
-0.616474 0.34407 -0.100197
-0.632248 0.691736 0.072264
-0.632248 -0.20756 0.074972
-0.616474 0.21541 -0.040536
-0.616474 0.104216 -0.158573
-0.616474 0.360453 -0.023885
-0.616474 -0.162568 0.091065
-0.632248 0.424644 -0.16867
-0.616474 -0.188827 -0.048092
-0.616474 0.201739 0.043773
-0.632248 0.02478 0.099497
-0.616474 -0.233324 -0.053113
-0.616474 -0.183176 -0.005459
-0.632248 0.575962 0.141044
-0.632248 0.682377 -0.073725
-0.625437 0.311455 -0.183988
-0.616474 0.600918 0.127189
-0.632248 -0.335293 0.114693
-0.632248 0.459726 -0.106447
-0.616474 -0.106791 0.055864
-0.632248 -0.34234 -0.165614
-0.632248 -0.00526 -0.11628
-0.616474 0.287081 -0.030081
-0.622971 0.526335 0.186486
-0.632248 -0.278179 0.009879
-0.616474 0.753987 0.150783
-0.616474 -0.195957 -0.108815
-0.632248 0.38815 0.046716
-0.632248 -0.082366 -0.062641
-0.632248 0.736448 -0.088056
-0.632248 0.150699 -0.052521
-0.616474 0.553882 0.077316
-0.616474 0.551696 -0.167597
-0.616474 -0.260355 0.062044
-0.616474 -0.240322 0.128163
-0.616474 0.711497 -0.047309
-0.616474 0.285895 0.03026
-0.616474 -0.29606 0.115452
-0.616474 0.735271 0.013306
-0.616474 -0.097653 -0.165401
-0.632248 0.453544 0.185959
-0.616474 -0.221223 -0.126893
-0.632248 0.608638 0.165868
-0.616474 -0.067974 -0.115119
-0.632248 -0.271155 -0.151141
-0.616474 0.078415 -0.126967
-0.632248 0.137414 0.056203
-0.616474 0.616659 -0.077228
-0.632248 -0.207074 0.145022
-0.631341 -0.147469 -0.192073
-0.616474 -0.113707 0.152915
-0.616474 0.792244 0.140154
-0.616474 0.04225 -0.169913
-0.616474 0.46997 -0.158359
-0.632248 0.590261 -0.053928
-0.632248 0.471798 0.130661
-0.616474 -0.113726 -0.115886
-0.616474 0.276838 0.150943
-0.616474 0.417768 -0.085403
-0.632248 -0.010399 -0.153733
-0.632248 0.49637 -0.028966
-0.632248 0.211523 0.127769
-0.632248 0.709682 0.121877
-0.632248 0.177649 -0.07539
-0.616474 0.826121 -0.038189
-0.616474 0.514223 0.052306
-0.616474 0.536445 -0.053212
-0.632248 -0.28628 0.09294
-0.616474 -0.168646 -0.150953
-0.632248 0.353226 -0.160451
-0.616474 0.362935 0.14272
-0.632248 0.074802 0.06249
-0.616474 0.122273 -0.015538
-0.632248 0.050756 0.164322
-0.632248 -0.048186 -0.043122
-0.632248 0.658252 -0.051619
-0.632248 -0.185394 0.096382
-0.616474 0.804136 0.168355
-0.616474 0.229007 0.075117
-0.616474 0.130526 -0.068684
-0.632248 0.202477 -0.109932
-0.616474 0.433675 -0.044409
-0.632248 0.730546 0.168058
-0.632248 0.331996 -0.080596
-0.632248 0.744482 0.112493
-0.632248 0.231974 0.168041
-0.632248 0.691932 0.039935
-0.632248 0.76588 0.035337
-0.632248 -0.349871 -0.063358
-0.616474 0.199134 0.071417
-0.632248 -0.158897 -0.102717
-0.616474 -0.35863 -0.149647
-0.616474 -0.224487 0.016585
-0.632248 0.789823 0.072149
-0.632248 0.831363 0.1161
-0.616474 0.260116 0.077686
-0.616474 0.061602 0.022111
-0.632248 -0.126414 0.072201
-0.616474 0.799665 0.024336
-0.616474 0.142668 0.025157
-0.632248 -0.057358 0.134611
-0.632248 0.653357 0.180474
-0.632248 0.636404 -0.103639
-0.616474 0.814201 -0.086488
-0.616474 0.698385 -0.124131
-0.632248 -0.24789 -0.116471
-0.616474 0.622116 -0.170766
-0.632248 0.015347 0.124931
-0.616474 -0.035458 -0.165206
-0.616474 -0.314729 -0.096719
-0.632248 0.370321 -0.052611
-0.616474 0.109115 0.113687
-0.620776 0.311455 0.047201
-0.632248 -0.373198 -0.093353
-0.632248 -0.056824 0.028953
-0.632248 0.21705 -0.012816
-0.632248 -0.088672 0.019651
-0.632248 0.155555 0.10046
-0.632248 0.288869 0.081175
-0.632248 0.663242 -0.019733
-0.616474 -0.088307 0.172365
-0.632248 0.103098 -0.02833
-0.616474 0.7316 0.066105
-0.616474 -0.304815 0.037813
-0.616474 0.487445 0.172542
-0.616474 -0.227077 0.066504
-0.616474 -0.283104 0.168347
-0.632248 0.444311 0.139611
-0.632248 0.542384 0.140159
-0.616474 0.427109 -0.147587
-0.616474 -0.149773 -0.01489
-0.616474 -0.11974 -0.151162
-0.632248 0.731816 -0.154195
-0.616474 0.268427 -0.121864
-0.616474 -0.081285 -0.035944
-0.616474 0.271215 -0.053526
-0.616474 -0.065079 -0.087412
-0.632248 0.001076 0.037879
-0.632248 -0.116147 -0.095503
-0.620468 0.140959 -0.192073
-0.616474 -0.376285 0.029155
-0.616474 -0.182757 -0.075503
-0.616474 0.57109 -0.143121
-0.632248 0.448307 -0.178435
-0.632248 0.723671 -0.181331
-0.616474 -0.291608 -0.107528
-0.616474 0.101003 0.031312
-0.616474 0.244789 -0.00284
-0.632248 -0.024507 -0.033802
-0.632248 0.680728 -0.110595
-0.632248 0.685942 -0.007765
-0.632248 0.821006 -0.018968
-0.632248 0.66541 0.015497
-0.632248 0.756242 -0.036337
-0.632248 0.594063 -0.079328
-0.632248 0.394951 -0.087068
-0.632248 -0.070482 0.080806
-0.632248 0.049399 0.068198
-0.632248 -0.34077 0.061341
-0.632248 0.414201 -0.006091
-0.616474 -0.326301 -0.041805
-0.616474 0.233841 0.130154
-0.616474 -0.194121 0.058819
-0.632248 0.639882 0.08129
-0.616474 -0.261997 -0.086279
-0.632248 -0.130347 -0.038315
-0.632248 0.256721 0.170439
-0.632248 0.333509 -0.046646
-0.632248 0.05445 -0.02686
-0.616474 0.591501 0.174332
-0.616474 -0.14156 -0.167149
-0.632248 0.651064 0.143787
-0.632248 -0.2155 -0.046603
-0.632248 0.014365 -0.0928
-0.632248 0.078951 -0.108091
-0.632248 0.110164 -0.07883
-0.616474 0.36762 0.095523
-0.632248 0.683513 0.138407
-0.632248 0.280563 -0.151687
-0.616474 -0.375303 0.176644
-0.616474 0.013946 -0.051261
-0.616474 0.488629 0.138531
-0.616474 -0.139799 0.020497
-0.624373 0.499082 -0.192073
-0.616474 0.672511 0.171107
-0.632248 -0.095357 0.113375
-0.632248 0.131181 -0.099429
-0.616474 0.544896 0.011659
-0.616474 -0.081813 0.095032
-0.632248 0.622725 -0.030118
-0.616474 -0.327924 0.031602
-0.616474 0.541287 -0.114373
-0.632248 0.457019 0.090527
-0.632248 0.362177 -0.125197
-0.616474 0.368823 0.001228
-0.632248 0.053635 0.14073
-0.616474 0.16302 0.084371
-0.632248 -0.309651 -0.061292
-0.616474 0.0387 -0.119668
-0.62442 0.311455 0.085354
-0.632248 0.625053 0.01186
-0.616474 0.352961 0.163858
-0.619519 0.789047 0.186486
-0.632248 -0.221968 0.048392
-0.616474 0.721419 0.037604
-0.632248 -0.179528 -0.023528
-0.616474 0.175854 0.116282
-0.616474 0.154321 -0.144431
-0.632248 0.251221 -0.039695
-0.632248 0.55872 -0.068095
-0.616474 0.485159 0.114328
-0.616474 0.209491 0.107096
-0.616474 0.216225 -0.119455
-0.632248 -0.105521 -0.058637
-0.616474 0.830551 0.099593
-0.616474 -0.103555 0.010171
-0.632248 0.457254 -0.059778
-0.616474 0.670061 -0.084522
-0.632248 0.691422 -0.02981
-0.616474 -0.269653 0.108979
-0.632248 0.189892 0.057969
-0.616474 0.385899 0.125045
-0.616474 0.194171 -0.09593
-0.616474 -0.254315 -0.141395
-0.616474 0.727289 -0.065817
-0.632248 -0.185012 -0.163188
-0.632248 -0.145458 0.106398
-0.616474 0.0861 -0.010258
-0.616474 0.802769 -0.165455
-0.616474 0.745176 -0.121157
0.598068 0.468515 -0.172265
0.588971 -0.302019 -0.192073
0.598068 0.087584 0.178431
0.598068 -0.237088 0.127015
0.598068 0.751964 -0.126526
0.598068 0.382046 0.093911
0.582295 -0.06166 -0.024962
0.598068 0.209789 -0.014176
0.598068 0.606289 0.001476
0.598068 0.307192 -0.161374
0.598068 -0.276912 -0.035021
0.598068 0.765052 0.034446
0.582295 0.222369 0.12831
0.598068 0.460053 -0.025872
0.598068 0.07453 -0.061499
0.598068 0.517516 0.101882
0.582295 0.03592 0.065276
0.598068 -0.166906 0.03152
0.598068 -0.168383 -0.109796
0.598068 -0.014676 -0.160243
0.582295 0.198029 -0.134038
0.598068 0.644652 -0.096169
0.598068 -0.340262 0.116313
0.582295 -0.065708 0.081632
0.582295 0.142906 0.067799
0.582295 0.386213 -0.095727
0.598068 0.612178 0.100898
0.582295 0.545695 -0.067866
0.584142 -0.205609 -0.192073
0.582295 0.294083 0.053009
0.598068 -0.00341 0.158001
0.598068 0.70213 -0.031097
0.582295 -0.360448 -0.055988
0.598068 -0.297543 0.044885
0.582295 -0.266338 -0.118227
0.582295 0.692633 0.066788
0.582295 -0.083291 -0.122745
0.598068 0.45283 0.052898
0.582295 0.001836 -0.082183
0.582295 0.283525 -0.046214
0.598068 -0.151554 0.118405
0.598068 0.149006 -0.072242
0.582295 0.782419 0.12854
0.582295 0.011934 -0.009214
0.598068 0.538132 0.031891
0.582295 -0.131179 -0.044936
0.598068 0.464848 -0.096033
0.582295 0.105616 -0.001392
0.598068 0.092277 -0.128541
0.598068 0.367078 0.026611
0.582295 -0.340706 -0.121225
0.598068 0.211208 0.053466
0.598068 0.784773 -0.060747
0.582295 0.682162 -0.18546
0.597711 0.645026 0.186486
0.598068 0.565244 0.148158
0.598068 -0.130512 -0.184155
0.598068 -0.371833 -0.174119
0.582295 0.14171 0.147367
0.582295 -0.203508 -0.017452
