0.445365 0.099415 -0.481268
-0.081946 0.159072 -0.492469
-0.183286 -0.396954 -0.481268
-0.398844 -0.427548 -0.492469
-0.333376 -0.535017 -0.481268
0.045075 0.542286 -0.492469
-0.156361 0.531971 -0.492469
-0.370079 0.259765 -0.492469
0.436924 -0.038505 -0.481268
0.395535 0.559135 -0.492469
-0.135162 -0.664361 -0.481268
-0.23222 -0.090045 -0.481268
-0.498069 0.043496 -0.492469
-0.083681 -0.406589 -0.492469
-0.232284 0.2687 -0.492469
0.190807 -0.113558 -0.492469
0.463579 -0.422475 -0.492469
0.199055 0.211103 -0.492469
-0.159717 -0.700298 -0.526073
-0.523416 -0.713443 0.27894
0.317415 -0.715534 -0.030354
-0.199407 -0.67073 0.203343
-0.321294 -0.715534 -0.033365
0.027503 -0.715534 -0.339901
0.287279 -0.715534 -0.305858
0.365219 -0.715534 0.305815
0.299301 -0.697832 -0.526073
0.146057 -0.715534 -0.153049
0.480598 -0.715534 0.137788
0.107854 -0.715534 -0.518251
-0.37503 -0.715534 0.148978
-0.140845 -0.715534 -0.259847
-0.024197 -0.715534 0.178626
0.424287 -0.715534 -0.39237
-0.19475 -0.715534 0.377018
-0.494144 -0.715534 -0.009375
-0.284188 -0.715534 -0.410759
-0.434992 -0.715534 -0.252174
0.044043 -0.715534 -0.041924
-0.508471 -0.67073 -0.523443
-0.030121 -0.715534 -0.519915
-0.315121 -0.715534 -0.178171
-0.409235 -0.715534 -0.384018
0.403129 -0.715534 -0.187345
-0.182701 -0.715534 -0.057293
-0.42521 -0.715534 0.351539
0.239951 -0.715534 -0.419754
0.240443 -0.715534 0.089164
-0.023443 -0.715534 0.060282
-0.293995 -0.715534 0.287291
0.313382 -0.715534 0.454682
0.086732 -0.715534 0.175355
-0.152629 -0.715534 0.113352
0.102288 -0.715534 -0.261261
0.015118 -0.715534 0.347207
0.007995 -0.715534 -0.166828
0.143897 -0.715534 0.013658
0.206698 -0.715534 0.407079
0.341938 -0.715534 0.075443
-0.09825 -0.715534 -0.139343
-0.523416 -0.714802 0.405683
-0.267571 -0.715534 -0.510612
0.088356 -0.67073 -0.416265
-0.413668 -0.715534 -0.083426
-0.270709 -0.715534 0.148256
-0.415233 -0.715534 0.247184
-0.188334 -0.715534 -0.398269
0.2118 -0.715534 -0.083452
-0.339607 -0.715534 0.060757
-0.051846 -0.715534 -0.41614
-0.129958 -0.715534 0.299403
0.197483 -0.715534 -0.276262
0.415718 -0.715534 -0.296125
-0.261463 -0.715534 -0.31334
0.484694 -0.675878 -0.154805
0.390982 -0.715534 0.188555
-0.236078 -0.715534 0.036479
-0.447297 -0.67073 -0.455648
-0.121384 -0.715534 0.207677
0.230166 -0.715534 -0.193032
-0.432598 -0.715534 0.080849
-0.458554 -0.715534 0.49033
-0.229279 -0.715534 -0.202016
0.277806 -0.715534 0.318236
-0.046185 -0.715534 -0.267612
-0.454376 -0.715534 -0.166389
-0.296858 -0.715534 0.465871
-0.102947 -0.715534 -0.337889
0.33867 -0.715534 -0.401499
0.193885 -0.715534 -0.517763
-0.033456 -0.715534 0.27662
0.17217 -0.715534 0.204092
-0.358557 -0.715534 -0.315732
0.403679 -0.715534 0.017049
-0.380994 -0.715534 0.42401
-0.013774 -0.715534 0.426972
0.120909 -0.715534 -0.349917
-0.114066 -0.715534 0.397801
0.300158 -0.715534 0.162975
0.395162 -0.715534 0.464416
-0.26353 -0.715534 -0.091015
0.07132 -0.715534 0.086316
0.420184 -0.715534 -0.101412
-0.099303 -0.67073 -0.482241
0.443254 -0.715534 0.331591
0.305023 -0.715534 -0.228213
-0.214497 -0.715534 0.278205
0.285661 -0.715534 -0.109167
0.458378 -0.67073 0.267481
0.246632 -0.715534 6e-06
0.1412 -0.715534 0.117932
0.04931 -0.67073 -0.498622
0.048751 -0.715534 0.255061
-0.042173 -0.715534 -0.088108
-0.155078 -0.715534 0.013441
-0.314443 -0.715534 0.374179
0.464554 -0.715534 -0.469286
0.034423 -0.67073 -0.106173
-0.339693 -0.715534 0.228312
-0.371602 -0.715534 -0.447077
0.143457 -0.67073 -0.472394
-0.170283 -0.715534 -0.131571
0.00934 -0.67073 -0.277676
-0.417826 -0.715534 -0.011585
0.093333 -0.715534 -0.105713
-0.479387 -0.715534 -0.374349
0.031669 -0.715534 0.483905
0.428758 -0.715534 0.08248
-0.183444 -0.715534 -0.328691
-0.29512 -0.67073 -0.358532
-0.464241 -0.67073 -0.099017
-0.499125 -0.715534 -0.445759
0.33922 -0.67073 0.198672
-0.255039 -0.715534 0.214986
0.339717 -0.67073 -0.127499
-0.348538 -0.715534 -0.248078
-0.070849 -0.715534 -0.204396
0.154164 -0.67073 -0.052232
-0.464321 -0.67073 0.260737
-0.128973 -0.67073 -0.098775
-0.07446 -0.715534 0.13432
0.367765 -0.715534 -0.249776
-0.34725 -0.715534 -0.120389
0.144217 -0.67073 -0.285587
-0.249533 -0.715534 0.413758
0.262705 -0.715534 0.496866
-0.068976 -0.67073 0.079023
0.236644 -0.715534 -0.347524
-0.086598 -0.715534 0.47268
0.478529 -0.715534 -0.312582
-0.502423 -0.67073 -0.292687
0.312804 -0.67073 0.400876
-0.492716 -0.715534 0.146297
0.050882 -0.67073 0.127753
-0.434367 -0.715534 0.185749
-0.374554 -0.67073 0.005834
-0.30832 -0.67073 -0.080998
0.442935 -0.715534 -0.033502
0.374373 -0.715534 -0.459488
-0.22756 -0.67073 0.134352
0.060258 -0.67073 0.031733
0.010731 -0.715534 -0.230184
0.296526 -0.67073 -0.465572
-0.439703 -0.715534 -0.32532
-0.455639 -0.705044 -0.526073
-0.218501 -0.67073 -0.301844
0.431331 -0.67073 0.160717
0.13481 -0.715534 -0.410626
0.423208 -0.67073 -0.147871
-0.281076 -0.67073 0.343449
-0.036121 -0.67073 -0.477809
-0.111881 -0.715534 -0.429988
0.07145 -0.715534 0.381678
-0.114467 -0.715534 0.059206
0.367574 -0.715534 0.245068
0.051746 -0.715534 -0.433878
-0.336468 -0.715534 -0.504976
-0.499489 -0.67073 0.314349
0.101208 -0.715534 -0.193454
0.114715 -0.715534 -0.039028
0.336203 -0.715534 0.358463
0.450635 -0.715534 0.195907
0.435556 -0.715534 0.39624
-0.268973 -0.715534 0.086461
0.354557 -0.715534 -0.308081
0.46669 -0.715534 -0.212314
-0.117088 -0.715534 -0.061184
-0.395575 -0.715534 -0.155289
0.46396 -0.67073 0.444443
0.20302 -0.67073 -0.382742
-0.498305 -0.67073 0.375672
-0.191233 -0.67073 -0.184161
0.371484 -0.715534 -0.053543
-0.394693 -0.67073 0.388744
-0.188916 -0.715534 0.159405
0.382424 -0.67073 0.07056
0.07555 -0.67073 -0.062599
0.376793 -0.715534 -0.517959
-0.09444 -0.709027 -0.526073
-0.523416 -0.691092 -0.104617
-0.322463 -0.67073 -0.451473
-0.439984 -0.715534 0.4353
0.335844 -0.67073 -0.067248
-0.029004 -0.715534 -0.351726
0.342047 -0.711421 0.50444
-0.164739 -0.67073 0.308871
-0.201226 -0.715534 -0.270541
0.289384 -0.715534 -0.369642
0.246841 -0.715534 -0.480295
0.014099 -0.67073 0.171936
-0.21819 -0.67073 0.066593
0.176984 -0.715534 -0.340844
-0.49259 -0.715534 -0.219898
0.16783 -0.715534 0.067818
0.484694 -0.684504 -0.3672
-0.048758 -0.715534 0.33111
-0.019849 -0.715534 -0.024442
-0.131391 -0.715534 -0.184783
-0.416401 -0.67073 -0.203875
-0.501651 -0.67073 -0.056962
-0.216274 -0.67073 -0.427839
-0.049841 -0.67073 0.233701
-0.089966 -0.67073 0.319166
0.266073 -0.715534 -0.05712
-0.109681 -0.67073 -0.018572
-0.252068 -0.67073 0.269996
-0.444463 -0.67073 -0.28358
-0.374168 -0.67073 -0.101951
-0.522947 -0.67073 0.017881
0.19272 -0.67073 -0.312124
-0.230559 -0.715534 -0.146892
-0.47112 -0.715534 0.300104
-0.451751 -0.67073 -0.022055
-0.484645 -0.715534 0.236489
0.426369 -0.715534 0.245047
-0.277373 -0.67073 0.399058
-0.01301 -0.67073 -0.134558
-0.016077 -0.67073 0.349408
-0.334534 -0.67073 0.465904
-0.03458 -0.67073 -0.230563
0.188574 -0.715534 -0.034258
-0.187078 -0.67073 -0.007828
-0.071022 -0.67073 -0.077993
-0.040943 -0.67073 0.487113
-0.033204 -0.67073 0.146025
-0.505757 -0.715534 0.056432
-0.457115 -0.715534 -0.052223
-0.442891 -0.67073 0.325864
0.212182 -0.67073 -0.440341
0.449476 -0.715534 -0.162087
-0.31998 -0.715534 -0.372031
-0.173423 -0.67073 -0.27064
0.02428 -0.715534 0.146068
-0.3127 -0.67073 0.053875
-0.415602 -0.715534 -0.476016
-0.523416 -0.676124 0.129676
0.036758 -0.715534 0.046776
0.261043 -0.715534 -0.25676
0.201457 -0.67073 -0.215626
0.383343 -0.67073 0.488038
-0.27376 -0.715534 -0.012264
-0.052416 -0.67073 -0.389027
-0.445262 -0.67073 0.468077
0.098114 -0.67073 -0.133681
0.110359 -0.67073 -0.32449
0.465315 -0.67073 -0.269713
-0.29392 -0.67073 0.137697
0.006206 -0.675548 -0.526073
-0.373273 -0.67073 -0.166172
-0.046602 -0.715534 -0.15929
0.196561 -0.715534 -0.144932
0.072749 -0.715534 0.000311
0.384328 -0.715534 -0.360593
0.069009 -0.67073 -0.24021
-0.248416 -0.715534 -0.374467
0.264787 -0.715534 0.439347
-0.200143 -0.715534 -0.499209
0.143972 -0.67073 0.064538
-0.253051 -0.67073 0.019544
-0.234655 -0.715534 0.478047
0.234503 -0.67073 -0.077315
0.229037 -0.67073 0.428781
0.333072 -0.67073 -0.214925
-0.229589 -0.67073 -0.078786
-0.075704 -0.715534 0.186599
-0.480927 -0.715534 -0.285071
0.468163 -0.715534 0.466762
0.038023 -0.67073 -0.41587
0.049637 -0.715534 0.428621
-0.508535 -0.715534 -0.162686
0.432878 -0.67073 0.059967
-0.523416 -0.698844 -0.357572
-0.225259 -0.67073 -0.232414
-0.361544 -0.715534 -0.195893
-0.082557 -0.715534 0.284245
0.00806 -0.67073 0.494943
0.425035 -0.708024 -0.526073
0.2576 -0.67073 -0.356793
-0.391796 -0.715534 -0.279239
-0.354129 -0.67073 -0.407651
0.324107 -0.67073 -0.362309
0.294879 -0.67073 -0.410658
0.15089 -0.67073 -0.422658
-0.328005 -0.67073 0.315513
0.098178 -0.67073 0.159718
-0.357057 -0.715534 0.013437
0.324408 -0.715534 -0.488417
0.178775 -0.715534 -0.431143
-0.26747 -0.715534 -0.265207
0.014338 -0.67073 0.388782
0.288183 -0.67073 -0.127479
-0.156882 -0.715534 -0.447899
0.333268 -0.715534 -0.189008
0.275817 -0.67073 0.336195
-0.363483 -0.67073 -0.344447
0.126207 -0.67073 -0.012959
-0.060042 -0.715534 0.002003
-0.404406 -0.67073 -0.031795
0.066938 -0.715534 -0.145802
0.463043 -0.715534 0.017908
0.405172 -0.67073 -0.282869
0.307858 -0.67073 -0.261996
-0.339507 -0.67073 0.105902
-0.269223 -0.715534 0.328212
-0.296704 -0.715534 -0.134093
0.423256 -0.715534 -0.23216
0.056921 -0.715534 -0.302295
-0.38033 -0.715534 0.376373
-0.136007 -0.67073 -0.161791
0.340253 -0.715534 0.415381
-0.142706 -0.67073 0.126001
0.34485 -0.715534 0.146628
-0.006311 -0.715534 0.104672
-0.117949 -0.67073 -0.343955
-0.130913 -0.715534 -0.376297
-0.19942 -0.67073 -0.478633
-0.063883 -0.67073 0.279754
-0.411172 -0.67073 -0.425268
0.161098 -0.67073 -0.136207
0.02629 -0.67073 -0.204161
0.32653 -0.715534 0.221845
-0.204289 -0.715534 0.216603
-0.186195 -0.67073 -0.384335
-0.493828 -0.67073 -0.177369
0.36069 -0.67073 -0.261399
0.333607 -0.715534 -0.352574
-0.015245 -0.67073 0.089616
-0.092787 -0.67073 0.123338
-0.182515 -0.67073 -0.093024
0.107231 -0.67073 -0.37108
-0.28505 -0.67073 -0.263619
-0.383899 -0.67073 0.051367
0.392892 -0.715534 0.418057
0.467892 -0.686195 0.50444
-0.229164 -0.715534 0.122471
-0.325244 -0.67073 -0.145716
0.044994 -0.715534 -0.388023
-0.043193 -0.67073 -0.279084
-0.510474 -0.67073 0.262825
0.416577 -0.715534 -0.440973
-0.448686 -0.67073 0.408399
0.281774 -0.67073 0.435565
0.245418 -0.67073 -0.179518
0.41459 -0.67073 -0.39094
-0.311563 -0.715534 -0.277811
0.191111 -0.67073 0.030693
0.229732 -0.715534 0.191601
-0.481048 -0.715534 0.094921
0.247536 -0.715534 0.281757
-0.335838 -0.67073 -0.028635
0.201044 -0.67073 -0.160417
-0.297423 -0.715534 0.198043
-0.107341 -0.715534 -0.010327
0.275005 -0.715534 -0.184689
0.216594 -0.67073 -0.258604
-0.002339 -0.715534 -0.110188
-0.24505 -0.67073 -0.365647
-0.47334 -0.715534 -0.124997
0.260297 -0.67073 -0.271382
-0.403639 -0.715534 0.463469
-0.057986 -0.715534 0.089663
-0.14163 -0.67073 0.221717
0.36021 -0.67073 -0.311313
-0.231459 -0.67073 -0.138815
-0.198748 -0.67073 0.249971
0.045437 -0.715534 -0.500669
0.419543 -0.715534 0.293385
0.094613 -0.715534 0.501226
-0.124072 -0.67073 -0.439572
0.453914 -0.715534 -0.357336
-0.12548 -0.715534 0.254963
-0.333516 -0.715534 0.132641
-0.02624 -0.715534 -0.204325
0.341479 -0.715534 0.030882
0.046218 -0.67073 -0.324051
0.196766 -0.715534 -0.39045
0.460497 -0.67073 -0.09257
0.154963 -0.715534 -0.196602
-0.378861 -0.715534 -0.055971
-0.410314 -0.67073 -0.252088
-0.434567 -0.67073 -0.347772
-0.215863 -0.715534 0.322411
0.241158 -0.715534 -0.303572
0.269973 -0.715534 0.130719
0.357332 -0.67073 -0.406933
-0.414839 -0.696564 0.50444
-0.349833 -0.715534 0.344591
0.283506 -0.67073 -0.057177
0.19185 -0.715534 0.36571
-0.107986 -0.715534 -0.294236
0.202009 -0.715534 0.468296
0.146582 -0.715534 -0.460954
-0.383377 -0.715534 0.048438
-0.167144 -0.715534 0.276275
-0.115471 -0.67073 -0.294539
0.432663 -0.67073 0.223908
-0.523416 -0.676888 0.08524
-0.267862 -0.67073 -0.525176
0.476106 -0.715534 -0.40878
-0.160128 -0.715534 0.22787
-0.219906 -0.715534 -0.092561
-0.497673 -0.715534 0.458202
-0.014777 -0.715534 0.470605
0.146634 -0.697276 -0.526073
-0.278898 -0.715534 0.043289
0.091215 -0.715534 -0.381459
0.118367 -0.67073 -0.185078
0.259094 -0.67073 0.492336
-0.050985 -0.715534 0.405247
-0.174884 -0.67073 0.357913
-0.045081 -0.67073 0.415159
0.44994 -0.67073 -0.416086
-0.061345 -0.67073 -0.345717
0.242878 -0.67073 -0.31454
-0.137654 -0.715534 0.362459
0.368685 -0.67073 0.110668
0.058144 -0.67073 0.204243
0.101379 -0.67073 0.041326
-0.154479 -0.67073 -0.233022
0.145503 -0.67073 0.156252
-0.335699 -0.67073 -0.257868
-0.340339 -0.67073 -0.300803
0.383463 -0.715534 0.069725
0.11143 -0.715534 0.25396
-0.171834 -0.715534 -0.231649
0.427227 -0.67073 0.408884
-0.36584 -0.67073 0.432404
-0.039679 -0.715534 0.23524
0.477415 -0.67073 0.390167
0.377093 -0.67073 -0.00067
-0.018407 -0.67073 -0.417852
-0.381855 -0.715534 -0.352498
-0.49636 -0.715534 -0.330629
-0.494971 -0.67073 -0.25174
0.249005 -0.715534 0.34821
0.051905 -0.67073 -0.16303
0.045845 -0.715534 0.182639
-0.082409 -0.715534 0.355427
0.469242 -0.715534 0.42531
0.377938 -0.715534 -0.414599
-0.422865 -0.67073 -0.10016
-0.409396 -0.67073 -0.143228
0.37807 -0.715534 -0.154515
-0.011086 -0.715534 -0.410075
0.320582 -0.67073 -0.163981
-0.410796 -0.688544 -0.526073
-0.344402 -0.715534 -0.078394
0.342644 -0.67073 0.499444
0.356572 -0.67073 0.456485
0.412949 -0.715534 -0.487672
0.355529 -0.715534 0.453209
0.314632 -0.715534 -0.275643
0.008574 -0.67073 -0.041556
-0.340746 -0.67073 -0.190672
-0.092263 -0.67073 0.19076
-0.286786 -0.67073 -0.007459
0.255588 -0.67073 0.377173
0.26429 -0.715534 0.056663
0.425833 -0.681439 0.50444
0.211185 -0.67073 -0.041258
-0.065451 -0.715534 -0.453982
-0.127248 -0.67073 0.337028
0.033654 -0.67073 0.001932
-0.353684 -0.67073 0.351854
-0.347699 -0.715534 0.18921
-0.104916 -0.715534 -0.242477
0.376384 -0.67073 -0.159623
0.069029 -0.715534 -0.239266
0.474589 -0.715534 0.307025
0.48022 -0.715534 -0.120841
-0.123288 -0.715534 -0.46903
-0.008535 -0.715534 -0.486642
-0.419316 -0.67073 0.434993
0.460975 -0.67073 0.191152
0.362487 -0.67073 -0.037285
-0.210395 -0.715534 0.41817
-0.519239 -0.67073 -0.330467
-0.017571 -0.715534 0.384804
0.005923 -0.715534 0.022967
-0.371454 -0.715534 -0.522071
0.213115 -0.715534 -0.460884
0.178401 -0.67073 -0.265138
0.251286 -0.675986 -0.526073
0.374066 -0.67073 0.215555
-0.472976 -0.67073 -0.144744
-0.011725 -0.67073 -0.310162
0.124741 -0.715534 0.082904
0.069237 -0.67073 0.07354
-0.494472 -0.715534 -0.061878
0.274508 -0.715534 -0.436899
-0.074781 -0.715534 -0.364152
0.371254 -0.67073 -0.212494
-0.455433 -0.715534 -0.090318
0.484694 -0.681795 -0.426737
0.478093 -0.715534 -0.511837
-0.290028 -0.67073 -0.396159
0.339896 -0.712313 -0.526073
0.125511 -0.67073 0.10611
-0.118431 -0.67073 0.255455
-0.181304 -0.67073 -0.445529
-0.198561 -0.715534 0.032487
-0.014167 -0.715534 0.14148
-0.459654 -0.715534 0.366702
0.073197 -0.715534 -0.065591
0.196891 -0.67073 0.094678
-0.269183 -0.715534 0.381837
0.090516 -0.67073 -0.001658
-0.165666 -0.715534 -0.169761
0.210205 -0.67073 -0.524418
-0.25954 -0.67073 0.102954
0.481398 -0.67073 0.053778
-0.088678 -0.67073 -0.320315
-0.228606 -0.715534 -0.523045
-0.471489 -0.715534 -0.420986
-0.080872 -0.67073 0.380108
-0.457854 -0.715534 -0.203191
0.166298 -0.67073 -0.204546
0.385456 -0.67073 0.382602
0.152526 -0.67073 -0.321358
-0.266731 -0.715534 -0.228509
0.024307 -0.67073 0.061324
-0.130874 -0.67073 -0.062164
0.478093 -0.715534 0.055669
0.179794 -0.715534 -0.112398
0.450109 -0.67073 -0.021877
0.167807 -0.67073 -0.372915
0.22504 -0.715088 0.50444
0.467392 -0.67073 -0.186538
-0.00312 -0.67073 0.428181
-0.453859 -0.715534 -0.006025
-0.425857 -0.715534 -0.416464
-0.224635 -0.67073 -0.012683
0.035174 -0.715534 0.090404
-0.057477 -0.715534 0.047617
-0.493921 -0.715534 0.328186
0.400374 -0.715534 -0.018957
0.28033 -0.715534 0.01309
0.361679 -0.67073 -0.361659
0.371076 -0.67073 -0.101204
0.094195 -0.715534 0.452176
-0.331364 -0.715534 0.263193
0.022818 -0.67073 0.105463
0.235148 -0.715534 0.385291
0.281436 -0.715534 -0.489586
0.332442 -0.674625 -0.526073
0.237475 -0.67073 -0.229643
-0.177527 -0.67073 -0.150347
0.41843 -0.715534 -0.144664
0.036955 -0.715534 -0.187236
-0.510377 -0.67073 -0.375143
-0.34693 -0.715534 0.433545
-0.523416 -0.699528 -0.505118
-0.124367 -0.67073 0.095851
0.164566 -0.67073 0.001627
-0.125547 -0.67073 -0.195416
0.278663 -0.67073 -0.092038
0.421873 -0.67073 0.026159
-0.170424 -0.715534 0.189286
-0.429543 -0.67073 0.01596
0.165247 -0.715534 -0.290057
-0.511622 -0.715534 -0.268157
0.415288 -0.674037 -0.526073
0.092623 -0.67073 -0.092991
0.474846 -0.715534 0.094568
-0.479864 -0.67073 0.15966
-0.337161 -0.67073 0.384951
0.010451 -0.67073 -0.43683
0.316099 -0.67073 0.35061
0.117272 -0.715534 -0.440233
0.427204 -0.715534 0.042128
0.171108 -0.715534 -0.484998
-0.452538 -0.67073 -0.316903
0.442712 -0.67073 -0.470098
0.133644 -0.67073 -0.393101
0.424651 -0.67073 0.447085
0.069335 -0.715534 -0.355231
-0.27888 -0.67073 0.058537
-0.408279 -0.715534 -0.311985
-0.409666 -0.67073 0.318044
0.342593 -0.67073 0.417503
-0.32821 -0.67073 0.007721
-0.159602 -0.67073 -0.3162
0.340553 -0.67073 0.090666
-0.391565 -0.67073 -0.063241
-0.279268 -0.715534 -0.163222
-0.523416 -0.698525 -0.011496
0.139222 -0.715534 0.049607
0.40646 -0.67073 0.094386
0.393486 -0.715534 -0.328033
-0.161587 -0.67073 0.27531
-0.152678 -0.715534 -0.35056
-0.275191 -0.715534 0.241976
0.417354 -0.715534 -0.354033
0.163121 -0.715534 -0.390745
-0.240429 -0.67073 0.238436
0.238594 -0.67073 0.348147
-0.284079 -0.715534 -0.338229
0.415541 -0.67073 -0.351931
0.253672 -0.715534 -0.389063
-0.523416 -0.713433 0.027906
0.273069 -0.715534 -0.020669
-0.444423 -0.67073 -0.420736
-0.411339 -0.67073 -0.288921
-0.523416 -0.688997 -0.251666
0.397048 -0.715534 0.100215
-0.067661 -0.67073 -0.184886
0.012522 -0.715534 0.183349
-0.084245 -0.67073 0.231442
-0.255252 -0.67073 0.152778
-0.009239 -0.67073 0.123014
0.2734 -0.715534 0.093136
0.45393 -0.715534 0.263415
0.171499 -0.67073 -0.095328
-0.197168 -0.67073 -0.520013
-0.275791 -0.67073 -0.075487
0.166629 -0.67073 0.11739
-0.151086 -0.715534 -0.415669
-0.498533 -0.67073 -0.098413
-0.322744 -0.67073 -0.39539
-0.095672 -0.67073 -0.39719
-0.293066 -0.715534 -0.304951
0.360215 -0.715534 -0.489873
0.015634 -0.715534 -0.057828
-0.138921 -0.715534 -0.123033
-0.440493 -0.715534 0.289315
0.173458 -0.67073 -0.460075
-0.347668 -0.67073 0.13728
-0.512558 -0.67073 0.159722
-0.146686 -0.715534 0.331366
-0.084499 -0.67073 -0.449911
0.224036 -0.715534 -0.503103
0.037339 -0.683973 -0.526073
-0.523416 -0.67834 0.2922
0.319968 -0.715534 0.293203
-0.009586 -0.715534 -0.326085
-0.292554 -0.702501 -0.526073
-0.201437 -0.67073 -0.124606
-0.136924 -0.715534 -0.036003
-0.04725 -0.715534 -0.299614
0.098367 -0.67073 -0.20991
-0.523416 -0.690761 0.321611
-0.381418 -0.715534 -0.24921
0.191306 -0.715534 0.434826
0.19774 -0.67073 0.423887
0.336199 -0.715534 -0.252343
0.448979 -0.715534 0.139557
-0.481877 -0.715534 -0.511813
0.055678 -0.67073 0.172708
0.103635 -0.715534 -0.161953
-0.486616 -0.67073 0.2855
-0.089497 -0.715534 0.324837
0.080803 -0.715534 -0.411061
0.20291 -0.67073 -0.129134
0.343333 -0.715534 -0.218606
0.436792 -0.67073 -0.180196
-0.388682 -0.715534 -0.491759
0.209174 -0.715534 -0.305172
0.11436 -0.715534 -0.232539
0.307761 -0.67073 -0.192369
-0.173261 -0.67073 0.160101
-0.046622 -0.715534 0.4962
-0.370799 -0.715534 0.48452
0.43906 -0.715534 -0.064334
-0.204286 -0.67073 0.172659
-0.523416 -0.711428 0.11921
-0.390715 -0.715534 0.266204
0.070685 -0.715534 0.233148
-0.471659 -0.67073 -0.360183
-0.093234 -0.715534 0.161071
-0.340784 -0.715534 -0.450076
-0.480575 -0.67073 -0.432565
0.314159 -0.67073 -0.045244
-0.015672 -0.67073 0.180171
-0.357888 -0.715534 0.085641
-0.057241 -0.715534 -0.232108
-0.212963 -0.715534 -0.337615
-0.079638 -0.67073 0.160082
-0.429707 -0.715534 -0.184858
0.40983 -0.715534 0.164192
-0.228137 -0.67073 0.095712
-0.030359 -0.67073 -0.362816
0.386252 -0.67073 0.413968
0.453608 -0.67073 -0.152422
0.317112 -0.715534 -0.313127
0.413993 -0.715534 0.208875
-0.065473 -0.715534 -0.107963
-0.479302 -0.67073 -0.514543
0.078431 -0.715534 0.418675
-0.058905 -0.715534 -0.028341
0.46291 -0.67073 0.362323
0.395528 -0.715534 -0.216625
-0.248686 -0.67073 0.389475
0.004709 -0.715534 -0.359737
-0.523416 -0.691051 0.055499
-0.465796 -0.715534 -0.347379
0.30331 -0.67073 0.456717
0.046562 -0.67073 0.4111
-0.259526 -0.67073 -0.313504
-0.234335 -0.67073 0.190346
0.101388 -0.715534 -0.488843
0.039558 -0.67073 -0.294687
-0.450963 -0.715534 -0.277697
-0.257681 -0.715534 0.175385
-0.020828 -0.715534 -0.285294
-0.124414 -0.715534 0.123585
0.257528 -0.715534 -0.098732
0.428608 -0.67073 0.275868
0.132609 -0.715534 -0.014082
-0.059154 -0.698847 -0.526073
-0.05 -0.67073 0.447144
0.484694 -0.695867 0.034106
0.245813 -0.67073 0.465531
0.062673 -0.67073 -0.432757
-0.369936 -0.67073 -0.197037
0.27029 -0.715534 0.162906
0.36034 -0.715534 0.335244
-0.1825 -0.715534 0.001803
0.449685 -0.715534 -0.495069
0.183967 -0.67073 0.460485
-0.401051 -0.715534 -0.036183
-0.45791 -0.715534 0.459018
0.338301 -0.67073 -0.291251
0.038847 -0.715534 -0.15543
-0.452586 -0.67073 0.295003
-0.302629 -0.715534 0.253027
0.031058 -0.67073 -0.361193
0.3153 -0.715534 -0.419553
0.245135 -0.715534 -0.030203
0.271516 -0.67073 -0.165801
0.484694 -0.693752 -0.453678
0.078593 -0.67073 0.117552
-0.053185 -0.715534 -0.384176
-0.094297 -0.715534 -0.168446
0.216463 -0.67073 -0.190396
-0.030844 -0.67073 -0.333471
0.371732 -0.715534 0.482083
0.21678 -0.715534 -0.054557
-0.308871 -0.67073 -0.288921
-0.105641 -0.715534 -0.198739
0.484694 -0.699955 -0.022153
-0.279015 -0.715534 0.489003
0.460108 -0.67073 0.005571
0.138391 -0.715534 -0.373298
-0.288433 -0.715534 0.350189
-0.367627 -0.715534 -0.163487
-0.523416 -0.708511 -0.138714
0.112952 -0.715534 0.124706
-0.21564 0.631429 -0.526073
0.073231 0.639186 0.21364
0.123225 0.639186 -0.229622
-0.247388 0.639186 -0.0615
0.471667 0.639186 -0.162575
-0.238093 0.639186 0.248037
0.405693 0.639186 0.134225
-0.502951 0.639186 -0.034629
-0.46993 0.629156 -0.526073
-0.113688 0.594382 -0.247516
0.163744 0.639186 -0.0047
-0.086255 0.639186 0.097796
-0.438162 0.639186 0.152796
-0.347721 0.639186 -0.378566
0.332709 0.639186 0.344397
0.295039 0.639186 -0.154633
0.36957 0.639186 -0.397723
-0.260422 0.639186 0.469667
-0.440404 0.639186 -0.197314
-0.007856 0.639186 -0.098945
-0.451447 0.639186 0.479286
0.027801 0.634645 -0.526073
0.029067 0.639186 0.374096
0.240618 0.639186 0.181749
-0.007234 0.639186 -0.35725
0.18773 0.594382 0.37442
-0.281442 0.639186 -0.216608
0.211904 0.639186 -0.386586
-0.389912 0.639186 0.307631
-0.279437 0.639186 0.099278
0.345519 0.639186 -0.016124
-0.110155 0.639186 0.326006
-0.150747 0.639186 -0.398608
0.035009 0.594382 0.053309
0.355755 0.639186 0.498085
-0.391374 0.594382 0.022477
0.292331 0.639186 -0.28362
0.051911 0.624681 0.50444
-0.132759 0.594382 -0.045895
0.430149 0.639186 -0.276176
0.118075 0.594382 -0.44738
-0.373453 0.639186 -0.086224
0.396434 0.639186 -0.513236
-0.034829 0.594382 0.231218
-0.238228 0.594382 0.363688
-0.336695 0.639186 -0.495388
0.484694 0.619381 -0.399609
0.405346 0.594382 0.255678
-0.459397 0.639186 -0.349315
0.156102 0.594382 0.10042
-0.179992 0.594382 0.145229
0.153712 0.594382 -0.113956
-0.226818 0.594382 -0.313964
-0.078099 0.639186 -0.485456
0.005471 0.594382 -0.242144
-0.371378 0.594382 0.414142
0.117215 0.594382 -0.328592
0.311346 0.594382 0.075735
-0.158474 0.639186 -0.161211
0.444638 0.639186 0.022332
0.174569 0.639186 0.264017
-0.344644 0.594382 0.224682
-0.357953 0.594382 -0.284812
0.436143 0.594382 -0.07647
0.296372 0.594382 0.258973
-0.460513 0.594382 0.241233
0.247067 0.639186 0.443052
-0.154356 0.639186 0.414279
0.264436 0.594382 -0.049871
-0.14242 0.639186 0.226418
0.36437 0.594382 -0.207476
-0.293633 0.594382 0.01052
-0.041582 0.594382 -0.005361
-0.491143 0.639186 0.072193
0.01622 0.594382 -0.438964
-0.073465 0.594382 -0.160353
-0.36129 0.594382 0.113006
0.102878 0.594382 0.414504
-0.183238 0.639186 0.017931
-0.361027 0.594382 -0.180999
0.476147 0.639186 0.336221
0.201645 0.639186 -0.184538
0.077843 0.639186 0.123623
0.07463 0.639186 -0.016699
-0.045684 0.594382 0.39557
0.225425 0.639186 0.059018
-0.233233 0.594382 -0.136443
0.388032 0.639186 0.413036
0.327616 0.639186 0.187424
-0.095206 0.639186 -0.331605
0.06984 0.594382 -0.135863
-0.322158 0.594382 0.342999
0.243334 0.639186 -0.466817
0.281343 0.594382 -0.358516
0.376853 0.639186 -0.131091
0.224599 0.594382 -0.258322
-0.438263 0.639186 0.380755
0.148634 0.594382 0.184087
-0.030027 0.639186 0.159671
-0.183442 0.594382 0.290237
0.111007 0.639186 0.316312
0.322345 0.594382 -0.515232
-0.256641 0.594382 0.183045
-0.10288 0.594382 0.169151
0.015328 0.594382 0.309544
0.050411 0.639186 -0.290289
-0.241771 0.639186 -0.393612
-0.178824 0.639186 -0.253174
0.301168 0.594382 0.406869
-0.475107 0.594382 -0.453798
0.112165 0.639186 0.05367
0.351639 0.594382 -0.325067
0.143983 0.623098 -0.526073
0.385903 0.594382 0.053823
-0.523416 0.635448 0.408286
-0.09555 0.639186 -0.101233
0.031183 0.639186 -0.185337
-0.007219 0.639186 0.458047
-0.100284 0.639186 0.014455
0.483459 0.639186 -0.509479
-0.2969 0.594382 -0.342893
0.252699 0.639186 0.301768
-0.447629 0.639186 -0.106239
-0.420135 0.639186 -0.285235
-0.269511 0.639186 -0.463683
-0.137566 0.623114 -0.526073
-0.463404 0.639186 0.301602
-0.141555 0.594382 0.081446
-0.224459 0.594382 0.084012
-0.173891 0.639186 -0.090446
0.312882 0.639186 -0.080751
0.243309 0.639186 -0.102609
-0.029564 0.594382 0.101455
0.20651 0.639186 -0.31479
-0.271784 0.639186 0.317834
-0.306465 0.639186 -0.149371
0.132482 0.639186 0.46185
-0.037234 0.594382 -0.299416
-0.508184 0.639186 -0.402084
-0.049319 0.639186 -0.234799
-0.30103 0.639186 0.394013
-0.343547 0.639186 -0.021805
-0.170288 0.639186 -0.330439
-0.386183 0.639186 -0.437749
0.0704 0.639186 -0.423522
0.214025 0.594382 0.228264
-0.188063 0.639186 0.346116
0.034908 0.594382 -0.067379
0.014762 0.639186 0.250894
0.284475 0.594382 0.152874
0.421809 0.594382 0.322648
-0.523416 0.637882 -0.312497
0.438242 0.594382 -0.445224
-0.506749 0.639186 -0.181488
0.138341 0.639186 -0.375392
0.006927 0.639186 -0.022592
0.123544 0.594382 -0.036076
0.451488 0.639186 0.234072
-0.330968 0.639186 0.045115
0.470389 0.639186 0.162964
-0.067163 0.639186 0.273961
0.279382 0.639186 0.01853
0.315613 0.639186 -0.219943
-0.007117 0.594382 -0.149729
-0.295614 0.594382 -0.074074
0.126217 0.594382 -0.180091
0.053755 0.594382 -0.349533
-0.490011 0.594382 -0.265743
-0.199812 0.639186 0.192538
0.199449 0.594382 -0.065891
-0.030638 0.639186 -0.425026
-0.283606 0.639186 -0.29593
-0.496178 0.594382 0.013614
0.484694 0.626485 -0.311312
-0.326131 0.639186 0.475177
0.364283 0.639186 -0.274711
0.135933 0.639186 0.377212
-0.425418 0.594382 0.098357
-0.247551 0.594382 -0.251705
-0.049388 0.594382 -0.075921
0.039617 0.594382 0.428998
-0.101363 0.594382 -0.377801
0.221658 0.594382 0.138541
-0.344238 0.639186 -0.230412
0.430127 0.594382 -0.322512
0.427074 0.639186 -0.208737
0.320177 0.594382 0.469196
0.253058 0.594382 -0.200994
0.361686 0.639186 0.243289
0.184993 0.639186 0.419534
-0.091864 0.639186 0.42583
-0.103967 0.639186 -0.202422
0.052543 0.594382 0.160727
0.355419 0.594382 -0.067077
-0.408836 0.639186 0.208857
-0.22457 0.594382 0.001857
0.219887 0.594382 -0.005338
0.275754 0.639186 -0.40203
0.072445 0.594382 -0.212328
0.2622 0.617129 -0.526073
0.24927 0.594382 0.362903
-0.274867 0.594382 0.271588
-0.413639 0.594382 -0.069171
-0.413038 0.594382 -0.146596
-0.08207 0.639186 0.210834
0.168469 0.594382 0.315256
0.42717 0.594382 -0.138039
-0.453626 0.639186 0.002676
0.167198 0.639186 -0.437772
0.342942 0.639186 -0.478342
-0.048607 0.639186 0.353437
-0.195129 0.594382 -0.385121
-0.491945 0.594382 0.331881
-0.331637 0.639186 0.289459
-0.121482 0.594382 0.286182
0.15627 0.639186 0.144012
0.121991 0.639186 -0.088924
-0.487567 0.639186 0.187364
-0.188731 0.639186 0.102753
-0.099275 0.594382 0.364681
0.071811 0.594382 0.329984
0.406734 0.594382 0.174155
-0.523416 0.596174 0.497714
0.083145 0.639186 -0.481771
0.149268 0.594382 0.040618
0.416585 0.639186 -0.042412
0.364716 0.639186 0.091042
0.25014 0.639186 0.242111
-0.141122 0.639186 0.166289
-0.267699 0.639186 0.041654
-0.147418 0.594382 -0.125148
-0.425263 0.594382 -0.248076
-0.039749 0.639186 0.032067
-0.43181 0.594382 -0.320669
0.465444 0.639186 -0.099432
-0.416836 0.594382 0.465843
-0.362711 0.594382 -0.342684
0.197975 0.594382 -0.352389
-0.468024 0.594382 -0.165115
-0.13981 0.594382 -0.310168
-0.273097 0.594382 -0.412409
0.328758 0.594382 -0.118353
0.365025 0.594382 0.384919
-0.37425 0.594382 0.169142
-0.379249 0.639186 0.379288
-0.494866 0.639186 0.250215
0.401315 0.594382 0.454309
0.110212 0.639186 -0.294034
-0.441946 0.639186 -0.42598
-0.17831 0.594382 -0.190282
0.16864 0.594382 -0.248066
0.032954 0.594382 0.221507
-0.182845 0.639186 0.482832
0.054016 0.639186 -0.105283
0.321539 0.639186 0.435031
0.363531 0.594382 0.293461
-0.079582 0.639186 -0.037925
-0.299367 0.594382 0.454253
0.275062 0.639186 0.085242
-0.236448 0.639186 -0.183117
0.336809 0.594382 -0.390047
-0.369153 0.594382 0.281208
0.440096 0.639186 -0.372147
0.251558 0.639186 -0.234022
-0.399015 0.639186 -0.018461
0.354227 0.594382 0.20643
-0.133422 0.594382 0.438959
0.376373 0.594382 0.120598
0.438063 0.639186 0.390519
0.120169 0.594382 0.286195
0.255146 0.594382 -0.13177
0.100119 0.594382 -0.380592
0.483721 0.594382 -0.021522
0.30988 0.639186 0.286959
-0.341431 0.594382 -0.464676
0.279322 0.639186 0.369072
-0.446473 0.639186 -0.051964
0.079742 0.639186 0.449491
0.122758 0.639186 0.248392
-0.035295 0.639186 -0.182564
-0.171334 0.594382 0.235254
0.264004 0.594382 -0.307425
0.321618 0.594382 -0.174679
-0.292603 0.637136 -0.526073
-0.138217 0.639186 -0.453685
-0.296383 0.639186 -0.394146
0.14438 0.639186 -0.14194
-0.434838 0.594382 0.294964
-0.211272 0.639186 0.407072
-0.069888 0.639186 -0.284144
-0.480114 0.639186 -0.238593
0.441765 0.610444 -0.526073
0.292941 0.594382 0.332369
0.476841 0.639186 0.110096
-0.367505 0.639186 -0.153279
0.424561 0.639186 0.294471
-0.403035 0.594382 0.236518
-0.162884 0.594382 -0.001236
0.182879 0.639186 0.092553
-0.385297 0.639186 0.485671
0.02344 0.594382 -0.29725
0.078482 0.594382 -0.292783
0.228592 0.594382 0.288052
0.058275 0.594382 0.100579
-0.319364 0.639186 0.213603
0.299554 0.594382 -0.242324
-0.433664 0.639186 -0.489351
-0.364443 0.639186 -0.311512
-0.463929 0.594382 0.143432
-0.291741 0.594382 0.075087
0.190982 0.594382 -0.159749
-0.226594 0.594382 -0.084565
0.201722 0.594382 0.071857
0.096117 0.594382 -0.080544
0.189664 0.639186 0.21403
0.033334 0.639186 -0.460261
0.475235 0.639186 0.28054
-0.494487 0.639186 -0.481194
0.311409 0.594382 -0.027399
0.027049 0.639186 0.167918
0.153544 0.594382 0.426312
0.389033 0.594382 -0.379868
0.209847 0.594382 0.427821
-0.126859 0.594382 -0.183586
0.042421 0.639186 -0.372914
0.011563 0.639186 0.038043
0.082657 0.639186 -0.188798
0.326297 0.639186 -0.32685
0.092863 0.594382 0.229644
-0.277256 0.639186 0.168442
-0.37385 0.594382 -0.235941
0.184695 0.594382 -0.302578
0.408502 0.639186 0.348726
-0.395355 0.639186 0.046908
-0.491994 0.594382 -0.35326
-0.017253 0.594382 0.041591
-0.224465 0.594382 -0.492109
0.236733 0.594382 -0.385518
-0.507298 0.594382 0.201595
0.113685 0.594382 0.364735
0.124657 0.639186 0.186254
0.028283 0.594382 -0.011479
0.335226 0.594382 0.154587
-0.474477 0.594382 -0.215481
0.450649 0.594382 0.466107
-0.344581 0.594382 -0.060878
0.218577 0.639186 -0.052062
-0.067194 0.594382 0.441033
-0.434207 0.594382 -0.008168
0.435445 0.639186 -0.423175
0.281715 0.594382 -0.486159
-0.403054 0.594382 0.333403
-0.42875 0.639186 0.435024
-0.194069 0.639186 -0.422862
-0.240319 0.594382 -0.361675
-0.340357 0.639186 0.116035
-0.040023 0.594382 0.28038
-0.081996 0.639186 -0.38533
0.405694 0.639186 0.060122
0.064987 0.594382 -0.446012
0.075687 0.59884 -0.526073
-0.361621 0.594382 -0.393193
-0.284043 0.594382 -0.121825
0.404526 0.594382 -0.271718
-0.503622 0.594382 -0.518003
-0.33166 0.594382 -0.141793
-0.042436 0.594382 0.334664
0.314659 0.594382 -0.447481
-0.40258 0.639186 0.095198
-0.214574 0.639186 -0.350433
-0.201458 0.594382 0.481277
-0.043398 0.594382 -0.217345
0.268587 0.594382 0.033258
0.094054 0.594382 0.053814
-0.053792 0.594382 -0.38612
-0.074003 0.594382 0.082581
-0.349016 0.594382 0.045527
-0.1887 0.639186 -0.044584
-0.00867 0.639186 -0.309221
0.281648 0.639186 0.135853
-0.143123 0.639186 -0.008381
-0.480878 0.639186 -0.141178
-0.523416 0.600774 0.068673
-0.432676 0.639186 0.264941
-0.50297 0.639186 0.493421
-0.221716 0.594382 0.249992
0.203358 0.639186 -0.492704
0.03331 0.594382 0.358897
-0.035186 0.639186 0.419677
-0.186071 0.594382 -0.523455
-0.322254 0.594382 0.272522
0.257107 0.594382 0.107267
-0.425941 0.594382 0.171495
-0.384217 0.633725 -0.526073
0.40265 0.639186 0.46865
-0.002484 0.594382 0.190586
0.206918 0.639186 0.013403
0.01593 0.639186 -0.233647
0.360293 0.639186 0.145098
0.298555 0.639186 -0.036386
0.196112 0.639186 0.305286
-0.473607 0.594382 0.079154
-0.116281 0.639186 -0.287588
0.394217 0.594382 -0.041412
-0.099073 0.639186 0.377094
-0.038266 0.639186 -0.136196
-0.292491 0.594382 0.401815
-0.41112 0.594382 0.390468
0.387922 0.639186 0.002093
-0.03065 0.639186 -0.471681
0.324108 0.639186 0.069235
-0.205534 0.639186 -0.148948
0.187666 0.639186 0.363718
-0.179961 0.594382 0.439231
0.014812 0.594382 -0.392948
0.164406 0.639186 -0.333155
0.047794 0.639186 0.088889
-0.377374 0.594382 -0.11779
-0.098715 0.594382 -0.110259
0.441818 0.594382 0.227965
-0.464875 0.639186 0.109542
-0.262541 0.639186 -0.003709
-0.323136 0.639186 0.351614
0.009363 0.639186 0.303931
-0.009594 0.594382 -0.053976
0.34633 0.639186 0.395139
0.147859 0.639186 -0.268713
0.243579 0.594382 0.193921
-0.017347 0.594382 0.430893
0.363752 0.639186 0.299357
0.198306 0.639186 -0.092448
0.43244 0.639186 -0.136343
-0.162829 0.594382 0.186982
-0.10147 0.594382 0.019793
-0.432747 0.639186 0.335968
-0.007252 0.594382 -0.351959
-0.086236 0.594382 0.314289
-0.072609 0.594382 -0.327277
-0.037232 0.639186 0.234674
-0.016075 0.623265 -0.526073
-0.186571 0.639186 0.289904
0.432446 0.633106 0.50444
-0.413544 0.639186 -0.147026
0.212759 0.639186 0.146703
0.36359 0.639186 -0.05696
0.474099 0.594382 -0.359379
-0.456477 0.594382 0.411925
-0.069214 0.594382 -0.253633
0.4446 0.639186 -0.325946
0.346972 0.639186 -0.164046
0.484694 0.604884 -0.064716
-0.523416 0.599228 -0.385634
-0.371782 0.639186 -0.267744
0.098314 0.639186 -0.126428
-0.182333 0.639186 -0.198441
-0.513445 0.639186 -0.358241
-0.128175 0.639186 0.45091
-0.088485 0.594382 0.127482
-0.171977 0.594382 -0.34766
0.147828 0.594382 -0.360191
-0.240209 0.639186 -0.301853
0.115138 0.639186 -0.451907
0.353557 0.639186 0.02917
0.346009 0.594382 -0.247169
0.054229 0.639186 0.02196
-0.263001 0.639186 0.37252
-0.343406 0.639186 -0.429055
0.122671 0.594382 0.128218
0.061513 0.639186 -0.062475
-0.128021 0.594382 0.232567
0.181036 0.639186 0.462716
0.242669 0.639186 -0.290911
-0.153214 0.594382 0.321201
0.31622 0.639186 0.244172
-0.083967 0.594382 -0.202513
0.297404 0.594382 -0.407924
0.10972 0.594382 0.013623
-0.210224 0.594382 -0.038823
-0.142776 0.594382 0.397215
0.484694 0.636093 -0.203187
0.236295 0.594382 0.461277
-0.344805 0.594382 0.380817
-0.163968 0.594382 -0.485057
-0.503745 0.594382 0.404708
-0.29441 0.594382 -0.163082
-0.30358 0.594382 0.2137
-0.317113 0.639186 -0.193625
0.388789 0.594382 -0.424341
-0.148099 0.639186 0.041672
0.464267 0.639186 -0.462571
0.356973 0.630571 -0.526073
-0.050181 0.639186 0.119897
-0.198002 0.639186 0.057563
0.116697 0.639186 -0.012545
0.160315 0.639186 -0.046817
-0.14464 0.594382 -0.403669
0.125727 0.639186 0.418171
-0.318565 0.594382 -0.299978
0.279969 0.594382 0.220085
0.342103 0.639186 -0.429397
-0.132576 0.639186 -0.360846
0.248361 0.639186 0.401227
-0.310813 0.639186 -0.354885
-0.334729 0.594382 0.00294
-0.273939 0.639186 0.226708
0.026551 0.639186 -0.143898
-0.14349 0.639186 -0.061935
-0.07548 0.594382 -0.469467
-0.009493 0.594382 -0.191191
-0.187328 0.594382 -0.097989
-0.520477 0.639186 0.290458
-0.460435 0.594382 -0.083278
0.190019 0.594382 0.165186
0.473632 0.639186 0.063851
-0.28316 0.594382 0.312061
0.25084 0.639186 -0.369171
-0.195689 0.639186 -0.290787
0.017157 0.594382 0.100836
0.011496 0.635091 0.50444
0.386661 0.594382 -0.144832
-0.148497 0.639186 0.109977
0.373911 0.594382 -0.103484
0.283671 0.639186 -0.460591
0.311007 0.594382 -0.32162
-0.300661 0.639186 0.135132
-0.309721 0.639186 -0.108829
0.196701 0.594382 -0.417983
-0.240392 0.639186 0.292099
-0.023303 0.594382 -0.41274
-0.273984 0.639186 -0.256339
-0.510145 0.594382 -0.196625
0.052507 0.594382 -0.262003
0.484694 0.606382 -0.141695
0.189764 0.594382 -0.199998
-0.480946 0.594382 0.50117
-0.523416 0.638686 0.000927
0.136809 0.594382 -0.077555
-0.473239 0.594382 -0.413731
0.309303 0.639186 -0.380078
-0.523416 0.605038 0.359081
0.025021 0.639186 0.434247
0.353506 0.639186 -0.203567
-0.394074 0.639186 0.171703
-0.523416 0.607502 0.441484
0.212571 0.639186 -0.226031
-0.362679 0.639186 0.083184
-0.239126 0.639186 -0.127781
-0.027783 0.594382 0.16001
-0.506951 0.594382 0.127278
0.398937 0.594382 -0.188224
-0.029888 0.639186 0.286778
-0.208783 0.594382 0.337586
0.129461 0.594382 -0.244601
0.028088 0.639186 -0.323186
0.162545 0.594382 -0.040257
-0.512865 0.639186 0.104827
0.380825 0.639186 -0.435012
0.38882 0.594382 0.015011
0.414683 0.639186 0.221421
-0.151888 0.594382 0.480334
-0.388223 0.639186 0.268897
-0.47212 0.594382 -0.034105
-0.469118 0.639186 -0.275738
0.26261 0.594382 0.410224
0.146667 0.622462 0.50444
-0.250042 0.594382 -0.053794
0.384589 0.639186 -0.173061
-0.342402 0.639186 -0.06343
0.302322 0.594382 0.0148
0.377456 0.594382 0.424401
-0.466731 0.639186 0.444309
-0.12086 0.639186 -0.154934
-0.252158 0.639186 0.125896
-0.44691 0.639186 0.207234
-0.414143 0.594382 -0.107783
0.476314 0.639186 -0.050402
0.076425 0.639186 0.332296
0.012897 0.639186 0.212868
0.278368 0.639186 0.186313
0.483916 0.639186 0.214246
0.013144 0.639186 -0.397029
-0.198437 0.594382 -0.458612
0.398441 0.594382 0.367175
-0.303949 0.639186 0.01864
-0.099283 0.639186 0.06232
-0.360086 0.639186 0.012129
-0.403599 0.594382 0.141137
-0.209909 0.594382 -0.251547
-0.390128 0.639186 -0.489336
-0.020221 0.594382 0.365003
0.035046 0.594382 -0.104952
0.099192 0.594382 0.192609
0.176978 0.594382 0.222507
0.135054 0.639186 -0.412718
-0.086629 0.639186 -0.449026
-0.101636 0.633439 -0.526073
0.084115 0.639186 0.160384
0.3442 0.594382 -0.476582
-0.062772 0.639186 0.310886
-0.139848 0.639186 0.30364
0.478436 0.594382 0.22166
0.211783 0.639186 0.499509
0.311792 0.594382 0.371315
0.442623 0.639186 0.131576
-0.462633 0.639186 0.048585
0.275767 0.639186 0.272887
-0.500725 0.639186 0.342553
0.317648 0.594382 0.210218
-0.507316 0.594382 -0.159983
-0.10531 0.639186 0.129188
0.228735 0.594382 0.047033
-0.329248 0.594382 -0.360192
0.039961 0.594382 -0.482364
0.090799 0.594382 -0.165904
-0.467202 0.639186 0.403175
0.15189 0.594382 0.347856
0.2797 0.594382 -0.273006
-0.488727 0.639186 -0.445151
-0.149162 0.594382 -0.088695
-0.309917 0.594382 -0.040518
0.156194 0.639186 -0.176307
-0.186147 0.639186 0.226173
-0.512531 0.639186 -0.264215
0.360255 0.639186 -0.3141
-0.11882 0.594382 0.33267
-0.127342 0.594382 -0.344201
0.090831 0.594382 -0.017288
0.162416 0.639186 0.31851
-0.014719 0.639186 -0.25276
0.179712 0.639186 -0.402897
-0.174566 0.594382 0.066869
-0.395482 0.594382 0.078259
-0.407555 0.594382 -0.478091
-0.433101 0.594382 -0.176446
0.243571 0.594382 -0.337006
-0.168018 0.594382 -0.052751
-0.154238 0.594382 0.120301
-0.357922 0.594382 0.34175
-0.014832 0.639186 0.125153
0.271227 0.594382 0.468569
0.17582 0.639186 -0.525066
0.344643 0.594382 0.104274
-0.239894 0.639186 -0.443875
-0.523416 0.611278 -0.043066
-0.428293 0.639186 -0.366673
0.177066 0.594382 0.132217
-0.142021 0.594382 -0.274894
0.322524 0.639186 0.470332
0.136195 0.594382 0.217126
-0.510878 0.639186 -0.221298
-0.224553 0.639186 0.103981
-0.019764 0.594382 -0.094995
-0.460178 0.594382 -0.299776
-0.165588 0.639186 0.261604
0.07904 0.594382 0.370975
0.086109 0.594382 0.150337
0.381882 0.594382 0.229529
-0.457012 0.594382 -0.354704
0.484694 0.604192 0.017617
-0.340401 0.594382 0.08503
0.457883 0.594382 0.100436
0.185244 0.594382 -0.001465
-0.514167 0.639186 0.374669
-0.175651 0.602269 0.50444
-0.48172 0.594382 0.268747
0.045463 0.594382 0.391436
0.436376 0.639186 0.169559
0.000797 0.639186 -0.500363
0.382502 0.639186 0.378857
0.435261 0.594382 0.41039
-0.440438 0.639186 -0.313074
-0.249591 0.639186 -0.360146
-0.260255 0.639186 -0.514687
-0.380468 0.594382 -0.077885
0.21655 0.594382 0.352745
0.278978 0.639186 -0.213621
0.040908 0.639186 -0.009513
0.284524 0.594382 0.299246
0.020687 0.594382 -0.207131
0.375111 0.639186 -0.242353
-0.303155 0.594382 -0.484397
-0.119639 0.594382 -0.434583
0.19698 0.639186 -0.454273
-0.115347 0.639186 0.491866
-0.402013 0.594382 -0.01917
0.117227 0.594382 -0.144595
-0.105933 0.594382 -0.066649
0.345547 0.594382 0.357177
0.075433 0.639186 -0.31311
-0.481397 0.639186 -0.203908
-0.217365 0.594382 0.283486
0.169219 0.594382 -0.334122
-0.308649 0.639186 0.314119
0.158651 0.594382 -0.170916
-0.513841 0.594382 0.163959
-0.244824 0.594382 0.396731
-0.020843 0.639186 -0.392831
0.481005 0.594382 -0.302068
0.45269 0.594382 0.309529
-0.487134 0.639186 0.003857
0.112992 0.594382 -0.295336
0.253665 0.594382 0.240756
-0.256429 0.594382 -0.160546
0.303259 0.594382 0.108179
-0.345135 0.639186 -0.463038
-0.12401 0.639186 -0.418626
-0.403292 0.594382 -0.41114
-0.104911 0.594382 -0.279731
-0.207502 0.639186 0.160051
0.109756 0.639186 0.356579
-0.234143 0.639186 0.013658
0.063501 0.594382 0.036246
-0.46928 0.594382 0.355995
0.219718 0.594382 0.105514
-0.178613 0.594382 0.027865
0.216187 0.594382 0.318692
-0.071576 0.639186 -0.208977
-0.121208 0.594382 0.119277
0.258732 0.639186 -0.437605
0.276121 0.594382 0.184786
-0.328728 0.594382 0.439383
0.023157 0.604353 0.50444
-0.338323 0.594382 -0.431953
-0.053334 0.594382 -0.436325
0.407363 0.594382 0.109899
0.461329 0.639186 0.441296
0.359293 0.594382 -0.366233
0.320056 0.594382 0.042245
-0.242381 0.594382 -0.463557
-0.075435 0.639186 0.035669
-0.140678 0.639186 -0.486243
-0.418455 0.639186 0.123708
-0.470056 0.594382 0.175409
0.107679 0.594382 -0.220404
-0.35006 0.639186 0.49724
0.001296 0.639186 -0.430749
0.010675 0.639186 0.400793
-0.313007 0.639186 -0.032671
-0.128423 0.639186 0.197187
0.104414 0.639186 0.105273
-0.088806 0.594382 0.282213
0.300457 0.594382 -0.10305
0.115511 0.639186 0.217087
-0.38601 0.594382 -0.454275
-0.036529 0.639186 0.191043
0.152246 0.639186 0.28813
-0.396236 0.594382 0.434225
0.270263 0.639186 0.053657
0.157193 0.639186 0.112087
0.231054 0.594382 -0.177864
0.456631 0.594382 0.341419
0.341321 0.639186 -0.382981
0.231544 0.639186 0.212241
-0.22046 0.639186 -0.042916
0.126602 0.639186 0.132557
0.140575 0.639186 -0.4709
0.225004 0.639186 -0.264591
-0.066493 0.594382 0.230386
-0.370079 0.639186 -0.184837
0.298108 0.594382 -0.153521
0.300796 0.639186 -0.349615
-0.002515 0.594382 -0.018674
-0.365179 0.639186 0.461283
-0.269533 0.594382 0.368034
-0.012603 0.594382 0.253562
0.296997 0.639186 -0.123194
0.354525 0.594382 0.055221
0.305349 0.639186 0.209565
0.279643 0.639186 0.40271
-0.170535 0.639186 0.07728
0.150714 0.594382 0.279597
-0.364399 0.594382 0.200505
0.205666 0.639186 0.263562
-0.378013 0.639186 -0.339404
-0.280629 0.594382 -0.316493
0.104066 0.639186 -0.422945
-0.440756 0.618944 -0.526073
-0.119948 0.639186 0.399864
0.484694 0.617924 0.083334
-0.499789 0.639186 0.427815
0.229531 0.639186 -0.346836
0.438484 0.639186 -0.084406
0.461451 0.594382 -0.236486
-0.17711 0.62376 -0.526073
-0.457214 0.639186 -0.399234
0.338349 0.594382 0.494194
-0.388595 0.639186 -0.047409
0.10701 0.639186 0.479016
-0.059217 0.594382 0.482252
-0.447107 0.594382 -0.468049
0.002195 0.639186 -0.19483
0.04034 0.639186 0.199562
0.026621 0.639186 0.328931
-0.023456 0.639186 0.316454
0.096095 0.639186 -0.243227
-0.053774 0.639186 -0.396413
-0.127753 0.639186 0.252907
0.013119 0.594382 0.443523
-0.017175 0.625548 0.50444
-0.028533 0.594382 -0.524972
0.311959 0.639186 0.406424
-0.397947 0.639186 -0.305633
0.063288 0.594382 0.224478
0.472295 0.594382 0.40357
0.191943 0.594382 -0.034225
-0.353409 0.594382 -0.210003
0.403798 0.639186 0.104301
0.167742 0.639186 0.234859
-0.102149 0.639186 -0.232312
-0.449365 0.639186 0.240084
-0.23012 0.594382 -0.276039
-0.280342 0.594382 -0.016292
0.236768 0.594382 -0.285656
-0.05694 0.639186 -0.445459
0.213183 0.594382 -0.326693
0.135897 0.639186 -0.502272
-0.035239 0.639186 0.380089
-0.294974 0.639186 0.490316
-0.071761 0.639186 -0.254487
0.246772 0.594382 0.311492
-0.471873 0.594382 -0.32905
0.435877 0.639186 0.360083
-0.070874 0.594382 -0.096308
-0.114007 0.639186 -0.059176
-0.329068 0.594382 -0.272344
0.049785 0.639186 -0.484811
-0.517097 0.639186 -0.15387
-0.390497 0.594382 -0.180492
-0.024635 0.639186 0.006811
0.455262 0.639186 -0.517876
-0.308843 0.639186 -0.325544
-0.106436 0.611855 0.50444
0.370501 0.639186 -0.102396
-0.380485 0.596647 -0.526073
-0.331195 0.594382 0.112714
-0.125385 0.639186 0.35089
-0.433849 0.594382 0.020992
0.166481 0.594382 -0.14283
-0.396098 0.594382 -0.217136
0.390272 0.639186 0.44228
0.456757 0.639186 -0.264403
-0.106706 0.594382 -0.162601
-0.227605 0.594382 0.18485
-0.066961 0.639186 0.376007
-0.105928 0.594382 -0.516009
0.131044 0.594382 0.085699
-0.004266 -0.544289 -0.526073
-0.374268 -0.67073 -0.51979
-0.368275 -0.479841 -0.526073
0.393536 -0.565657 -0.526073
0.10913 -0.470824 -0.526073
0.193094 -0.610852 -0.526073
-0.105697 -0.464302 -0.526073
0.294636 -0.479509 -0.526073
0.405748 -0.67073 -0.492624
-0.245785 -0.488789 -0.526073
-0.43923 -0.560625 -0.526073
0.093095 -0.605569 -0.526073
0.20116 -0.479568 -0.526073
-0.470245 -0.455289 -0.526073
0.383047 -0.468094 -0.526073
-0.026639 -0.627463 -0.526073
0.47707 -0.606561 -0.526073
-0.008589 -0.461021 -0.526073
-0.224804 -0.653724 -0.526073
-0.314241 -0.532721 -0.526073
-0.304033 -0.646147 -0.526073
0.252154 -0.54042 -0.526073
0.070115 -0.521741 -0.492469
-0.374653 -0.581731 -0.526073
-0.079383 -0.52669 -0.526073
0.462921 -0.460181 -0.492469
-0.476115 -0.62237 -0.492469
0.361695 -0.518702 -0.492469
-0.165682 -0.447016 -0.526073
-0.198618 -0.59029 -0.526073
-0.107926 -0.629639 -0.526073
-0.418339 -0.623119 -0.526073
0.461856 -0.67073 -0.511586
-0.153062 -0.644178 -0.492469
0.239182 -0.446705 -0.496892
0.350452 -0.620727 -0.492469
0.30737 -0.553959 -0.526073
0.144452 -0.653962 -0.526073
0.071061 -0.448043 -0.492469
-0.513923 -0.528742 -0.526073
0.429859 -0.618037 -0.492469
-0.388633 -0.530135 -0.526073
-0.255783 -0.611008 -0.526073
0.249703 -0.60669 -0.526073
-0.157517 -0.538353 -0.526073
0.346706 -0.567071 -0.492469
0.042491 -0.478373 -0.526073
0.353591 -0.67073 -0.497506
0.167732 -0.446705 -0.496138
-0.321138 -0.461839 -0.526073
0.102655 -0.655621 -0.492469
0.416742 -0.473535 -0.492469
-0.413487 -0.465317 -0.526073
-0.518283 -0.449477 -0.526073
0.248855 -0.490996 -0.526073
0.003193 -0.591 -0.526073
-0.050412 -0.48268 -0.526073
-0.195096 -0.5025 -0.526073
0.484694 -0.559378 -0.522126
0.09004 -0.546855 -0.526073
-0.409295 -0.657337 -0.492469
-0.235603 -0.533898 -0.526073
0.035703 -0.551075 -0.492469
-0.523416 -0.485507 -0.492813
0.11334 -0.511548 -0.492469
-0.113389 -0.558321 -0.526073
-0.057767 -0.67073 -0.515855
-0.121045 -0.504773 -0.526073
0.154278 -0.584838 -0.526073
0.211316 -0.521976 -0.526073
0.295675 -0.656113 -0.526073
0.342085 -0.505207 -0.526073
-0.222065 -0.590311 -0.492469
-0.29426 -0.624865 -0.492469
-0.13576 -0.659445 -0.526073
0.211475 -0.569847 -0.526073
0.111438 -0.590531 -0.492469
-0.455076 -0.606659 -0.526073
-0.063657 -0.602173 -0.526073
0.056922 -0.642892 -0.526073
0.453073 -0.535842 -0.526073
-0.122062 -0.533458 -0.492469
-0.490126 -0.456698 -0.492469
-0.357303 -0.616864 -0.526073
-0.460333 -0.657793 -0.492469
-0.171996 -0.641139 -0.526073
0.465348 -0.478558 -0.526073
0.425678 -0.589931 -0.526073
-0.338231 -0.601448 -0.492469
0.108433 -0.450378 -0.492469
