-0.475266 0.698644 0.042555
-0.475266 0.213651 0.139429
-0.452574 0.554838 0.051602
-0.452574 -0.527013 -0.291084
-0.452574 -0.076795 -0.091773
-0.475266 0.617807 -0.21114
-0.475266 -0.104884 0.261507
-0.452574 -0.371822 0.328903
-0.452574 -0.260281 0.343418
-0.475266 -0.110065 -0.095421
-0.475266 -0.230787 0.273554
-0.452574 -0.302331 0.223322
-0.452574 -0.379052 -0.2638
-0.452574 0.044221 -0.166352
-0.452574 0.590796 0.036126
-0.452574 0.24998 0.046394
-0.475266 0.459973 0.092832
-0.475266 -0.164155 -0.109647
-0.452574 0.620769 -0.167024
-0.452574 -0.460463 0.064141
-0.452574 -0.328764 -0.378978
-0.475266 0.685399 0.249661
-0.452574 -0.502444 0.333508
-0.452574 0.395823 0.134016
-0.475266 0.480646 0.160744
-0.475266 -0.287869 -0.12051
-0.452574 0.560124 -0.392699
-0.452574 0.04786 -0.10464
-0.452574 -0.180367 0.022763
-0.475266 0.600247 0.237105
-0.452574 0.240343 -0.146298
-0.452574 0.298431 0.075814
-0.452574 0.120759 -0.258773
-0.475266 -0.086848 -0.28739
-0.475266 -0.056877 -0.211477
-0.475266 0.567439 -0.100022
-0.452574 -0.484198 -0.125488
-0.452574 -0.207728 -0.39448
-0.475266 0.353463 0.283718
-0.475266 0.124549 -0.414622
-0.452574 -0.03899 0.021737
-0.452574 0.28174 0.028239
-0.475266 0.556044 -0.228005
-0.452574 -0.170047 0.262395
-0.475266 0.217089 -0.047313
-0.452574 0.356246 0.330902
-0.452574 0.701445 -0.036006
-0.472093 0.728516 0.151017
-0.452574 -0.263872 -0.036076
-0.452574 -0.313942 0.012248
-0.475266 -0.03413 0.218917
-0.452574 0.158574 -0.056383
-0.452574 -0.273686 0.047516
-0.452574 0.080179 0.236217
-0.475266 -0.237055 -0.153637
-0.475266 0.173069 0.049302
-0.452574 0.318496 -0.40562
-0.475266 -0.280664 -0.290576
-0.452574 -0.35584 0.101646
-0.475266 0.283139 -0.235865
-0.452574 0.296663 -0.126458
-0.475266 -0.03193 0.251643
-0.475266 0.042833 -0.270587
-0.475266 0.224963 -0.342384
-0.475266 -0.431101 0.152858
-0.475266 0.085221 -0.419127
-0.475266 0.460094 -0.019613
-0.452574 -0.565842 -0.026413
-0.452574 0.543387 0.179596
-0.452574 0.049584 0.194858
-0.452574 0.435663 -0.119329
-0.475266 -0.421822 0.261817
-0.475266 -0.552041 0.040443
-0.452574 -0.120407 0.198522
-0.452574 0.096129 -0.392597
-0.475266 0.573599 -0.326832
-0.452574 0.650661 0.100809
-0.475266 -0.028046 0.077246
-0.475266 0.485322 -0.030329
-0.475266 0.385819 -0.365914
-0.452574 -0.182327 -0.184846
-0.475266 0.194044 -0.397396
-0.475266 0.640177 -0.114907
-0.475266 0.184727 -0.100043
-0.452574 -0.388587 0.241024
-0.475266 0.477607 0.347505
-0.452574 -0.173549 -0.019878
-0.452574 -0.621631 -0.211985
-0.475266 0.516237 0.119003
-0.475266 0.077499 0.177031
-0.475266 0.403089 -0.307434
-0.452574 0.524869 -0.17726
-0.452574 -0.027676 -0.008891
-0.452574 0.039057 0.007915
-0.452574 -0.049629 -0.304
-0.452574 -0.019155 0.297732
-0.475266 -0.38068 0.000224
-0.452574 0.439023 -0.407146
-0.452574 -0.520388 0.131819
-0.452574 -0.05076 -0.231737
-0.475266 0.594211 0.100188
-0.475266 0.222268 0.195897
-0.475266 0.290579 0.173767
-0.475266 0.137753 -0.26181
-0.475266 -0.211046 0.190906
-0.452574 0.054722 -0.357715
-0.452574 0.653556 0.135287
-0.475266 -0.173047 -0.310241
-0.452574 -0.085617 -0.063964
-0.475266 -0.443735 -0.235782
-0.452574 -0.070344 -0.415303
-0.452574 0.485196 -0.34134
-0.475266 0.278482 -0.360163
-0.475266 -0.424876 -0.336408
-0.475266 0.213011 -0.266931
-0.452574 0.569248 -0.187945
-0.452574 0.234601 -0.031868
-0.475266 0.156676 -0.376873
-0.452574 -0.567755 -0.054881
-0.475266 0.285239 -0.151674
-0.475266 0.528191 0.06586
-0.475266 0.034138 0.13877
-0.475054 -0.449766 -0.424388
-0.475266 -0.202063 0.226031
-0.475266 0.51955 -0.275861
-0.452574 0.136144 -0.022644
-0.452574 0.666236 -0.017454
-0.475266 0.455444 0.330026
-0.475098 -0.487191 -0.424388
-0.452574 0.396346 0.290263
-0.475266 -0.207878 -0.154624
-0.452574 -0.617891 -0.063544
-0.452574 0.489623 0.119079
-0.475266 0.017562 -0.335497
-0.475266 0.490978 0.186203
-0.475266 -0.163116 -0.030627
-0.475266 0.13837 -0.007024
-0.452574 -0.048907 -0.094481
-0.452574 0.633968 -0.343468
-0.475266 -0.501602 0.123523
-0.452574 -0.007056 0.27206
-0.452574 0.150595 -0.231736
-0.475266 -0.038215 0.192704
-0.475266 -0.246928 0.208909
-0.452574 0.454087 -0.082375
-0.475266 -0.333322 -0.200066
-0.452574 -0.332143 -0.012693
-0.475266 -0.44196 -0.033813
-0.475266 -0.451523 0.220616
-0.452574 -0.522219 0.069429
-0.452574 0.539336 -0.357852
-0.452574 -0.242848 -0.189033
-0.452574 -0.610357 -0.02769
-0.475266 -0.134242 0.225985
-0.452574 0.538873 0.110221
-0.475266 0.088625 -0.278425
-0.475266 -0.30772 -0.296196
-0.452574 -0.430797 0.20905
-0.452574 0.551892 0.233938
-0.452574 0.40597 0.241153
-0.452574 0.432668 -0.346396
-0.452574 0.460321 -0.358614
-0.452574 -0.093027 0.120755
-0.452574 0.426406 -0.064526
-0.452574 -0.033797 -0.186187
-0.452574 0.27979 -0.278866
-0.452574 0.051397 0.110476
-0.475266 -0.237031 -0.203622
-0.475266 0.462019 0.043039
-0.452574 0.008313 0.024532
-0.475266 0.716132 0.023069
-0.475266 0.498599 -0.178689
-0.452574 0.183496 -0.01379
-0.452574 -0.252817 0.166199
-0.475266 0.485472 -0.093759
-0.475266 0.334152 -0.248487
-0.475266 -0.376352 0.236708
-0.452574 0.162468 -0.134562
-0.452574 0.479386 -0.232867
-0.475266 0.511757 0.006287
-0.475266 0.142721 0.115257
-0.475266 0.175656 0.240715
-0.452574 -0.593561 -0.217928
-0.475266 0.359864 -0.176643
-0.475266 0.381054 0.313813
-0.452574 -0.105822 0.298588
-0.452574 -0.255266 -0.164325
-0.452574 -0.619009 -0.30471
-0.475266 -0.261957 0.279265
-0.452574 -0.186098 0.082674
-0.475266 -0.416348 0.210861
-0.475266 -0.079827 0.152873
-0.452574 -0.511955 0.018635
-0.475266 0.091915 -0.208889
-0.452574 -0.509969 -0.128246
-0.452574 -0.16148 -0.084694
-0.475266 0.233411 -0.20836
-0.452574 -0.581382 -0.340852
-0.475266 0.062603 0.126376
-0.475266 0.291731 -0.327165
-0.475266 0.419961 -0.126205
-0.452574 0.034968 -0.055999
-0.475266 -0.330229 0.334405
-0.452574 -0.183059 0.133383
-0.475266 0.723785 -0.373777
-0.452574 0.120542 -0.107506
-0.475266 -0.303441 0.027728
-0.475266 0.246254 0.009353
-0.452574 -0.179209 0.341302
-0.452574 -0.532276 -0.229671
-0.475266 -0.515162 -0.086008
-0.452574 0.627341 -0.023003
-0.475266 0.048532 0.284615
-0.452574 0.218514 -0.070515
-0.452574 -0.460461 0.08984
-0.475266 -0.272677 -0.250071
-0.452574 0.26844 0.301665
-0.475266 0.704931 0.348201
-0.475266 -0.143266 -0.248174
-0.452574 0.548736 -0.296089
-0.452574 -0.381076 0.041597
-0.452574 0.613815 -0.083651
-0.452574 -0.549779 0.299554
-0.452574 0.178554 -0.24751
-0.452574 0.696675 -0.331017
-0.452574 0.161623 -0.027094
-0.475266 -0.619245 -0.25034
-0.452574 -0.462333 0.008163
-0.452574 0.079546 0.289747
-0.452574 0.544435 -0.07237
-0.452574 0.7195 -0.344248
-0.475266 0.008921 0.059316
-0.475266 -0.001427 -0.118591
-0.475266 0.62241 -0.035617
-0.475266 0.019533 0.286772
-0.475266 0.360003 -0.362337
-0.475266 0.568099 0.10078
-0.452574 -0.589997 0.136215
-0.452574 -0.063658 0.263489
-0.452574 0.614027 0.050102
-0.452574 -0.537374 -0.34463
-0.475266 -0.159426 0.222794
-0.475266 -0.362134 0.308791
-0.452574 -0.143345 0.060196
-0.452574 0.707875 0.188211
-0.452574 0.039816 -0.396468
-0.475266 0.672713 -0.047889
-0.452574 -0.094619 -0.338196
-0.475266 0.373724 -0.206418
-0.475266 -0.500025 0.347208
-0.475266 -0.30408 -0.208854
-0.452574 0.666129 -0.314321
-0.475266 -0.504699 -0.162036
-0.475266 0.457524 -0.052041
-0.475266 -0.067869 -0.307004
-0.452574 0.187833 0.072351
-0.452574 0.579508 0.238791
-0.452574 -0.016174 0.218762
-0.452574 -0.413021 -0.297587
-0.475266 -0.381293 0.130044
-0.475266 0.632651 0.266493
-0.452574 -0.271705 -0.145372
-0.452574 -0.04832 -0.363352
-0.452574 0.430494 -0.220211
-0.452574 0.113293 -0.133031
-0.452574 0.360151 -0.317453
-0.475266 -0.155037 0.025221
-0.452574 0.584231 -0.402404
-0.475266 0.443673 -0.325077
-0.452574 -0.402735 0.320321
-0.452574 0.595014 -0.221545
-0.475266 0.022615 0.177692
-0.475266 -0.189624 -0.177335
-0.452574 -0.218067 0.164529
-0.452574 0.528369 -0.099129
-0.452574 -0.608455 0.057383
-0.475266 0.194889 -0.310603
-0.452574 0.565273 -0.019728
-0.452574 0.02078 0.211858
-0.475266 -0.372307 0.26127
-0.452574 0.521646 -0.219284
-0.475266 -0.448577 -0.328815
-0.475266 0.377749 -0.400388
-0.475266 -0.370774 -0.355062
-0.452574 -0.528353 0.329028
-0.452574 -0.255085 -0.108024
-0.452574 0.661394 -0.398393
-0.452574 -0.50433 -0.100881
-0.452574 0.682373 0.132048
-0.475266 -0.18094 -0.418358
-0.452574 -0.153841 0.231175
-0.452574 0.146457 0.201215
-0.475266 -0.008765 -0.004299
-0.452574 0.448032 0.2403
-0.452574 0.062116 -0.185129
-0.452574 0.542904 -0.146144
-0.452574 0.367549 -0.081601
-0.475266 0.571833 0.280574
-0.452574 0.446182 0.045437
-0.452574 -0.509924 0.269204
-0.469159 -0.632996 0.252129
-0.452574 -0.067942 0.197908
-0.452574 -0.453005 0.032586
-0.452574 0.111734 0.356254
-0.475266 -0.284455 -0.017596
-0.452574 -0.471576 -0.054216
-0.475266 -0.149528 0.085555
-0.452574 -0.563632 -0.122585
-0.452574 -0.130237 -0.281737
-0.452574 0.230952 0.328581
-0.452574 0.437624 0.264376
-0.475266 0.344934 0.162197
-0.452574 0.568935 -0.069641
-0.475266 -0.606577 -0.08914
-0.452574 0.189978 0.220447
-0.475266 -0.068387 0.097237
-0.475266 0.649317 0.039537
-0.475266 -0.008815 -0.216986
-0.475266 -0.426864 -0.305597
-0.475266 -0.389245 0.279037
-0.475266 0.532374 -0.008308
-0.475266 0.538356 -0.095934
-0.475266 -0.417933 -0.397575
-0.475266 0.556821 -0.409323
-0.452574 0.457717 -0.29818
-0.452574 -0.113923 -0.127183
-0.452574 -0.462488 0.265024
-0.475266 0.684157 -0.11096
-0.452574 0.467995 -0.023855
-0.475266 -0.604871 0.102732
-0.475266 0.187845 0.323998
-0.475266 -0.511944 0.28751
-0.452574 0.253936 0.203744
-0.475266 -0.205752 0.124808
-0.475266 -0.323704 -0.371766
-0.475266 -0.058269 0.272347
-0.475266 0.666759 -0.003728
-0.452574 -0.41086 -0.198248
-0.475266 -0.031606 -0.388271
-0.475266 0.432805 -0.198589
-0.475266 0.637946 -0.331621
-0.475266 0.008507 0.321483
-0.475266 0.510891 -0.203762
-0.452574 -0.28924 0.103876
-0.452574 -0.5943 -0.300471
-0.475266 0.491656 0.139124
-0.452574 0.302572 0.318336
-0.475266 -0.386187 -0.254775
-0.475266 0.249796 -0.24235
-0.475266 0.60374 0.053028
-0.475266 -0.365563 0.066281
-0.475266 -0.26352 -0.396134
-0.452574 0.56437 -0.128972
-0.475266 -0.445014 0.314675
-0.452574 -0.441288 -0.407996
-0.452574 0.077331 0.042374
-0.475266 0.698597 0.194088
-0.452574 -0.063697 0.023357
-0.475266 -0.258333 -0.302974
-0.452574 0.49221 0.27855
-0.475266 0.19703 -0.193957
-0.452574 0.416383 0.312482
-0.475266 0.046301 0.220883
-0.475266 0.449418 -0.385813
-0.475266 0.151952 -0.112565
-0.475266 0.501821 0.099101
-0.452574 0.721162 -0.076538
-0.475266 0.126589 -0.364551
-0.452574 0.592774 -0.300316
-0.475266 0.718374 0.285865
-0.475266 -0.031086 0.275684
-0.475266 0.12394 0.325049
-0.452574 0.101799 0.225706
-0.475266 -0.228516 -0.131167
-0.475266 0.351002 0.046055
-0.475266 -0.065695 -0.005329
-0.452574 0.090982 0.104687
-0.452574 0.342968 0.192847
-0.475266 0.156194 0.293216
-0.452574 0.676328 -0.041063
-0.475266 0.521676 -0.309523
-0.475266 -0.387804 0.206172
-0.475266 -0.372618 -0.049236
-0.475266 -0.298892 0.340394
-0.475266 0.201059 -0.343478
-0.475266 0.274861 -0.387749
-0.475266 0.564824 0.152656
-0.463665 0.728516 0.325749
-0.475266 0.274091 -0.067097
-0.475266 -0.564408 -0.305264
-0.475266 -0.064092 -0.343807
-0.452574 0.369524 0.012593
-0.452574 -0.563148 0.198762
-0.475266 0.667728 -0.263114
-0.475266 -0.112364 0.182123
-0.452574 -0.311004 -0.39946
-0.452574 -0.160256 -0.130336
-0.452574 0.629646 -0.064773
-0.452574 -0.590841 0.317344
-0.452574 -0.448001 -0.368078
-0.452574 0.468297 0.285878
-0.475266 0.050315 -0.059545
-0.452574 -0.355213 0.021449
-0.452574 -0.155379 -0.363567
-0.475266 0.168074 0.072553
-0.475266 0.284873 0.0165
-0.452574 -0.393206 -0.032286
-0.475266 0.380178 -0.301169
-0.475266 0.639366 0.348901
-0.475266 0.359473 -0.034805
-0.452574 -0.364927 -0.054342
-0.475266 -0.010648 0.102575
-0.452574 -0.190394 -0.253064
-0.452574 0.622893 0.206632
-0.452574 0.175309 -0.292574
-0.452574 -0.021349 0.076689
-0.475266 0.395336 -0.266757
-0.452574 0.349001 -0.420354
-0.475266 -0.143637 -0.277723
-0.452574 0.645402 0.252866
-0.475266 0.570444 0.225563
-0.452574 0.036021 -0.307064
-0.452574 -0.282298 0.351952
-0.475266 -0.289776 0.299154
-0.452574 0.200032 -0.143424
-0.475266 0.021696 -0.28106
-0.475266 0.61003 -0.133573
-0.452574 -0.215761 -0.357264
-0.475266 0.492058 0.244735
-0.452574 0.27602 0.001247
-0.452574 -0.594458 -0.360448
-0.452574 0.214533 -0.011908
-0.475266 0.182712 0.105133
-0.452574 0.314965 -0.237192
-0.475266 -0.234249 -0.353258
-0.452574 0.22788 -0.168126
-0.452574 -0.144581 0.260014
-0.475266 0.318063 0.060005
-0.475266 -0.291916 0.11675
-0.475266 0.084153 -0.345371
-0.475266 0.515315 0.197734
-0.475266 -0.547086 -0.177894
-0.452574 0.585006 -0.042948
-0.475266 -0.054314 0.067313
-0.475266 0.180142 -0.132306
-0.452574 0.49155 0.319183
-0.475266 0.145366 0.213058
-0.452574 -0.54838 -0.276047
-0.452574 0.183705 -0.424113
-0.475266 -0.095687 0.130553
-0.475266 0.693451 -0.068533
-0.472704 -0.032206 -0.424388
-0.475266 -0.425154 0.099298
-0.452574 0.328655 0.028917
-0.475266 0.052294 -0.319935
-0.452574 -0.141123 0.153951
-0.452574 -0.141241 -0.236782
-0.452574 0.688693 -0.375233
-0.452574 -0.536468 -0.13752
-0.452574 -0.005758 0.169902
-0.475266 -0.34954 0.211063
-0.475266 0.588314 -0.377868
-0.475266 -0.55651 -0.08906
-0.452574 0.326155 -0.319294
-0.452574 0.661273 0.077056
-0.475266 0.340237 0.069175
-0.452574 0.228734 0.064209
-0.475266 0.418499 -0.363552
-0.452574 -0.434096 -0.204967
-0.452574 0.09815 0.337374
-0.452574 0.084327 -0.263017
-0.475266 0.221565 0.291037
-0.475266 0.414577 0.27343
-0.475266 -0.299143 0.198577
-0.461265 -0.351572 -0.424388
-0.452574 0.363747 -0.107022
-0.452574 -0.208186 -0.177865
-0.452574 -0.252304 -0.342312
-0.452574 -0.264517 0.113585
-0.475266 -0.398428 0.34402
-0.475266 0.246026 0.136959
-0.475266 0.686424 0.314062
-0.475266 -0.468067 0.049637
-0.475266 -0.316643 -0.018514
-0.452574 0.724789 -0.388394
-0.475266 0.678569 0.099243
-0.452574 -0.138406 0.213925
-0.475266 0.120244 0.109754
-0.475266 0.62964 -0.410079
-0.475266 -0.613194 0.329446
-0.475266 -0.188104 -0.070395
-0.475266 -0.278816 0.136843
-0.475266 -0.288752 -0.406578
-0.452574 -0.46345 -0.387242
-0.475266 0.247187 0.08526
-0.452574 -0.077112 -0.214408
-0.475266 0.117234 0.226771
-0.475266 0.002376 0.346864
-0.475266 0.590547 0.003204
-0.452574 0.120375 0.047388
-0.452574 0.240228 -0.258579
-0.452574 0.220855 0.022837
-0.452574 -0.397208 -0.133922
-0.452574 -0.364725 0.254188
-0.475266 0.013095 -0.392309
-0.475266 -0.199579 -0.211806
-0.452574 0.00968 -0.327411
-0.452574 0.063014 -0.035532
-0.475266 0.111406 -0.14356
-0.452574 -0.342199 -0.117543
-0.475266 0.434819 -0.055595
-0.452574 0.664228 -0.084945
-0.475266 0.523686 -0.376484
-0.452574 -0.439618 0.266854
-0.452574 -0.307163 0.16134
-0.452574 0.567292 0.1335
-0.472783 0.465346 -0.424388
-0.452574 0.111044 0.27127
-0.452574 -0.166919 0.06763
-0.452574 0.175771 -0.186945
-0.475266 0.079783 -0.123272
-0.452574 0.490262 -0.171108
-0.475266 -0.225533 0.013767
-0.475266 -0.617913 -0.195817
-0.475266 0.510229 0.352603
0.432408 -0.025363 -0.350504
0.432408 -0.016402 0.262192
0.432408 0.417037 -0.104463
0.4551 -0.503216 -0.418079
0.4551 -0.393139 0.024271
0.4551 0.548296 -0.423925
0.4551 0.307641 0.202212
0.4551 0.118788 -0.056397
0.4551 0.71713 -0.201426
0.4551 -0.221696 -0.174549
0.4551 -0.166954 0.080723
0.4551 -0.458011 0.24794
0.4551 0.52084 0.13458
0.432408 -0.445127 -0.191082
0.4551 -0.627285 -0.000281
0.4551 0.724621 0.213816
0.4551 0.179842 -0.242541
0.4551 0.596944 -0.0451
0.432408 0.13096 0.146585
0.4551 0.399552 -0.290505
0.4551 -0.065633 -0.078557
0.4551 -0.315056 -0.339318
0.432408 -0.282418 0.224093
0.432408 0.292935 0.027985
0.4551 0.14348 -0.420395
0.4551 0.45046 0.296766
0.432408 -0.171125 -0.418069
0.432408 -0.521186 0.108745
0.432408 -0.00434 0.076197
0.432408 0.037946 -0.192351
0.4551 -0.143079 0.33813
0.4551 0.726048 0.053069
0.432408 0.271891 -0.133037
0.432408 -0.256957 -0.036398
0.432408 0.118002 0.314835
0.451646 0.356032 -0.424388
0.4551 0.586128 -0.27474
0.4551 -0.513541 -0.075978
0.4551 0.437486 0.033029
0.432408 0.726288 -0.067898
0.4551 -0.338115 -0.124507
0.453234 0.728516 -0.321715
0.4551 -0.296579 0.096405
0.4551 0.577129 0.240117
0.4551 0.479891 -0.203621
0.4551 -0.502399 -0.300713
0.432408 0.249038 0.299727
0.432408 0.612531 -0.158299
0.4551 0.07704 -0.304815
0.432408 -0.396063 0.147897
0.4551 -0.573985 0.220593
0.4551 0.285832 -0.289917
0.448071 -0.388539 -0.424388
0.4551 -0.207871 -0.307812
0.4551 -0.361639 0.303876
0.432408 0.397653 0.134136
0.4551 0.622941 0.090422
0.4551 -0.313144 -0.231995
0.4551 -0.166578 0.215368
0.4551 0.251321 -0.408751
0.453155 -0.632996 0.326004
0.4551 -0.61257 -0.32208
0.4551 -0.084782 0.146149
0.4551 0.718288 0.329481
0.432408 0.098729 0.047024
0.432408 0.241736 0.124166
0.432408 0.366378 -0.195145
0.432408 -0.403396 -0.291581
0.4551 -0.16621 -0.085804
0.4551 -0.610478 -0.103596
0.4551 0.196399 0.036877
0.432408 0.129072 -0.152777
0.4551 0.496069 -0.316295
0.4551 0.044817 -0.422347
0.4551 0.201652 0.210602
0.432408 -0.235869 0.309649
0.4551 0.680015 -0.41818
0.4551 0.454077 -0.40323
0.4551 0.328472 -0.058488
0.432408 0.043702 0.183326
0.432408 0.024432 -0.095789
0.432408 0.219297 -0.054971
0.4551 -0.063258 -0.188154
0.432408 -0.420753 -0.062347
0.4551 0.031403 0.341106
0.4551 0.18212 -0.334345
0.4551 0.487727 -0.04377
0.4551 -0.56766 -0.233
0.4551 0.360461 0.298594
0.454658 -0.084155 -0.424388
0.4551 0.533665 -0.121595
0.4551 -0.511406 0.013533
0.4551 0.401988 0.219782
0.432408 0.523835 0.341054
0.4551 0.550895 0.038861
0.4551 -0.011409 -0.008476
0.432408 -0.229628 0.154295
0.4551 0.113271 0.230095
0.432408 -0.016805 -0.264102
0.4551 0.645928 0.181303
0.432408 -0.05925 0.349684
0.4551 -0.305191 -0.423752
0.4551 -0.091948 0.034348
0.432408 0.725469 0.136178
0.4551 -0.099865 -0.290518
0.432408 -0.383881 0.226779
0.4551 0.258694 -0.20825
0.4551 0.4983 0.229667
0.4551 -0.443612 -0.355767
0.432408 -0.442077 0.081387
0.432408 0.345716 -0.349288
0.4551 -0.468574 0.165507
0.432408 0.321953 0.117148
0.4551 -0.584287 0.069808
0.432408 -0.247832 0.040888
0.4551 -0.52661 0.282963
0.4551 -0.515549 -0.15241
0.4551 -0.261366 -0.108976
0.4551 0.061323 0.113889
0.432408 -0.325758 -0.006811
0.4551 0.200862 -0.137639
0.432408 -0.188067 -0.003895
0.4551 0.624196 -0.341256
0.432408 0.109595 -0.237727
0.432408 -0.461361 0.322952
0.4551 0.660701 -0.09132
0.4551 -0.139621 -0.192952
0.432408 0.384578 -0.01071
0.4551 -0.027302 0.189578
0.4551 -0.375727 -0.1965
0.432408 0.052871 -0.029595
0.432408 -0.325792 0.157292
0.4551 0.343411 -0.127579
0.432408 0.053762 0.268731
0.4551 0.628299 0.301199
0.4551 0.641268 -0.231812
0.4551 0.367147 0.069349
0.4551 -0.451942 -0.124905
0.4551 -0.496658 -0.230967
0.432408 0.542713 -0.219857
0.432408 0.480535 0.082468
0.4551 -0.249353 -0.38313
0.4551 -0.188796 -0.240206
0.432408 -0.290469 -0.167443
0.4551 -0.092386 0.217083
0.4551 0.177743 0.103599
0.4551 -0.164806 0.147712
0.432408 0.588407 0.143106
0.4551 -0.370817 0.090277
0.4551 -0.270163 -0.283022
0.4551 0.455678 0.157892
0.432408 0.341249 -0.256259
0.4551 0.612845 -0.409967
0.432408 -0.382172 -0.358341
0.4551 -0.088619 -0.354874
0.432408 0.279371 -0.354547
0.4551 0.556335 -0.359042
0.432408 -0.580664 0.140651
0.432408 0.304615 0.266062
0.4551 -0.613275 -0.177191
0.432408 -0.011732 -0.151307
0.4551 -0.295093 0.320258
0.432408 -0.17893 0.274504
0.4551 0.667621 -0.289742
0.432408 0.475298 -0.13266
0.432408 -0.453433 0.001855
0.433376 0.728516 -0.381447
0.432408 0.227528 -0.298333
0.432408 0.097686 -0.385014
0.4551 -0.356559 -0.055154
0.432408 0.526419 0.279537
0.432408 0.161485 -0.094511
0.432408 -0.244504 -0.22702
0.432408 0.400098 -0.385223
0.432408 -0.580151 0.301274
0.434996 0.728516 0.27129
0.4551 0.164855 -0.014907
0.4551 0.029596 -0.362179
0.432408 0.470132 -0.266487
0.4551 0.080814 -0.124321
0.4551 0.719666 -0.123828
0.4551 0.656857 0.040493
0.432408 -0.559043 -0.287812
0.432408 0.425063 -0.209306
0.432408 0.547212 -0.068303
0.432408 0.727148 -0.008609
0.4551 -0.22779 0.220143
0.4551 -0.553488 -0.386931
0.4551 0.423074 -0.049372
0.4551 0.038475 -0.260172
0.432408 -0.159407 -0.354745
0.4551 0.195073 0.305858
0.4551 0.049057 0.024478
0.4551 -0.329549 0.047947
0.432408 -0.520057 0.222315
0.432408 -0.171092 -0.141331
0.432408 -0.397606 -0.147267
0.4551 0.679362 0.105619
0.4551 0.547647 0.186356
0.432408 0.446804 -0.350148
0.432408 -0.446833 -0.250352
0.4551 0.571171 0.316719
0.432408 0.563438 0.090197
0.432408 -0.410597 0.277553
0.432408 0.493641 0.027161
0.432408 0.601781 0.029053
0.432408 -0.524758 0.165188
0.4551 0.355309 0.172153
0.432408 -0.085783 -0.01755
0.4551 -0.443564 -0.415977
0.4551 -0.300271 -0.068556
0.432408 0.705524 -0.255526
0.432408 0.277624 -0.061953
0.4551 -0.229987 0.088572
0.432408 0.241016 0.244571
0.4551 0.427004 -0.154167
0.432408 0.306572 -0.402833
0.4551 0.311576 -0.192234
0.432408 -0.14633 0.0323
0.432408 -0.57563 -0.144085
0.432408 -0.618295 -0.226906
0.4551 0.654521 -0.036977
0.432408 0.015494 0.133206
0.432408 -0.619811 -0.378365
0.432408 -0.348961 -0.29045
0.432408 0.264896 0.173105
0.4551 -0.010927 -0.201985
0.432408 -0.019377 -0.056925
0.4551 -0.083919 -0.23812
0.432408 -0.436411 0.204169
0.4551 0.024771 0.228314
0.432408 -0.508818 -0.367266
0.432408 -0.0748 0.098423
0.4551 0.257025 -0.004787
0.4551 -0.08663 0.309555
0.438726 0.203151 -0.424388
0.432408 0.623299 0.226641
0.432408 -0.068994 -0.132184
0.432408 -0.337943 -0.388704
0.4551 0.345587 0.239219
0.4551 0.190321 0.158838
0.4551 0.125168 0.097169
0.4551 -0.581642 -0.055159
0.432408 -0.1471 -0.263466
0.432408 0.146012 0.270269
0.432408 0.598242 -0.211759
0.4551 0.128757 -0.314209
0.4551 0.330517 -0.000884
0.432408 0.547991 -0.302731
0.4551 0.090355 0.176321
0.432408 0.409994 0.272671
0.4551 0.308012 0.31279
0.432408 -0.335989 0.264827
0.4551 -0.279852 0.145542
0.4551 0.511372 -0.387747
0.432408 0.233871 0.064258
0.432408 0.171952 -0.181568
0.432408 -0.215027 -0.110621
0.4551 -0.280052 0.003642
0.4551 0.099152 0.000915
0.4551 0.428684 0.083422
0.432408 0.280237 0.08758
0.432408 -0.61949 0.186989
0.4551 0.679535 0.296253
0.4551 0.026291 -0.310181
0.4551 -0.464045 -0.04846
0.432408 0.225253 -0.239025
0.432408 0.155757 0.21397
0.4551 -0.033964 0.139251
0.4551 -0.604137 -0.270038
0.432408 0.416918 0.327159
0.432408 -0.057749 -0.312
0.432408 -0.134959 0.11428
0.4551 -0.400892 -0.102433
0.4551 -0.45246 -0.304394
0.432408 -0.488623 0.063218
0.4551 -0.570607 0.005129
0.432408 -0.198161 0.049189
0.445934 -0.222971 -0.424388
0.4551 0.380437 -0.074991
0.432408 0.22885 -0.175734
0.432408 0.229866 -0.357352
0.432408 0.00207 -0.412957
0.432408 0.458754 0.211164
0.432408 0.504685 0.180174
0.4551 0.668279 0.236882
0.4551 -0.030344 0.036417
0.432408 -0.008021 0.357536
0.4551 0.544139 -0.168723
0.4551 -0.412155 0.330159
0.4551 0.13615 -0.366997
0.432408 -0.141172 -0.036719
0.432408 0.498799 -0.090997
0.4551 0.599302 0.192111
0.4551 0.447243 -0.308143
0.4551 0.387892 -0.336764
0.4551 0.683771 -0.164502
0.432408 -0.211431 -0.050258
0.432408 -0.062362 0.246107
0.432408 0.574269 -0.11278
0.432408 -0.232117 -0.345345
0.432408 -0.492669 -0.187025
0.4551 0.341607 -0.297706
0.4551 0.239521 -0.107204
0.432408 -0.390513 -0.246209
0.4551 0.154017 0.057411
0.432408 0.553968 -0.002101
0.4551 0.120126 -0.198033
0.432408 -0.546183 0.044425
0.4551 -0.119542 0.076279
0.432408 0.516257 -0.259301
0.432408 0.178692 -0.29392
0.432408 0.307039 -0.09782
0.4551 -0.556225 -0.179574
0.432408 0.042302 -0.146193
0.432408 0.112103 -0.098961
0.432408 0.310829 0.162075
0.4551 0.210973 -0.012133
0.432408 -0.385714 -0.015256
0.4551 -0.197604 -0.367329
0.432408 -0.198351 0.190747
0.4551 -0.120736 -0.071325
0.4551 -0.395626 0.188388
0.432408 -0.476524 -0.091506
0.432408 -0.324353 0.204931
0.432408 0.622602 -0.079198
0.432408 -0.121691 -0.326582
0.432408 -0.534822 -0.028711
0.4551 -0.131219 0.244476
0.432408 -0.526594 -0.114196
0.4551 0.198518 -0.381926
0.4551 -0.276304 0.278577
0.4551 -0.123395 -0.400948
0.4551 0.391791 0.028114
0.432408 0.539613 0.227983
0.4551 -0.106205 -0.144726
0.4551 0.064233 -0.082176
0.432408 -0.520504 -0.264031
0.432408 -0.043049 -0.396814
0.432408 -0.276759 -0.352654
0.432408 0.398259 0.180969
0.432408 -0.487155 0.273726
0.4551 -0.331104 -0.190354
0.432408 -0.624641 -0.13983
0.432408 0.660228 -0.130173
0.432408 -0.183727 0.319222
0.432408 0.449063 0.116353
0.432408 0.340914 0.333108
0.432408 0.098472 0.268594
0.432408 0.185511 0.249321
0.432408 -0.625705 -0.049108
0.432408 0.297645 -0.228051
0.432408 -0.113282 0.178061
0.4551 0.411824 -0.244953
0.4551 0.075994 -0.195858
0.432408 -0.223771 0.257727
0.432408 -0.343581 0.116473
0.4551 -0.034173 -0.117519
0.4551 0.611754 -0.120545
0.432408 0.082597 -0.342146
0.4551 0.025512 -0.055388
0.4551 0.642944 0.13007
0.432408 0.333946 0.043517
0.432408 0.510153 -0.013774
0.4551 0.149764 0.33987
0.4551 0.383567 -0.158121
0.432408 -0.298544 -0.110839
0.4551 -0.43521 0.03549
0.4551 0.49415 0.297818
0.432408 0.605605 -0.306222
0.4551 0.023495 0.289968
0.432408 -0.478447 -0.336399
0.4551 -0.053827 -0.275339
0.4551 0.07038 0.235704
0.432408 -0.536026 -0.210457
0.4551 -0.484523 0.105412
0.4551 0.175137 -0.060446
0.4551 0.637934 -0.188849
0.4551 -0.143391 0.285775
0.432408 0.577119 0.276655
0.432408 -0.165742 -0.302136
0.432408 -0.045934 0.002288
0.4551 0.682232 0.155523
0.432408 -0.230218 0.001989
0.432408 -0.293134 -0.310797
0.432408 -0.29403 0.043716
0.432408 -0.187912 -0.186028
0.432408 0.213847 0.336167
0.432408 -0.350194 -0.234039
0.432408 -0.255339 -0.143927
0.432408 0.088344 0.091004
0.432408 0.456313 -0.08955
0.432408 0.451831 0.000888
0.4551 -0.029336 0.294921
0.441018 -0.264532 -0.424388
0.432408 -0.421969 -0.383453
0.4551 0.067215 0.062512
0.450937 0.491768 -0.424388
0.4551 -0.538094 0.346357
0.4551 0.642582 -0.380736
0.432408 0.109101 -0.285374
0.432408 -0.207632 0.115329
0.432408 -0.487345 -0.022538
0.432408 -0.284181 0.182572
0.432408 0.286167 0.351603
0.4551 -0.568633 0.179551
0.4551 -0.216639 0.34673
0.432408 0.016065 0.034308
0.4551 0.244568 -0.267365
0.432408 0.000556 0.315362
0.432408 0.035027 0.09219
0.4551 0.727733 0.10225
0.4551 0.514506 0.083087
0.432408 -0.327784 0.311129
0.432408 0.639862 -0.265677
0.4551 -0.614108 0.28992
0.432408 -0.140045 -0.107246
0.432408 -0.617258 0.088846
0.432408 0.072028 -0.256449
0.432408 -0.279219 0.350049
0.4551 -0.359778 0.169309
0.432408 -0.379816 0.355324
0.4551 0.270841 -0.169532
0.4551 -0.244347 -0.072173
0.432408 -0.605392 0.238436
0.432408 -0.2199 -0.276537
0.432408 0.078475 0.323488
0.4551 -0.433663 0.145084
0.4551 -0.404643 -0.3336
0.4551 0.263967 0.049821
0.432408 -0.01839 0.221727
0.432408 0.362033 0.112519
0.4551 0.235483 0.157411
0.432408 0.315604 -0.318529
0.432408 0.149682 0.014723
0.4551 -0.313778 0.236342
0.432408 0.374769 -0.117
0.4551 -0.553277 -0.094672
0.4551 0.359168 -0.227318
0.4551 -0.262112 -0.199226
0.4551 -0.033733 0.090709
0.432408 -0.601136 0.337901
0.432408 -0.535945 -0.320259
0.4551 0.20055 -0.197474
0.432408 -0.032478 -0.226609
0.432408 0.579978 -0.415922
0.432408 0.5153 -0.153359
0.4551 0.67794 -0.208931
0.432408 -0.245223 -0.30791
0.4551 0.012846 -0.130144
0.432408 0.239108 0.203119
0.4551 0.162662 -0.126894
0.4551 0.287617 -0.029866
0.432408 0.63802 0.013281
0.432408 -0.103506 -0.176948
0.4551 -0.55748 0.09878
0.4551 0.143777 0.176162
0.43381 0.396073 -0.424388
0.4551 0.267467 0.273323
0.432408 0.374389 0.253478
0.4551 0.556502 0.353202
0.4551 0.319295 0.085163
0.432408 0.723141 -0.155659
0.4551 -0.267247 0.070455
0.4551 -0.47999 -0.380653
0.432408 -0.403597 0.074952
0.432408 -0.06345 0.199094
0.432408 -0.292012 -0.255396
0.432408 0.059593 0.14537
0.432408 0.091471 -0.168488
0.4551 -0.113678 -0.00304
0.432408 0.694627 0.052458
0.432408 0.615638 0.272343
0.432408 0.492112 0.261546
0.432408 -0.494598 0.189403
0.432408 0.051152 -0.384839
0.4551 -0.022012 -0.29719
0.432408 0.146126 -0.039834
0.4551 -0.579142 -0.358243
0.432408 0.602055 0.3201
0.432408 0.41692 -0.316245
0.4551 -0.416292 -0.202436
0.432408 -0.372849 0.047568
0.4551 0.139304 -0.246201
0.4551 0.48209 0.11319
0.4551 -0.359845 0.20764
0.432408 -0.48272 0.138272
0.4551 -0.596904 -0.399203
0.4551 0.457673 0.241707
0.432408 0.381756 -0.2503
0.4551 0.697258 -0.002367
0.4551 0.578783 -0.184264
0.4551 0.661955 -0.337527
0.4551 -0.599026 0.116479
0.432408 -0.344857 -0.095096
0.432408 -0.05136 -0.035064
0.4551 0.087574 -0.034981
0.4551 0.593261 -0.368769
0.452436 -0.550794 -0.424388
0.4551 -0.170273 -0.029622
0.4551 0.697932 -0.380863
0.432408 0.379024 0.321974
0.4551 -0.359886 -0.000293
0.432408 -0.630462 -0.284096
0.432408 0.351374 -0.039395
0.4551 -0.418797 -0.260306
0.432408 -0.249055 0.111377
0.432408 0.726137 -0.286628
0.4551 -0.539159 0.139321
0.432408 -0.498428 0.326889
0.438629 -0.346699 -0.424388
0.432408 -0.314028 -0.042149
0.432408 0.017203 -0.015726
0.432408 -0.342054 -0.351739
0.432408 0.199009 -0.108276
0.432408 0.549402 0.127556
0.432408 0.625184 -0.035683
0.4551 0.013916 0.162438
0.4551 0.014863 -0.167101
0.432408 -0.244511 0.188164
0.432408 0.001888 0.189768
0.432408 -0.082664 -0.054646
0.432408 0.564718 -0.249505
0.432408 0.662426 0.319805
0.4551 -0.364978 0.266765
0.432408 0.370812 -0.287105
0.432408 0.655466 0.208593
0.4551 0.224841 0.283974
0.432408 0.177336 0.074818
0.432408 0.505577 -0.216499
0.432408 -0.477652 -0.286133
0.432408 0.346455 -0.080872
0.432408 0.182072 0.188573
0.4551 -0.201999 0.161652
0.432408 0.602565 0.070386
0.4551 0.465622 -0.159504
0.4551 -0.429114 0.108931
0.4551 -0.49223 0.228405
0.432408 0.174204 0.32543
0.4551 -0.127899 0.202345
0.4551 0.338954 -0.387109
0.432408 -0.580509 0.031641
0.432408 0.627583 0.159875
0.4551 -0.44527 -0.160357
0.4551 -0.001384 0.106662
0.4551 0.523345 0.010934
0.4551 0.230074 0.024147
0.4551 -0.22418 -0.025262
0.432408 0.570546 -0.330722
0.4551 -0.238998 0.281068
0.432408 0.275559 0.207392
0.4551 -0.470412 0.041743
0.432408 0.345277 0.14644
0.432408 0.574288 -0.148488
0.432408 -0.548128 0.320711
0.4551 -0.600949 0.159272
0.432408 -0.583105 -0.106306
0.4551 -0.486047 0.302335
0.4551 0.294551 0.115291
0.4551 0.246206 -0.049548
0.435138 0.276107 -0.424388
0.4551 0.420476 0.148986
0.4551 -0.305505 -0.280664
0.4551 -0.311919 0.130555
0.4551 0.256153 0.10012
0.4551 0.3063 -0.357578
0.4551 0.29882 -0.1358
0.432408 0.113548 -0.026227
0.4551 -0.259104 0.237789
0.4551 -0.401154 -0.037362
0.4551 -0.541625 0.206146
0.4551 -0.215982 -0.217839
0.432408 0.334493 0.200656
0.432408 0.640123 0.069747
0.432408 0.578558 0.213319
0.4551 -0.576605 0.255574
0.4551 0.279907 -0.247986
0.4551 0.520843 -0.064762
0.432408 0.388226 0.085392
0.432408 0.434074 0.173132
0.432408 -0.616459 0.0238
0.4551 0.200851 -0.270294
0.4551 -0.313245 0.289127
0.432408 -0.040587 0.320415
0.432408 0.34718 -0.166259
0.432408 0.520997 -0.42256
0.432408 -0.348326 0.076869
0.432408 0.449135 -0.047004
0.4551 -0.364095 -0.389039
0.432408 -0.478576 -0.409381
0.4551 0.531146 -0.335361
0.4551 -0.078637 -0.390309
0.432408 0.355384 0.016457
0.432408 0.176853 -0.396161
0.4551 -0.085479 0.183332
0.4551 0.334512 0.35814
0.4551 0.007915 -0.280281
0.4551 0.426458 -0.423681
0.432408 0.47315 0.312696
0.432408 0.048338 -0.344022
0.4551 0.117219 0.286194
0.4551 0.371929 0.202105
0.432408 0.646254 -0.407598
0.432408 0.241181 -0.081631
0.4551 0.447704 0.330817
0.4551 0.256841 -0.37511
0.432408 0.310967 -0.040038
0.432408 -0.443787 -0.03312
0.4551 0.587888 -0.239099
0.432408 0.301532 0.060933
0.4551 -0.14662 -0.238122
0.432408 -0.011854 -0.105539
0.4551 -0.313868 0.357125
0.432408 0.706254 0.296831
0.432408 0.25276 0.357793
0.4551 -0.396634 0.298618
0.4551 -0.191342 -0.278172
0.432408 0.255726 0.025985
0.432408 -0.393633 0.107368
0.4551 0.535482 0.252812
0.4551 -0.472684 -0.202328
0.4551 -0.198607 0.257696
0.432408 -0.413462 0.004182
0.4551 0.394394 0.292392
0.4551 0.431438 -0.278215
0.432408 0.516591 0.058071
0.4551 -0.353814 0.337935
0.432408 -0.476306 -0.130872
0.4551 -0.296975 -0.20231
0.4551 0.709316 0.181305
0.432408 0.209684 0.143401
0.432408 0.690436 -0.071501
0.432408 0.157821 -0.353306
0.432408 0.111167 0.189509
0.4551 0.072326 -0.403241
0.4551 -0.180618 0.031966
0.432408 0.049476 0.222805
0.432408 0.130525 0.073303
0.4551 0.489501 -0.251656
0.4551 -0.195409 -0.12512
0.4551 0.669556 0.071289
0.432408 0.267263 -0.305719
0.4551 -0.137476 -0.133296
0.4551 0.638912 0.252551
0.432408 0.074928 -0.004709
0.432408 0.542623 0.162594
0.432408 -0.308331 0.073718
0.432408 -0.329165 -0.317138
0.432408 -0.429667 -0.312652
0.432408 0.47742 -0.396758
0.4551 -0.085744 0.252306
0.4551 -0.19147 0.296319
0.4551 -0.458483 0.214
0.4551 0.691635 0.260283
0.4551 0.364683 -0.364047
0.4551 0.114667 -0.401994
0.4551 0.641409 -0.156003
0.432408 -0.277782 -0.217308
0.4551 -0.023697 0.337317
0.4551 -0.039231 0.251984
0.4551 0.21255 0.074902
0.4551 -0.300649 0.202615
0.4551 0.424965 0.254161
0.432408 0.48338 0.155142
0.4551 -0.543874 -0.135741
0.4551 0.407425 0.108474
0.4551 0.158633 -0.201223
0.432408 0.28072 -0.191112
0.4551 -0.263944 -0.166042
0.432408 -0.550298 0.282115
0.432408 0.103647 -0.132096
0.432408 -0.485815 -0.254403
0.4551 0.688994 -0.107795
0.4551 0.515478 0.201154
0.432408 0.409157 -0.268391
0.4551 0.61699 -0.259985
0.4551 0.595555 0.294908
0.432408 0.000199 -0.30506
0.432408 -0.416235 0.231597
0.432408 0.31039 -0.267025
0.4551 0.106414 -0.338056
0.4551 0.481345 0.183022
0.4551 0.382374 -0.042372
0.4551 0.270876 0.308335
0.4551 -0.054463 0.05841
0.4551 -0.371626 -0.284426
0.4551 0.319256 -0.237091
0.432408 0.644947 -0.353631
0.4551 0.00634 -0.229649
0.4551 0.023615 -0.3976
0.4551 -0.173661 -0.20457
0.432408 0.408516 0.011801
0.4551 -0.271269 -0.244649
0.432408 -0.114008 0.228703
0.432408 -0.485906 -0.056452
0.4551 -0.10983 -0.257718
0.4551 -0.509517 0.053045
0.4551 0.424856 -0.08172
0.4551 0.591607 -0.013165
0.432408 -0.365532 -0.151451
0.4551 -0.612269 -0.356628
0.432408 -0.02886 -0.178707
0.432408 -0.434661 -0.280738
0.4551 -0.151939 -0.163104
0.432408 -0.150898 0.232146
0.4551 0.545016 0.072702
0.4551 -0.296467 -0.027579
0.4551 0.091964 0.123699
0.432408 0.018665 -0.249024
0.432408 -0.625866 0.155511
0.4551 0.288195 0.16387
0.432408 0.659683 0.159914
0.432408 0.515975 -0.304825
0.432408 -0.038219 0.161528
0.432408 0.097646 -0.064519
0.4551 -0.181862 -0.326556
0.432408 -0.345626 0.030696
0.4551 -0.595414 -0.217026
0.4551 0.326306 0.272303
0.432408 0.418612 -0.175117
0.432408 0.389216 -0.219185
0.4551 -0.181067 0.109423
0.4551 0.402369 0.065316
0.4551 -0.200601 0.07625
0.4551 -0.449132 0.27851
0.4551 -0.255843 -0.344896
0.432408 0.686662 0.017238
0.4551 0.573106 -0.393358
0.432408 -0.599975 -0.293112
0.4551 0.467001 -0.359509
0.4551 -0.4072 -0.172025
0.4551 -0.534299 0.23931
0.4551 -0.4381 -0.076089
0.4551 -0.395755 0.245419
0.4551 -0.393958 -0.377033
0.432408 0.335934 -0.20381
0.432408 0.231232 -0.003446
0.432408 -0.130816 -0.292374
0.432408 0.697329 0.092885
0.432408 0.181233 -0.147599
0.432408 -0.268707 0.257935
0.4551 -0.12702 -0.347916
0.432408 0.054636 -0.105032
0.432408 0.189834 0.356678
0.4551 0.368444 0.143454
0.4551 -0.17505 -0.396536
0.4551 -0.258491 0.171359
0.4551 0.148835 0.117927
0.4551 0.219527 -0.078988
0.432408 -0.525012 -0.418296
0.432408 -0.187517 -0.090234
0.4551 -0.066878 -0.10993
0.4551 -0.555721 -0.034548
0.4551 0.636315 -0.291992
0.432408 -0.466968 -0.226354
0.432408 0.520656 -0.368254
0.432408 -0.116941 0.146955
0.4551 0.076411 0.266416
0.4551 0.433048 -0.019707
0.432408 -0.153465 -0.008067
0.4551 0.146221 -0.079554
0.432408 -0.54471 -0.075097
0.4551 -0.13679 0.17248
0.4551 0.502519 0.340018
0.4551 0.69468 0.351437
0.432408 -0.615234 -0.017832
0.432408 -0.185188 0.14187
0.4551 -0.135951 0.136263
0.4551 0.594202 -0.324073
0.4551 -0.09735 0.117769
0.43323 -0.415785 -0.424388
0.432408 -0.42036 -0.093367
0.432408 0.674526 -0.269785
0.432408 -0.172169 -0.05061
0.4551 0.581528 0.06971
0.433036 -0.632996 0.300597
0.4551 -0.249462 0.010478
0.432408 0.659058 0.110951
0.432408 -0.392677 -0.215383
0.432408 0.448362 -0.383063
0.4551 -0.333757 0.18621
0.432408 0.060271 0.042754
0.4551 0.358973 -0.323226
0.4551 -0.10699 -0.098934
0.4551 -0.218335 -0.395321
0.4551 0.060358 0.351688
0.432408 0.185542 -0.017566
0.432408 -0.27338 -0.091972
0.4551 -0.499374 -0.103318
0.4551 -0.256639 0.310914
0.432408 -0.359454 -0.031307
0.432408 0.420531 0.229164
0.432408 0.380193 -0.317478
0.432408 0.453212 0.068391
0.4551 0.450062 0.188107
0.4551 0.290005 -0.39047
0.4551 0.027694 0.116463
0.4551 0.100172 0.067623
0.432408 -0.516663 0.078411
0.432408 -0.269525 -0.387445
0.4551 0.316094 0.142141
0.432408 0.139409 -0.280793
0.445127 0.728516 -0.036435
0.432408 -0.613063 0.058519
0.452621 0.728516 -0.255485
0.4551 0.520912 -0.18865
0.432408 0.608875 0.349924
0.432408 -0.069518 -0.362311
0.4551 0.360222 0.036373
0.4551 0.602873 -0.084692
0.432408 -0.105178 -0.211066
0.432408 -0.43211 -0.129901
0.4551 -0.504214 0.128756
0.4551 -0.215603 -0.254749
0.432408 0.610516 0.106555
0.4551 -0.547047 0.070152
0.432408 0.426617 0.050186
0.432408 -0.235365 -0.189552
0.432408 -0.046182 -0.101158
0.432408 0.538852 -0.028456
0.432408 -0.569408 -0.259267
0.4551 -0.507424 -0.024491
0.4551 0.209732 0.239868
0.432408 -0.076003 -0.164122
0.4551 0.292388 -0.319546
0.432408 -0.561674 -0.346198
0.4551 -0.144449 0.012251
0.432408 0.290624 0.239164
0.4551 0.419313 -0.390908
0.432408 0.066162 -0.056789
0.4551 0.61195 0.052704
0.432408 0.186855 0.12142
0.432408 -0.117962 0.056336
0.4551 0.059127 0.318522
0.432408 0.220738 -0.13942
0.432408 -0.628396 -0.334227
0.432408 0.710219 -0.182853
0.432408 0.246493 -0.029818
0.432408 -0.120405 0.296951
0.432408 0.577522 -0.04215
0.432408 -0.150721 0.262151
0.432408 0.527475 -0.099702
0.432408 0.03798 -0.222318
0.4551 0.491999 -0.006602
0.4551 0.355908 -0.020416
0.432408 0.203077 0.057852
0.4551 0.310737 0.246792
0.432408 0.040645 0.006949
0.4551 0.109667 -0.151889
0.4551 -0.513907 0.187802
0.4551 -0.331649 -0.255355
0.432408 0.568042 0.178084
0.432408 -0.108918 -0.121525
0.432408 -0.142089 -0.383801
0.4551 0.700013 -0.237083
0.4551 -0.040603 -0.209164
0.4551 0.642676 -0.064266
0.432408 -0.308334 0.017293
0.4551 -0.541619 0.025768
0.4551 -0.464405 0.132492
0.432408 0.503385 0.126702
0.432408 -0.595854 -0.185031
0.4551 -0.239466 0.06009
0.4551 -0.409251 0.056738
0.4551 -0.377546 -0.16692
0.432408 -0.588813 0.097149
0.4551 -0.045579 -0.326655
0.4551 0.593556 0.337101
0.432408 -0.170219 -0.236533
0.4551 0.608676 0.159255
0.4551 0.491727 -0.108537
0.4551 -0.589639 -0.156668
0.4551 0.549837 -0.04967
0.4551 -0.09043 0.071674
0.4551 0.46333 -0.118167
0.4551 0.530953 -0.247588
0.432408 0.636213 0.333253
0.432408 -0.03331 0.054969
0.432408 -0.594586 -0.041568
0.4551 0.415324 0.18875
0.4551 0.219598 0.12753
0.4551 -0.386688 0.13179
0.4551 0.203989 -0.044363
0.4551 -0.532514 -0.228747
0.4551 -0.348334 0.134458
0.432408 0.532675 0.027007
0.4551 0.214947 -0.163365
0.432408 -0.108008 -0.411339
0.432408 -0.281625 -0.05222
0.4551 -0.210384 -0.337007
0.4551 0.107664 -0.256158
0.4551 0.053082 -0.011074
0.4551 0.05027 0.166014
0.432408 -0.132545 -0.173268
0.4551 -0.220628 0.128477
0.4551 -0.474347 0.35062
0.432408 0.576942 -0.298706
0.4551 -0.227044 -0.363015
0.432408 0.075892 -0.142025
0.4551 0.141209 0.238506
0.432408 -0.485007 0.030667
0.432408 -0.379779 0.306076
0.4551 0.38847 0.165619
0.4551 0.024498 0.050429
0.4551 -0.574931 -0.296578
0.432408 0.194068 -0.347975
0.432408 0.617167 0.198266
0.4551 0.16629 0.021922
0.444243 0.32197 -0.424388
0.4551 -0.470635 -0.003651
0.4551 0.607815 0.256069
0.432408 -0.324853 -0.274378
0.432408 -0.158399 0.096578
0.432408 0.063139 0.296131
0.432408 0.080207 0.35238
0.4551 0.643923 -0.122763
0.432408 0.665673 -0.022982
0.4551 0.047956 -0.207108
0.4551 0.348815 0.100553
0.432408 -0.43438 0.33594
0.4551 0.474189 -0.069234
0.4551 0.650928 -0.008372
0.4551 0.396163 0.247989
0.432408 0.096971 0.237095
0.4551 -0.425317 0.301231
0.4551 0.118674 0.045569
0.4551 -0.089796 -0.202322
0.432408 -0.122242 0.331933
0.432408 0.478824 -0.312711
0.432408 0.561225 -0.185582
0.4551 -0.004898 0.049712
0.4551 0.510153 0.16348
0.4551 -0.534343 -0.053656
0.432408 -0.30004 0.113585
0.4551 0.019598 0.017155
0.4551 -0.45025 -0.272762
0.432408 0.696863 0.323903
0.432408 -0.297087 -0.010126
0.432408 0.370162 -0.147018
0.432408 0.200201 -0.225258
0.4551 0.696551 -0.03792
0.432408 0.282377 -0.27269
0.432408 0.234802 0.096455
0.432408 -0.241202 -0.257506
0.432408 0.150335 0.357193
0.432408 0.44234 -0.415941
0.432408 -0.018357 0.024047
0.432408 -0.156696 -0.194818
0.432408 0.723078 -0.09617
0.4551 -0.119102 0.025862
0.4551 -0.608413 -0.064672
0.4551 0.434314 -0.227601
0.432408 0.050679 0.337609
0.432408 0.443452 -0.290321
0.4551 0.39413 0.338679
0.432408 -0.585797 0.271715
0.432408 0.166356 0.164961
0.432408 0.127082 0.220208
0.432408 -0.040786 -0.134767
0.432408 -0.05713 -0.21267
0.4551 -0.618983 -0.245975
0.4551 -0.069174 0.119992
0.432408 -0.510087 -0.33165
0.4551 0.562948 0.289687
0.432408 -0.626611 -0.108178
0.4551 -0.469975 -0.146766
0.4551 -0.629129 0.200645
0.4551 0.38474 -0.39172
0.432408 0.489999 -0.286868
0.4551 0.46559 0.031555
0.4551 0.358862 -0.104104
0.4551 -0.506422 -0.272707
0.432408 0.187327 0.221303
0.453006 -0.632996 0.354235
0.4551 0.430093 -0.193646
0.448258 -0.632996 0.256697
0.432408 -0.044214 -0.258375
0.4551 -0.254264 0.210212
0.432408 -0.441085 0.050786
0.4551 -0.408028 -0.072656
0.4551 0.327559 0.175662
0.432408 0.176696 -0.266027
0.4551 0.226342 -0.379135
0.4551 -0.609573 -0.131523
0.4551 0.275121 0.339074
0.432408 0.6992 -0.360984
0.432408 -0.164737 0.199268
0.4551 -0.474689 -0.352138
0.4551 0.294582 -0.418383
0.4551 -0.071298 -0.024659
0.4551 0.236833 0.229063
0.432408 0.147362 -0.122055
0.432408 0.217732 0.220879
0.4551 0.174225 -0.162007
0.432408 0.422601 -0.031825
0.432408 0.221659 -0.403813
0.432408 -0.482121 0.216058
0.443222 0.728516 -0.347584
0.4551 0.668884 -0.371961
0.432408 0.136036 -0.382906
0.432408 0.134557 0.045203
0.432428 0.728516 -0.212492
0.4551 0.298987 0.280779
0.4551 0.052294 -0.04534
0.4551 0.199457 -0.297881
0.432408 -0.29818 -0.140946
0.432408 -0.509225 -0.041732
0.432408 0.717908 0.232232
0.4551 -0.052498 -0.381599
0.4551 -0.453519 0.096153
0.432408 0.081751 0.189298
0.432408 0.107402 -0.322555
0.432408 -0.45825 -0.06287
0.4551 -0.501502 0.081717
0.4551 0.012279 -0.086175
0.4551 -0.221004 0.313941
0.4551 -0.474496 -0.320774
0.4551 -0.162532 -0.263211
0.432408 -0.072077 0.137425
0.432408 -0.37225 -0.181378
0.4551 0.335433 0.312552
0.432408 0.228357 -0.21179
0.432408 0.43293 0.138505
0.4551 -0.038711 -0.026384
0.432408 -0.246097 -0.406101
0.432408 -0.582924 -0.233582
0.432408 -0.01626 0.110011
0.4551 -0.026699 -0.148436
0.4551 0.462696 -0.279744
0.4551 -0.1074 0.289086
0.432408 0.133784 -0.007887
0.432408 0.649848 -0.298886
0.432408 -0.160172 0.16214
0.4551 -0.359648 -0.091858
0.4551 -0.161596 0.242835
0.432408 -0.608059 0.134864
0.432408 -0.268711 -0.006316
0.4551 0.540511 -0.395878
0.432408 -0.550076 0.128947
0.4551 -0.342216 -0.221275
0.4551 0.492941 0.066476
0.4551 -0.332024 -0.40846
0.432408 0.647949 0.264533
0.4551 -0.255435 -0.021477
0.4551 0.149339 -0.340942
0.4551 0.436654 -0.361179
0.432408 0.294822 0.130272
0.432408 0.43645 0.291479
0.432408 -0.553946 -0.160438
0.432408 0.515292 0.097946
0.4551 -0.413938 -0.126223
0.432408 -0.301451 -0.409365
0.4551 0.292777 -0.101946
0.4551 0.0933 0.322749
0.432408 -0.352492 0.292197
0.4551 0.098085 -0.094149
0.4551 0.633629 -0.092618
0.4551 0.67419 -0.135088
0.432408 0.388859 -0.055662
0.432408 0.139757 0.190332
0.432408 0.201218 0.292476
0.432408 -0.453996 -0.398104
0.4551 -0.487237 -0.173354
0.4551 0.522777 -0.215626
0.432408 0.215395 0.024292
0.432408 -0.592133 -0.351415
0.432408 0.515754 -0.124051
0.432408 -0.380971 0.18788
0.4551 -0.321984 0.078916
0.4551 0.585452 -0.157894
0.4551 0.646887 0.323316
0.4551 -0.325464 -0.298793
0.4551 -0.626624 -0.210151
0.432408 0.548327 0.329789
0.432408 0.059361 -0.422816
0.432408 0.465561 0.286832
0.4551 -0.345107 0.230203
0.432408 0.669298 -0.16587
0.4551 0.375257 0.006845
0.432408 0.026279 -0.295664
0.432408 0.427575 -0.129235
0.4551 0.611767 -0.182599
0.4551 0.17388 -0.35993
0.4551 -0.272602 -0.309783
0.432408 0.240962 0.274114
0.432408 -0.445987 0.264529
0.432408 0.025854 0.066971
0.432408 -0.213174 -0.366516
0.432408 -0.149206 -0.323246
0.4551 0.266321 -0.106253
0.4551 -0.188676 0.232825
0.4551 0.598523 0.015224
0.432408 0.132049 -0.205759
0.4551 0.663929 0.263289
0.432408 -0.313037 -0.181815
0.432408 -0.196109 -0.150798
0.4551 0.48225 0.271694
0.4551 0.269684 0.246676
0.432408 -0.044937 0.266378
0.432408 0.32486 0.246616
0.4551 -0.148536 0.311983
0.432408 0.003188 0.244069
0.4551 0.046639 -0.292931
0.4551 0.072639 0.150483
0.432408 -0.509357 -0.210511
0.4551 0.374364 0.267471
0.432408 -0.186549 -0.257594
0.432408 -0.506033 -0.142193
0.432408 -0.343065 -0.058652
0.4551 0.37276 -0.130725
0.432408 -0.479238 0.092594
0.4551 -0.274939 -0.131831
0.4551 0.577495 0.043478
0.432408 0.484928 0.197888
0.432408 -0.312852 0.18102
0.4551 -0.288491 -0.35982
0.4551 -0.563973 0.14869
0.432408 -0.540401 -0.364077
0.432408 0.248357 0.152373
0.432408 0.507237 -0.18782
0.432408 -0.102035 -0.35215
0.432408 0.720457 0.200776
0.432408 -0.092311 -0.253977
0.432408 -0.454989 0.185291
0.4551 -0.183537 -0.423716
0.4551 -0.568922 0.29361
0.432408 0.328421 -0.147676
0.4551 0.515959 0.271007
0.4551 -0.171437 0.173264
0.4551 -0.063369 0.232663
0.4551 -0.207953 0.202738
0.4551 0.579484 -0.21064
0.4551 -0.066485 -0.0522
0.432408 -0.518841 0.27201
0.4551 -0.530249 -0.011295
0.4551 -0.173896 -0.178224
0.4551 -0.011016 -0.067379
0.4551 -0.041261 -0.088712
0.432408 -0.625673 -0.182211
0.4551 -0.158384 -0.060679
0.4551 -0.433328 0.067289
0.432408 -0.398233 -0.115421
0.432408 -0.078095 0.066906
0.432408 0.304122 0.292921
0.4551 -0.438665 0.191183
0.4551 -0.296208 0.056714
0.432408 0.017278 -0.154148
0.432408 0.616551 -0.246816
0.4551 -0.069317 0.329271
0.432408 -0.423735 0.181211
0.432408 0.589114 -0.259099
0.4551 -0.163609 0.269127
0.4551 0.357455 -0.174349
0.432408 0.028728 0.27799
0.432408 0.302605 -0.342473
0.432408 0.468113 -0.42123
0.432408 -0.415577 0.121625
0.432408 -0.620576 -0.41837
0.4551 -0.380894 -0.064734
0.4551 0.241218 0.190293
0.432408 0.642981 0.302347
0.4551 -0.407405 -0.226984
0.432408 0.550471 0.292879
0.432408 0.727239 0.162197
0.4551 -0.596586 0.002896
0.4551 0.102745 -0.300471
0.4551 0.292217 0.226432
0.432408 -0.188094 -0.212094
0.4551 -0.080818 0.010779
0.4551 -0.332955 -0.164355
0.4551 0.395424 -0.09631
0.4551 0.440163 0.125569
0.432408 0.155752 -0.161189
0.4551 -0.250022 0.124076
0.4551 0.11054 0.159903
0.4551 0.125838 -0.172271
0.432408 0.27718 0.150179
0.4551 0.340854 -0.268957
0.4551 -0.238636 -0.269892
0.432408 -0.339152 -0.137097
0.432408 -0.170932 0.023865
0.4551 -0.545048 0.308473
0.4551 0.304974 0.003759
0.4551 -0.314141 -0.001938
0.432408 0.654164 0.239337
0.432408 -0.366201 0.245763
0.432408 -0.160435 -0.073739
0.4551 -0.174122 -0.351308
0.432408 0.032646 0.24253
0.4551 0.151794 0.151531
0.4551 0.19827 0.010436
0.432408 0.56438 0.021595
0.4551 -0.631968 -0.381047
0.432408 0.523471 -0.049206
0.4551 -0.559112 -0.205237
0.432408 -0.381269 0.010184
0.4551 0.498731 -0.275762
0.432408 -0.087561 0.022792
0.432408 -0.59437 0.169636
0.4551 -0.35778 0.032087
0.4551 -0.308112 0.029513
0.4551 -0.548833 0.269915
0.4551 -0.49466 0.152675
0.4551 0.333495 0.212787
0.4551 0.059627 -0.339487
0.432408 0.470193 0.131056
0.432408 -0.392538 -0.334503
0.432408 -0.26861 0.287963
0.432408 0.669735 0.282344
0.4551 -0.445554 -0.381404
0.432408 0.386023 -0.085625
0.4551 -0.405648 0.155122
0.4551 0.121974 -0.017792
0.4551 0.116219 0.255554
0.432408 0.632431 -0.125766
0.4551 0.716728 -0.165621
0.432408 0.685913 -0.2927
0.432408 -0.514103 -0.302173
0.4551 0.339998 -0.155675
0.432408 0.344933 0.089444
0.432408 0.619524 -0.00435
0.432408 -0.337838 -0.199964
0.453531 -0.600836 -0.424388
0.4551 0.690674 0.041428
0.432408 -0.182314 -0.342965
0.432408 -0.354006 0.159156
0.4551 0.551761 -0.079057
