-0.401849 0.745886 -0.236151
-0.432381 0.769253 0.119357
0.177707 0.769253 -0.106732
-0.197929 0.769253 -0.152853
0.043502 0.769253 -0.147448
-0.159774 0.769253 -0.027874
-0.530406 0.745886 -0.167205
-0.404576 0.769253 0.014169
-0.454196 0.769253 0.03158
0.464199 0.769253 -0.132871
0.147235 0.745886 -0.155455
-0.291902 0.769253 -0.00565
0.008629 0.769253 -0.187695
-0.191506 0.745886 0.007832
-0.466085 0.745886 0.064836
-0.520167 0.769253 0.254516
0.19868 0.769253 0.186527
0.309751 0.754166 -0.269311
0.003373 0.769253 0.013477
0.081388 0.745886 0.171376
0.288405 0.769253 0.214239
-0.51655 0.745886 -0.118159
-0.576726 0.761381 -0.125616
-0.108483 0.745886 0.078428
-0.221109 0.769253 -0.097601
-0.33575 0.769253 -0.225898
0.497649 0.745886 0.067542
-0.098047 0.745886 -0.027109
0.043045 0.745886 -0.120207
0.001981 0.769253 0.157337
0.334729 0.769253 -0.014799
0.398964 0.769253 -0.119934
-0.139142 0.769253 0.216845
0.078853 0.769253 -0.043907
0.228779 0.745886 0.097116
0.494832 0.769253 0.23019
0.237505 0.745886 0.25393
0.238671 0.745886 0.160722
-0.518399 0.745886 0.009887
0.108542 0.745886 -0.001873
0.113292 0.769253 -0.055746
-0.519047 0.769253 -0.070762
-0.254514 0.769253 -0.084686
-0.049367 0.745886 0.264109
0.172635 0.769253 -0.034271
0.465574 0.745886 0.178195
-0.075196 0.769253 0.073274
0.105045 0.769253 0.048522
0.434297 0.745886 0.141093
-0.488878 0.769253 -0.188502
0.36504 0.745886 -0.060582
0.396954 0.745886 0.067136
-0.015295 0.745886 -0.004953
0.264784 0.769253 0.25793
0.433714 0.745886 0.072471
-0.386441 0.769253 0.16684
0.224189 0.745886 -0.155544
-0.337913 0.769253 0.030632
-0.524889 0.745886 -0.268311
0.148246 0.769253 0.007444
-0.20174 0.769253 0.141323
-0.574798 0.745886 0.11039
0.078104 0.745886 -0.207708
0.249637 0.769253 -0.208082
-0.354669 0.769253 0.21481
-0.160268 0.769253 0.251695
-0.079075 0.745886 0.104562
0.257349 0.769253 -0.062887
-0.429739 0.745886 0.043847
0.219985 0.745886 -0.249161
-0.227746 0.745886 -0.197427
-0.043235 0.769253 -0.140497
-0.507438 0.769253 0.028062
-0.39925 0.745886 0.200011
-0.420422 0.745886 0.168915
-0.38194 0.769253 0.107875
-0.250907 0.745886 0.126943
-0.45429 0.745886 -0.180921
0.468676 0.769253 -0.09268
0.014748 0.745886 0.046988
0.199942 0.769253 -0.190924
-0.07153 0.769253 0.200279
-0.080053 0.745886 -0.111986
0.030288 0.745886 -0.033678
0.138185 0.769253 0.251291
-0.323937 0.769253 0.133422
-0.387129 0.769253 0.265874
0.324065 0.745886 0.25677
0.068312 0.769253 -0.128661
-0.460488 0.769253 0.212934
0.268484 0.769253 -0.142153
0.303458 0.745886 0.11404
-0.106208 0.745886 -0.159113
0.380781 0.745886 -0.000897
0.432578 0.769253 -0.17335
-0.526624 0.769253 -0.244772
0.290698 0.769253 0.170238
-0.514005 0.745886 0.076435
-0.098167 0.769253 -0.26541
0.160942 0.769253 0.143459
-0.200568 0.769253 -0.045384
0.173107 0.769253 0.106768
0.427072 0.745886 0.033583
-0.552637 0.769253 0.230446
0.362271 0.745886 0.265978
-0.450724 0.769253 0.251775
-0.38402 0.769253 -0.145252
-0.417845 0.745886 -0.058241
-0.365888 0.745886 0.092917
0.2515 0.769253 0.032912
-0.385073 0.769253 -0.103984
0.106373 0.745886 0.209483
-0.423551 0.769253 -0.257746
-0.456887 0.769253 0.182989
0.05219 0.745886 0.159283
-0.115552 0.769253 -0.103581
-0.289579 0.769253 0.033195
0.400239 0.750606 0.268121
0.303328 0.745886 -0.161114
-0.008729 0.745886 -0.142349
-0.312724 0.769253 0.190348
-0.177095 0.769253 0.186316
0.134365 0.769253 -0.193457
-0.031677 0.745886 -0.065718
0.035836 0.769253 0.082738
0.185511 0.745886 0.248218
-0.282274 0.765029 -0.269311
0.398308 0.745886 0.023161
0.469467 0.745886 -0.054806
-0.143316 0.769253 -0.064775
0.345117 0.769253 0.215172
0.464068 0.745886 0.120961
0.143995 0.769253 -0.026622
0.158577 0.745886 -0.182736
0.34083 0.769253 0.085046
-0.333493 0.745886 0.118251
0.175208 0.745886 0.162366
-0.080226 0.769253 -0.040057
-0.174813 0.757886 -0.269311
0.049092 0.745886 0.070466
-0.280086 0.745886 0.145036
0.347481 0.769253 -0.041121
0.262777 0.745886 -0.158784
-0.279577 0.745886 0.051439
-0.234298 0.745886 0.179679
-0.156446 0.745886 -0.111205
-0.547857 0.769253 0.151351
0.390971 0.769253 -0.21093
-0.036744 0.769253 -0.040965
0.334668 0.745886 -0.197487
-0.021578 0.745886 -0.188227
-0.270923 0.769253 0.192444
0.212445 0.769253 -0.143055
-0.306079 0.769253 -0.146308
-0.488082 0.769253 0.085064
0.306212 0.745886 -0.211549
0.345759 0.769253 0.128718
-0.142694 0.745886 -0.173179
-0.242452 0.769253 -0.150479
0.445125 0.745886 -0.039115
-0.446096 0.769253 -0.094902
0.011987 0.745886 0.139289
-0.471908 0.745886 0.147768
0.467129 0.745886 -0.18692
0.363237 0.745886 0.039637
-0.047216 0.745886 0.003996
-0.021635 0.769253 -0.120962
-0.273283 0.745886 -0.089099
-0.359536 0.769253 -0.206256
-0.530505 0.745886 0.05274
-0.097208 0.745886 -0.089012
-0.032771 0.769253 0.263335
0.425639 0.769253 0.224654
0.013894 0.769253 0.262843
0.196379 0.769253 -0.065695
-0.130595 0.745886 -0.078623
-0.485641 0.745886 -0.033903
-0.367809 0.745886 -0.097527
0.058681 0.745886 0.246601
-0.240794 0.745886 0.263662
-0.081277 0.769253 -0.167148
-0.427558 0.745886 -0.030579
-0.045979 0.769253 0.113798
0.134181 0.745886 0.015253
0.326409 0.745886 0.141859
0.166746 0.769253 -0.141731
-0.310456 0.762205 -0.269311
0.203501 0.745886 0.163139
-0.391023 0.769253 -0.248365
-0.032517 0.769253 0.1625
-0.519235 0.745886 0.181853
0.08225 0.745886 0.053104
-0.529214 0.745886 -0.195438
-0.2865 0.745886 -0.02355
-0.044972 0.769253 0.237398
0.400738 0.745886 -0.253727
0.29534 0.769253 0.003535
-0.22973 0.769253 -0.038443
0.14995 0.769253 0.220473
0.238138 0.745886 0.130631
-0.4822 0.769253 -0.237786
-0.181469 0.769253 -0.130068
-0.306939 0.769253 -0.031074
0.127022 0.745886 -0.099076
0.160814 0.745886 0.092673
-0.174152 0.769253 -0.238708
-0.399718 0.745886 -0.206354
0.409841 0.745886 -0.130882
-0.567528 0.769253 0.0233
0.3561 0.745886 -0.244153
-0.03876 0.769253 -0.008843
0.421081 0.769253 -0.217831
0.495688 0.769253 0.051439
0.128284 0.769253 -0.141873
0.198977 0.745886 -0.089476
-0.28136 0.769253 0.122152
0.260294 0.769253 -0.033847
0.056906 0.745886 0.131903
-0.267473 0.745886 0.089034
0.330027 0.769253 -0.154841
0.059215 0.745886 -0.034416
-0.54648 0.769253 0.093453
-0.205123 0.745886 -0.016301
0.109936 0.757791 -0.269311
-0.319932 0.769253 0.004507
0.238977 0.769253 0.086394
-0.141841 0.745886 -0.208153
-0.141163 0.769253 -0.15466
-0.22119 0.745886 0.208789
0.508874 0.745886 -0.103415
0.270815 0.745886 -0.124472
-0.451584 0.769253 -0.195219
0.484086 0.745886 0.201867
0.277204 0.769253 0.076361
0.487987 0.745886 -0.079488
0.380817 0.769253 -0.083999
0.400187 0.745886 0.189363
-0.202589 0.745886 -0.166408
0.41081 0.745886 -0.06203
-0.44172 0.769253 -0.137182
-0.131211 0.769253 0.2499
-0.230841 0.769253 -0.123094
0.160576 0.745886 -0.129125
0.472688 0.745886 -0.230267
-0.493226 0.745886 0.042397
-0.541646 0.745886 0.208641
-0.42876 0.769253 -0.217994
-0.114877 0.745886 0.2464
-0.51044 0.745886 0.117793
0.055123 0.745886 -0.256374
-0.517195 0.769253 -0.170625
0.371514 0.745886 -0.190264
-0.362478 0.769253 -0.179389
0.232513 0.769253 0.055218
0.184919 0.769253 0.025195
-0.220549 0.769253 0.117858
-0.051674 0.745886 0.048662
-0.317123 0.745886 -0.208045
0.312117 0.745886 0.016835
-0.364931 0.769253 0.079956
0.187737 0.745886 0.193372
-0.056105 0.760037 -0.269311
0.00946 0.769253 0.197795
0.281167 0.769253 -0.083983
0.489127 0.769253 -0.006861
-0.022579 0.769253 -0.206841
-0.173287 0.745886 -0.01159
0.401347 0.745886 0.239133
0.481252 0.745886 -0.263934
0.36945 0.769253 -0.26798
0.169617 0.746485 -0.269311
0.276394 0.745886 0.263581
-0.352137 0.745886 -0.268518
-0.317768 0.769253 -0.120444
-0.195127 0.745886 0.221649
-0.050284 0.769253 0.140056
0.312367 0.745886 0.178934
0.122541 0.745886 0.104162
-0.18386 0.769253 -0.003376
-0.033802 0.769253 -0.241446
0.233789 0.745886 0.221124
0.358108 0.745886 -0.027555
0.003623 0.769253 0.051675
0.186642 0.769253 -0.245574
0.388128 0.769253 -0.148938
0.307766 0.769253 0.03423
-0.023691 0.769253 0.205552
-0.55404 0.769253 -0.083756
0.20481 0.745886 0.075738
-0.404133 0.745886 0.134977
0.099729 0.769253 0.087139
-0.257615 0.745886 -0.259415
-0.415292 0.745886 0.068822
0.047026 0.769253 0.004762
-0.221918 0.745886 -0.053634
0.221042 0.769253 0.212701
0.288494 0.769253 -0.267936
-0.294116 0.769253 0.210266
-0.273052 0.769253 -0.232409
-0.292672 0.745886 -0.163177
-0.298072 0.769253 -0.061886
0.444808 0.769253 -0.081962
-0.376208 0.745886 0.242682
-0.270015 0.769253 -0.063801
-0.56148 0.745886 0.075787
0.265984 0.745886 0.066834
-0.073188 0.745886 0.003351
-0.565204 0.769253 0.128623
0.200696 0.769253 -0.013034
-0.056218 0.769253 0.025394
-0.460676 0.769253 0.106182
-0.360295 0.745886 0.164704
-0.268399 0.745886 0.203184
0.021994 0.769253 0.111877
0.222476 0.769253 -0.17466
-0.08644 0.745886 0.221114
-0.10744 0.745886 0.043714
0.35937 0.769253 0.189098
-0.525349 0.769253 -0.106514
-0.560033 0.745886 -0.179522
0.455519 0.769253 0.18191
-0.521425 0.769253 0.139688
-0.363741 0.769253 0.126018
-0.013878 0.745886 0.246713
0.238375 0.745886 0.037402
-0.179502 0.745886 0.116813
0.358156 0.769253 -0.214257
-0.297389 0.769253 0.102152
-0.111868 0.769253 0.142965
0.391671 0.745886 -0.11235
0.028067 0.745886 -0.0746
-0.112002 0.769253 0.189198
-0.00644 0.745886 0.023785
0.247189 0.745886 -0.221298
-0.494987 0.769253 0.228629
0.509822 0.75451 -0.00975
0.350931 0.745886 0.231226
0.266118 0.769253 0.138823
0.101312 0.769253 -0.114491
-0.375462 0.769253 -0.048556
0.033388 0.745886 -0.148515
-0.564268 0.754605 0.268121
0.093169 0.769253 0.114631
-0.213094 0.767218 0.268121
0.107118 0.745886 0.255437
-0.226558 0.769253 0.160652
-0.475506 0.769253 -0.144877
0.453461 0.769253 0.043857
0.123313 0.769253 -0.011941
-0.315673 0.745886 0.231704
-0.373198 0.769253 0.028293
0.33558 0.745886 -0.063106
-0.165294 0.769253 0.078289
0.081621 0.769253 0.233975
-0.500163 0.745886 -0.220766
0.189489 0.769253 0.065865
-0.204356 0.745886 -0.226909
-0.462238 0.745886 -0.0151
0.469991 0.769253 -0.023202
-0.121829 0.745886 -0.189051
-0.556637 0.769253 -0.018288
-0.150226 0.769253 -0.197176
-0.34953 0.745886 0.203404
-0.440051 0.745886 -0.156878
-0.043652 0.769253 -0.109285
-0.530652 0.769253 0.18658
-0.237274 0.745886 -0.227778
0.132745 0.769253 -0.0713
0.263042 0.745886 0.235242
0.181349 0.745886 -0.115409
-0.517141 0.745886 -0.054329
-0.100716 0.769253 -0.196113
-0.321478 0.745886 -0.035108
-0.42792 0.769253 0.165086
0.22575 0.745886 -0.184106
0.000678 0.745886 -0.089576
-0.406132 0.769253 0.0988
0.118532 0.769253 0.163184
-0.326111 0.769253 0.079401
0.135987 0.745886 -0.025965
0.461454 0.745886 -0.095945
0.286209 0.745886 -0.249274
0.073514 0.769253 0.033446
-0.247825 0.745886 0.157868
0.326322 0.769253 -0.244515
0.449644 0.745886 0.258068
0.482576 0.769253 0.134257
-0.417304 0.769253 -0.075289
0.089909 0.745886 -0.232019
-0.570438 0.745886 -0.257708
0.275455 0.745886 0.093614
-0.267928 0.769253 0.044576
0.069053 0.745886 -0.121612
0.467773 0.769253 -0.240795
0.437533 0.745886 0.110787
-0.05642 0.745886 -0.057674
-0.331057 0.745886 0.03406
-0.284582 0.769253 -0.199087
0.036216 0.769253 -0.036503
-0.393389 0.745886 -0.063626
-0.576726 0.746942 0.209424
-0.324454 0.769253 -0.203252
0.077499 0.769253 0.16637
0.264305 0.769253 0.210039
-0.003535 0.752562 0.268121
0.3841 0.745886 -0.075434
-0.175784 0.745886 -0.075905
-0.034735 0.745886 -0.133315
0.396725 0.745886 0.129797
-0.519635 0.769253 0.004389
0.324673 0.769253 -0.131175
-0.52375 0.745886 -0.020325
0.313332 0.745886 0.085595
0.297936 0.769253 -0.129723
0.212263 0.769253 -0.119122
-0.509493 0.745886 0.209166
-0.173945 0.769253 -0.152734
0.275701 0.769253 0.052536
-0.198939 0.769253 0.091674
0.483979 0.745886 0.006749
-0.016362 0.769253 -0.000285
-0.285128 0.769253 0.261536
-0.240419 0.745886 -0.09992
0.223378 0.745886 0.003994
0.272833 0.769253 0.232277
0.027676 0.769253 0.16735
0.158212 0.769253 -0.232077
-0.022249 0.745886 -0.239716
-0.543369 0.769253 -0.060375
0.370997 0.769253 -0.044169
0.242157 0.769253 0.158719
-0.114418 0.745886 0.127523
-0.068669 0.745886 -0.232652
0.026999 0.745886 -0.225032
-0.460448 0.769253 0.154679
-0.065428 0.745886 0.238811
-0.011045 0.745886 0.220055
-0.571066 0.769253 -0.14715
0.117965 0.745886 0.134949
-0.261748 0.745886 0.246952
-0.442685 0.745886 0.067053
-0.177707 0.745886 0.026848
-0.234743 0.745886 0.073141
-0.548064 0.745886 0.005989
0.058003 0.769253 0.097433
-0.387803 0.769253 -0.002225
0.265142 0.745886 0.125551
-0.110262 0.769253 0.078765
-0.497235 0.769253 -0.080954
-0.013251 0.745886 0.078103
0.083348 0.745886 0.205208
-0.254283 0.745886 -0.186087
0.235161 0.769253 -0.137508
0.244293 0.769253 -0.016818
0.409307 0.769253 -0.018643
0.465767 0.745886 0.058161
-0.550308 0.769253 0.039881
-0.116364 0.769253 -0.164183
-0.477481 0.769253 0.031686
0.335049 0.745886 -0.089407
-0.477961 0.745886 -0.092057
-0.407091 0.745886 -0.091376
-0.205726 0.769253 -0.022815
0.059198 0.769253 -0.075277
0.504187 0.745886 -0.260891
0.148963 0.745886 0.062156
-0.350596 0.745886 -0.14995
0.29188 0.745886 -0.115153
-0.037421 0.769253 0.041852
0.509822 0.76752 0.204879
0.301654 0.745886 0.261829
-0.463841 0.769253 -0.164669
0.228481 0.745886 -0.076296
0.364267 0.745886 0.01671
-0.406908 0.769253 -0.146599
-0.307972 0.745886 0.016607
0.439043 0.769253 -0.10629
-0.284024 0.769253 0.152272
0.3486 0.769253 0.058047
-0.32151 0.745886 0.065278
0.124631 0.769253 0.060291
-0.037814 0.745886 0.148806
0.128407 0.745886 -0.141585
-0.153092 0.745886 0.072041
-0.342471 0.745886 -0.0746
0.050165 0.769253 0.239952
-0.316117 0.757122 0.268121
-0.208016 0.745886 -0.071699
-0.107167 0.769253 -0.052119
-0.431713 0.745886 -0.183923
0.505267 0.745886 0.188067
-0.012897 0.745886 0.174282
-0.388749 0.769253 -0.167488
0.005882 0.745886 0.188392
0.406495 0.769253 0.184429
0.188511 0.769253 -0.135469
-0.298157 0.745886 0.17631
-0.032412 0.745886 0.063412
0.021651 0.745886 -0.112998
-0.507755 0.769253 0.157589
-0.05988 0.765809 0.268121
0.448017 0.76919 -0.269311
0.239329 0.769253 -0.041871
-0.055098 0.769253 0.18501
0.341859 0.745886 0.032741
0.216319 0.769253 0.172697
-0.497168 0.745886 -0.129353
-0.222928 0.745886 0.231057
0.407296 0.745886 0.002764
-0.018822 0.745886 -0.267119
-0.410248 0.630183 -0.269311
0.011598 0.63725 -0.251786
0.235382 0.66017 -0.269311
-0.50409 0.671323 -0.269311
0.324937 0.713492 -0.269311
-0.197922 0.686881 -0.251786
0.046741 0.705498 -0.269311
0.168424 0.702685 -0.269311
-0.410071 0.699302 -0.251786
-0.175348 0.629053 -0.267109
0.250046 0.720279 -0.269311
-0.352474 0.710006 -0.269311
-0.078595 0.745659 -0.269311
0.071017 0.658736 -0.269311
-0.461777 0.714795 -0.269311
-0.146586 0.695369 -0.269311
-0.408961 0.745457 -0.269311
0.339698 0.63964 -0.269311
-0.097932 0.697149 -0.251786
-0.040166 0.646527 -0.269311
0.081849 0.731764 -0.251786
0.410068 0.693563 -0.269311
-0.445575 0.664076 -0.269311
0.020096 0.735034 -0.251786
0.125581 0.734928 -0.269311
0.482213 0.675154 -0.269311
-0.212776 0.643324 -0.269311
-0.299914 0.629053 -0.255683
-0.333463 0.663018 -0.269311
-0.283877 0.714004 -0.269311
-0.242157 0.678726 -0.269311
-0.081748 0.655843 -0.269311
0.198985 0.729657 -0.269311
0.446013 0.703968 -0.269311
0.282861 0.629053 -0.266867
0.099039 0.629053 -0.265375
-0.506657 0.631268 -0.269311
-0.172299 0.723796 -0.269311
0.360831 0.732756 -0.269311
0.371583 0.631356 -0.251786
0.043471 0.639116 -0.269311
0.497813 0.716073 -0.269311
-0.215089 0.708938 -0.269311
-0.376793 0.723096 -0.251786
0.22692 0.629053 -0.265329
0.460111 0.629053 -0.262392
-0.070905 0.699201 -0.269311
0.421316 0.719855 -0.251786
0.101583 0.657498 -0.251786
-0.018011 0.629053 -0.254631
0.137865 0.672674 -0.251786
-0.479304 0.645415 -0.269311
-0.105467 0.731476 -0.269311
-0.548203 0.699432 -0.269311
0.09326 0.681654 -0.269311
-0.503581 0.709877 -0.269311
-0.279242 0.65735 -0.251786
-0.143095 0.651278 -0.269311
-0.576726 0.659002 -0.260386
-0.433671 0.710405 -0.269311
0.320751 0.691704 -0.251786
-0.324476 0.636279 -0.269311
0.149348 0.654047 -0.269311
-0.43648 0.745886 -0.269146
-0.422118 0.676357 -0.269311
0.101397 0.724255 -0.269311
-0.309559 0.694701 -0.269311
-0.53941 0.724097 -0.269311
-0.485322 0.666194 -0.251786
0.014343 0.673527 -0.269311
0.308798 0.629053 -0.264658
-0.195247 0.735996 -0.269311
-0.126927 0.71695 -0.269311
0.380491 0.713703 -0.269311
0.188284 0.638298 -0.269311
-0.024423 0.656807 -0.251786
0.207213 0.670317 -0.269311
0.322997 0.658839 -0.269311
0.064433 0.726057 -0.269311
0.361897 0.711198 -0.251786
0.443384 0.661467 -0.269311
0.257258 0.637625 -0.269311
-0.188866 0.705375 -0.269311
0.473021 0.698095 -0.269311
-0.520441 0.651469 -0.269311
-0.088213 0.679275 -0.269311
-0.110254 0.676291 -0.251786
0.153846 0.694515 -0.251786
-0.400483 0.652108 -0.269311
0.382775 0.743074 -0.269311
-0.328706 0.722358 -0.269311
0.274391 0.649834 -0.251786
0.401963 0.671319 -0.269311
0.046926 0.681887 -0.269311
-0.483352 0.721655 -0.251786
0.229843 0.690612 -0.269311
-0.351789 0.629053 -0.266758
-0.519288 0.708123 -0.251786
-0.298018 0.662702 -0.269311
-0.434621 0.64408 -0.269311
-0.403006 0.711825 -0.269311
-0.524607 0.680783 -0.269311
-0.014784 0.646352 -0.269311
0.296907 0.674156 -0.269311
-0.20074 0.673175 -0.269311
0.264269 -0.720745 -0.269311
-0.464337 -0.686795 -0.251786
0.448111 -0.717099 -0.251786
-0.221333 -0.723464 -0.251786
-0.068399 -0.746804 -0.251786
-0.300917 -0.725312 -0.269311
0.092594 -0.753152 -0.269311
0.214846 -0.777932 -0.251786
-0.04092 -0.687357 -0.269311
0.32077 -0.743176 -0.251786
0.484523 -0.752737 -0.269311
-0.276166 -0.769871 -0.251786
-0.267086 -0.68697 -0.269311
-0.077867 -0.796194 -0.269311
0.308403 -0.680213 -0.253832
-0.087324 -0.699113 -0.269311
-0.025717 -0.775259 -0.269311
0.213023 -0.72932 -0.269311
0.496206 -0.69431 -0.269311
-0.540358 -0.726164 -0.251786
-0.179886 -0.708161 -0.269311
-0.139573 -0.689979 -0.269311
0.057496 -0.733637 -0.251786
-0.342698 -0.704478 -0.269311
0.39226 -0.706898 -0.269311
-0.39184 -0.76593 -0.251786
-0.488652 -0.717176 -0.269311
-0.423563 -0.705673 -0.251786
-0.47342 -0.772325 -0.251786
0.18006 -0.791343 -0.269311
0.412161 -0.795609 -0.269311
0.358367 -0.764796 -0.269311
0.348166 -0.721415 -0.269311
-0.425724 -0.797046 -0.255669
0.121591 -0.705436 -0.269311
0.270767 -0.684458 -0.269311
0.332202 -0.782506 -0.251786
0.062914 -0.699455 -0.269311
-0.538283 -0.786037 -0.269311
0.144504 -0.787846 -0.269311
0.447105 -0.680213 -0.268676
-0.225703 -0.754126 -0.269311
0.184279 -0.749474 -0.269311
-0.373232 -0.688026 -0.269311
0.300198 -0.713839 -0.251786
-0.250205 -0.729842 -0.269311
-0.359377 -0.777368 -0.269311
-0.576573 -0.755674 -0.269311
0.002904 -0.717242 -0.269311
-0.048637 -0.727041 -0.269311
-0.445652 -0.721838 -0.269311
0.09163 -0.780915 -0.251786
-0.495081 -0.756486 -0.269311
-0.263502 -0.797046 -0.269116
0.388141 -0.680759 -0.251786
0.309671 -0.766505 -0.269311
0.238262 -0.793887 -0.269311
0.141317 -0.750879 -0.269311
-0.570496 -0.786044 -0.269311
-0.111893 -0.716352 -0.269311
-0.137288 -0.749185 -0.269311
0.018697 -0.684659 -0.269311
-0.334049 -0.797046 -0.263493
0.03743 -0.797046 -0.265478
0.508946 -0.732955 -0.269311
-0.171953 -0.744814 -0.269311
-0.297086 -0.779825 -0.269311
-0.201574 -0.795473 -0.269311
-0.503009 -0.789307 -0.251786
-0.148835 -0.781971 -0.269311
0.335092 -0.685111 -0.269311
-0.065532 -0.76753 -0.269311
-0.365443 -0.738179 -0.269311
-0.404082 -0.699042 -0.269311
0.16857 -0.708281 -0.269311
-0.552794 -0.705462 -0.269311
-0.018965 -0.693596 -0.251786
-0.459035 -0.785579 -0.269311
0.009089 -0.770781 -0.269311
-0.197387 -0.750838 -0.269311
0.475731 -0.769416 -0.251786
0.348447 -0.748846 -0.251786
0.266314 -0.795047 -0.269311
-0.425615 -0.680213 -0.252577
0.034001 -0.705065 -0.269311
-0.331755 -0.770294 -0.269311
-0.163479 -0.680213 -0.255228
-0.272253 -0.717262 -0.269311
-0.484153 -0.786434 -0.269311
-0.067795 -0.683798 -0.269311
0.213843 -0.703073 -0.269311
0.034641 -0.722782 -0.251786
-0.499956 -0.695426 -0.269311
0.097193 -0.707151 -0.269311
0.046378 -0.772295 -0.269311
0.073714 -0.791826 -0.269311
0.472253 -0.697063 -0.269311
0.048681 -0.680213 -0.269206
0.423036 -0.774332 -0.269311
-0.258567 -0.773704 -0.269311
-0.37015 -0.756353 -0.251786
-0.447242 -0.705081 -0.251786
0.433388 -0.695679 -0.251786
-0.279063 -0.794113 -0.251786
-0.320105 -0.779983 -0.251786
0.483304 -0.797046 -0.256806
0.457908 -0.693181 -0.251786
0.098664 -0.730046 -0.269311
-0.048825 -0.751896 -0.269311
-0.427827 -0.76202 -0.269311
0.0439 -0.73691 -0.269311
0.457134 -0.727712 -0.269311
-0.399848 -0.797046 -0.263792
-0.365654 -0.015688 -0.269311
0.061188 0.010692 -0.269311
-0.213009 0.032837 -0.254522
-0.517987 -0.020254 -0.269311
-0.065015 0.010534 -0.269311
0.277661 -0.048619 -0.269311
0.456551 -0.031874 -0.269311
-0.451875 -0.069737 -0.251786
-0.278826 -0.01046 -0.269311
-0.192261 -0.069803 -0.269311
-0.063773 -0.059352 -0.251786
0.377928 -0.032914 -0.269311
0.250393 0.010721 -0.269311
0.438026 0.02412 -0.251786
-0.321605 0.032837 -0.263859
0.434872 -0.083996 -0.253939
-0.552254 -0.069414 -0.269311
-0.118275 0.028578 -0.269311
0.330436 -0.056484 -0.251786
-0.417234 -0.031828 -0.269311
-0.218353 -0.023889 -0.269311
-0.388075 0.032837 -0.266241
0.494292 -0.067057 -0.269311
0.187141 0.017063 -0.269311
0.225412 -0.04054 -0.251786
0.112321 -0.022972 -0.269311
-0.10355 -0.041742 -0.269311
-0.169231 0.025971 -0.269311
-0.487483 0.032837 -0.269197
0.10377 -0.078094 -0.269311
0.035799 -0.083996 -0.265028
0.476422 0.017895 -0.269311
0.165788 -0.066151 -0.269311
-0.005334 -0.083996 -0.267206
0.037058 -0.023756 -0.269311
0.346454 0.023692 -0.269311
-0.29689 -0.047142 -0.269311
0.283473 -0.008482 -0.269311
0.217242 0.002313 -0.251786
-0.025486 -0.052803 -0.269311
0.288066 0.032837 -0.261311
0.12645 -0.054896 -0.251786
0.486771 -0.02012 -0.251786
0.393918 -0.06689 -0.269311
-0.48264 -0.083996 -0.265183
-0.40083 -0.004391 -0.251786
0.347143 -0.082385 -0.269311
-0.503411 0.006537 -0.251786
-0.539041 0.008433 -0.269311
-0.419488 -0.064775 -0.269311
-0.245999 0.032837 -0.266461
0.411074 0.032837 -0.268315
0.338473 -0.016986 -0.269311
-0.458047 0.013582 -0.269311
0.213913 0.032837 -0.260931
0.450008 -0.000703 -0.269311
0.149875 -0.03098 -0.269311
0.157347 0.006128 -0.269311
-0.106299 -0.002382 -0.269311
0.192685 -0.081912 -0.269311
-0.557398 0.032837 -0.263305
-0.035071 0.010428 -0.251786
0.244251 -0.014066 -0.251786
-0.048264 -0.083996 -0.26071
-0.552387 -0.044572 -0.251786
-0.42142 0.009487 -0.269311
0.247966 -0.073164 -0.251786
-0.392905 -0.036704 -0.251786
-0.3354 -0.051595 -0.269311
0.098904 -0.049195 -0.269311
0.018359 -0.001699 -0.269311
-0.063152 -0.025992 -0.251786
-0.170383 -0.034522 -0.251786
0.444672 -0.057859 -0.269311
-0.23528 -0.053053 -0.269311
-0.162513 -0.083996 -0.263506
0.065417 -0.058346 -0.269311
0.004685 -0.027585 -0.269311
-0.365717 -0.083996 -0.255883
0.095837 0.013915 -0.269311
-0.251005 0.000166 -0.269311
0.244504 -0.052395 -0.269311
0.417208 -0.028886 -0.269311
-0.195143 -0.002608 -0.269311
0.273695 -0.028787 -0.251786
0.31376 0.029262 -0.269311
-0.094112 0.029 -0.251786
0.13212 -0.002402 -0.269311
0.283097 -0.078143 -0.269311
-0.123519 -0.083465 -0.269311
0.045646 -0.057639 -0.251786
0.203135 -0.019884 -0.251786
-0.471746 -0.016604 -0.269311
0.182071 -0.055848 -0.251786
0.458073 -0.080031 -0.269311
-0.078362 -0.036749 -0.269311
-0.413711 0.032837 -0.262625
0.205614 -0.043608 -0.269311
-0.051031 -0.01281 -0.269311
0.509822 -0.002192 -0.253186
-0.053924 -0.040928 -0.269311
-0.288219 0.032837 -0.263805
-0.529293 -0.05619 -0.269311
-0.226809 -0.083996 -0.262392
0.07907 -0.005368 -0.269311
-0.475003 -0.052455 -0.269311
0.457302 0.03272 -0.269311
0.2348 -0.027301 -0.269311
-0.342093 0.01968 -0.269311
-0.201853 -0.046347 -0.269311
-0.171386 -0.003053 -0.269311
0.398924 -0.043077 -0.251786
-0.25849 -0.018176 -0.251786
-0.50522 -0.07848 -0.269311
-0.084143 -0.011917 -0.269311
-0.394052 -0.073722 -0.269311
-0.522377 -0.038948 -0.251786
-0.388962 -0.021661 -0.269311
0.325938 -0.07245 -0.269311
-0.447572 -0.042532 -0.269311
-0.352809 -0.036318 -0.269311
0.142648 -0.083996 -0.266903
-0.337803 -0.010561 -0.269311
-0.377108 0.013101 -0.269311
-0.21574 0.007213 -0.251786
-0.423493 -0.044353 -0.251786
0.15901 0.032837 -0.266613
-0.7628917308866213 0.167535 0.5733200550220084
-0.8018272364144439 0.5173649999999999 0.6476238582779179
-0.6411147143604037 0.09042400000000006 0.3409230345032993
-0.6762776712343211 0.54539 0.4080273752338588
-0.8116582345736916 0.757333 0.6663851545069333
-0.7017052432637921 0.33807699999999996 0.45655288642834346
-0.6986149837980318 0.7523029999999999 0.4506554920516481
-0.596378358306436 0.5089489999999999 0.25554899470188985
-0.7295791293162922 0.6129519999999999 0.5475047148999703
-0.6266648560596003 0.23831399999999991 0.35110500700801106
-0.7524265342730444 0.33202299999999996 0.591106282666992
-0.6960515258482879 0.16147699999999998 0.4457634360074173
-0.7438437948374562 0.45974000000000004 0.5369693238977666
-0.6282777505689902 0.6526019999999999 0.3541830252505788
-0.8229823785276751 0.1951529999999999 0.6879959427320179
-0.5830825607623945 0.16279100000000002 0.2618059244336242
-0.6410469495838941 0.44007799999999997 0.3407937134490792
-0.8386293638432383 0.528419 0.7556141785233674
-0.7771133351839582 0.6570049999999998 0.6382181198715089
-0.7162809881397375 0.2537130000000001 0.5221267866502408
-0.6946261448300617 0.645737 0.4430432650655682
-0.6732721697444601 0.445786 0.4400495479707991
-0.6334781810185358 0.337939 0.32634961460546674
-0.8294195681537837 0.4128669999999999 0.7002805571222834
-0.6188965063031522 0.5548899999999999 0.336280031086901
-0.7460085545473251 0.7015660000000001 0.5411005115476477
-0.7172623650381024 0.538648 0.48624181173895864
-0.6723327457194228 0.25728299999999993 0.43825676842462435
-0.7652633179985678 0.24883800000000011 0.6156037648352503
-0.5838602602784616 0.423743 0.2694175030125203
-0.821712949323882 0.599977 0.6855733873670041
-0.789514005208803 0.4204729999999999 0.6241255141176068
-0.7315407747625222 0.09232700000000005 0.5134904664716531
-0.759451972265301 0.5374569999999999 0.5667556828793696
-0.7912952033089671 0.34093700000000005 0.6652825363899719
-0.7949760318524 0.13083900000000004 0.6345491453920061
-0.814529238805668 0.69183 0.7096219427745645
-0.6506389144561386 0.16617100000000007 0.3590988429457428
-0.7368236424764429 0.36336499999999994 0.52357219413695
-0.7644637808731835 0.7659769999999999 0.5763201263277861
-0.7135156282873794 0.17666000000000004 0.5168494247252858
-0.6549348355640363 0.3639730000000001 0.40505491639457786
-0.6055558441004403 0.671209 0.27306313994226206
-0.6515015749349842 0.7167110000000001 0.3985029449009738
-0.8340441020135226 0.359777 0.7468637491080214
-0.7861466527870409 0.578722 0.6176993206356414
-0.8259735956166103 0.24767800000000006 0.7314621430067931
-0.6575852681906791 0.2948409999999999 0.37235513676395
-0.7136518020485935 0.4087529999999999 0.4793514796788334
-0.8102992259050604 0.26019900000000007 0.6637916473373682
-0.7290316214624469 0.7651650000000001 0.5087020444229274
-0.6436306497291618 0.491069 0.38348221587724296
-0.6345902659809813 0.7182729999999999 0.3284718971117092
-0.6035020144014331 0.315987 0.26914364908661814
-0.6537670535250076 0.11884799999999995 0.40282634261089423
-0.8482001582353493 0.4664790000000001 0.7361210901148075
-0.8469324273343029 0.12059500000000001 0.7533767760867569
-0.6086335717239695 0.10686200000000001 0.2789366187815332
-0.7062833628930449 0.66168 0.5030475023495472
-0.8042062498032683 0.471066 0.6899217402614852
-0.6176435021459192 0.614244 0.29613100442893636
-0.6567695900951493 0.610911 0.4085563282256197
-0.6984964474444023 0.5971579999999999 0.48818709600262344
-0.7793140139171912 0.71434 0.6046600381755434
-0.6222422241024758 0.4844820000000001 0.30490712090299726
-0.7590231047756101 0.08249899999999999 0.5659372400430724
-0.6008344085095105 0.2034720000000001 0.30181065557336834
-0.7126200137048888 0.4705919999999999 0.4773824337642354
-0.5876207412324405 0.563993 0.2765939357610913
-0.8391967258056676 0.757895 0.7189391051164391
-0.8111498186839795 0.545182 0.7031727195158203
-0.6526118033282101 0.20724399999999998 0.4006216843646349
-0.7473845564153461 0.6593740000000001 0.5814842647766282
-0.7508634830561647 0.28966099999999995 0.550365567897938
-0.7823210118444917 0.201503 0.6481563543122602
-0.7126710693584235 0.21782600000000008 0.4774798674352232
-0.8057416325477464 0.126954 0.6928518364762807
-0.7120361226853744 0.2856909999999999 0.4762681468723936
-0.6656788016369444 0.309663 0.42555850381298344
-0.6066394363163993 0.28532 0.3128888639646764
-0.6953947644869104 0.509126 0.44451008469425657
-0.7729318771594711 0.3020050000000001 0.6302383022176115
-0.7719360078391306 0.49181300000000006 0.5905799869571671
-0.6148793376229392 0.766332 0.2923274551010192
-0.6249699884281402 0.40041400000000005 0.3101127362156796
-0.6867086253278633 0.6927449999999999 0.4656914328928409
-0.8032475118673167 0.700269 0.6503342858526682
-0.7924611287787764 0.3927749999999999 0.6675075671310742
-0.7506936069725857 0.22736400000000012 0.5500413795017425
-0.6981200280351606 0.13134999999999997 0.4874687441192501
-0.6513769007208667 0.3888309999999999 0.36050720237183864
-0.8424837816086889 0.16618699999999997 0.7252120620067601
-0.6563896376133588 0.5776970000000001 0.37007341734154575
-0.8082175476677617 0.08608199999999999 0.6598190108430038
-0.8282896657178636 0.07257099999999994 0.7358820886270558
-0.7668545778855193 0.612017 0.580882679411949
-0.7650818383573674 0.37379000000000007 0.6152574324229211
-0.7283575067698997 0.130328 0.5451733928814269
-0.7386129110616797 0.5078849999999999 0.5269868014247483
-0.7823650482150789 0.766332 0.6277078965513907
-0.6284710138337021 0.15476599999999996 0.3167940287635038
-0.7333189039324423 0.574802 0.5168838155039631
-0.7442557731382823 0.4264190000000001 0.5755133522663693
-0.8094714801096043 0.2920180000000001 0.699969809022259
-0.8344759344229327 0.6390120000000001 0.7099300335926528
-0.7779214069367202 0.47709200000000007 0.6397602291550515
-0.6722280296244143 0.40822800000000004 0.4002991136032389
-0.6625780469640622 0.668963 0.38188326402590733
-0.7065715952643632 0.710229 0.5035975597103054
-0.7858392105153333 0.615 0.654870420003962
-0.7057171092811153 0.332125 0.5019668743622284
-0.6748383659469491 0.758815 0.4052806314726493
-0.8341422161057381 0.5006819999999998 0.7092931716886511
-0.8103092569698774 0.3611040000000001 0.7015686069871037
-0.8327542505483156 0.604465 0.7444022202746126
-0.6656425985371652 0.6831309999999999 0.42548941448264666
-0.7749928490589411 0.117402 0.5964136065673977
-0.6991320383256462 0.5610710000000001 0.4516422294105604
-0.5943742374692303 0.2129319999999999 0.2558890383312641
-0.8067531786959272 0.5607069999999998 0.6570244360069458
-0.7554143983553206 0.3827560000000001 0.5590504510255287
-0.5993630774031031 0.34822700000000006 0.2990027943276302
-0.6518325083983496 0.260289 0.39913449224110353
-0.620935019306099 0.195948 0.34017029184124864
-0.676933040168784 0.08274499999999996 0.40927806926508337
-0.6787699353455314 0.215978 0.45054138281488987
-0.8236292128347605 0.3225819999999999 0.7269881659871643
-0.6511606104068017 0.7461359999999999 0.3600944379111086
-0.6057524603718112 0.691935 0.31119617537142547
-0.662375964995558 0.15729300000000002 0.4192554310607209
-0.6074637530498314 0.44064400000000004 0.314461974870806
-0.5923865905810801 0.6012979999999999 0.25693057366337074
-0.7356389712485494 0.5723929999999999 0.5590692058855719
-0.6789147477446478 0.6072950000000001 0.450817740136237
-0.6297272669870692 0.6076869999999999 0.3569492557459858
-0.668695442542122 0.4590049999999999 0.3935575893315314
-0.7458238259099906 0.650614 0.5407479788108009
-0.7121844681570397 0.43095400000000006 0.5143090631944414
-0.6399504653939239 0.5402629999999999 0.3764590197203163
-0.6048415290932602 0.45921999999999996 0.2716999543090788
-0.6255453448202771 0.504653 0.34896855233144314
-0.6734968146200127 0.37378200000000006 0.4404782561231452
-0.625329698714407 0.651877 0.3107992007158207
-0.752051971433022 0.21961300000000006 0.5903914738261999
-0.6056317833725474 0.08187900000000004 0.3109658776036362
-0.7966764691915184 0.162532 0.6755520453120816
-0.7209349430305725 0.308597 0.5310083086410976
-0.6252883900492745 0.23402999999999996 0.3107203680183851
-0.6348889067913374 0.766332 0.32978081523993186
-0.6249781629237378 0.2816209999999999 0.3478861528228337
-0.6337151776704295 0.325499 0.3645597112107751
-0.5976462150174247 0.14210900000000004 0.2957263657005056
-0.7751367331734478 0.45301400000000003 0.5966881923674541
-0.8088631696138224 0.661451 0.6610511039006761
-0.7188585504245172 0.37019099999999994 0.48928794259829406
-0.852260010975963 0.680803 0.7438688384796249
-0.6321022831610397 0.6982620000000002 0.36148169296820726
-0.80290386649583 0.726111 0.687436295890652
-0.7450825906491285 0.17179299999999997 0.5393334190601878
-0.8426480879846094 0.21366700000000005 0.7255256212752115
-0.7662943581235528 0.27065399999999995 0.5798135663130197
-0.8207359273987145 0.06273499999999999 0.6872831914954767
-0.8287268877690421 0.28636799999999996 0.7367164751549692
-0.6803862589169452 0.4871509999999999 0.41586812846643717
-0.810862694663161 0.3048280000000001 0.6648669607608149
-0.6989062850995941 0.06918000000000002 0.48896922265246157
-0.6825185286654738 0.18864900000000007 0.4199373128711441
-0.6984036189834303 0.761331 0.48800994387355484
-0.7721994606024014 0.09951599999999994 0.6288405719192598
-0.7584478523939981 0.5470329999999999 0.60259725551903
-0.758644364654844 0.7266789999999999 0.5652144593564723
-0.7775609484317336 0.6777410000000001 0.6013145202180818
-0.77147261375299 0.33970600000000006 0.6274534707486523
-0.653539803861516 0.217368 0.36463484697913817
-0.7797387041261385 0.16272299999999995 0.6054705091660325
-0.7661363696740102 0.6103239999999999 0.617269880609141
-0.7216339413416922 0.20837100000000008 0.5323422641729846
-0.6765782553819807 0.41035 0.44635882104757907
-0.7894476328592079 0.541703 0.6239988503453227
-0.825313121116794 0.43261700000000003 0.7302017056084695
-0.5902097270089516 0.6396809999999999 0.2815347086408159
-0.6470659469933234 0.473673 0.3522802574978905
-0.6086061873279828 0.27290499999999995 0.2788843589034579
-0.7939085045512211 0.23150399999999993 0.6325118959077166
-0.6123313934667921 0.518381 0.28599347384298285
-0.7835024340762513 0.2003999999999999 0.6126531422391209
-0.6849121105316388 0.5841880000000002 0.4245051805191793
-0.6302415366608545 0.13714000000000004 0.3579306785410261
-0.6940343633913647 0.718057 0.44191392024275555
-0.6711089825273959 0.33150999999999997 0.3981635446873163
-0.8214890526670493 0.5726390000000001 0.7229039236514865
-0.7316832664501143 0.6844459999999999 0.5137623949897735
-0.689299467673594 0.4387110000000001 0.4706357488151469
-0.6562717454679242 0.42233699999999996 0.3698484341376286
-0.6280894888591069 0.5277229999999999 0.3160659335130315
-0.607940427196923 0.736945 0.31537165105357357
-0.7571943840944602 0.12037299999999995 0.56244734310042
-0.7186021638063442 0.544549 0.5265564756376024
-0.8177524230365084 0.511066 0.6780151917802901
-0.7979867429181392 0.21718400000000004 0.6780525476138857
-0.6072205424820846 0.5863019999999999 0.3139978362926462
-0.6975319597349025 0.17241099999999998 0.4863464853816002
-0.6349764323786251 0.6794709999999999 0.32920884996863475
-0.8104833103342001 0.2390730000000001 0.7019007672291073
-0.6786164843085126 0.28053700000000004 0.41249072312574336
-0.8289596031296671 0.44922299999999993 0.6994027683227484
-0.6894062204037118 0.371656 0.4708394737635758
-0.8394685331304258 0.31873700000000005 0.7572156337701481
-0.6241292466481481 0.4103650000000001 0.34626609660250085
-0.7903455681532228 0.4541629999999999 0.6634702701095996
-0.7063480587393105 0.6215809999999999 0.46541315016371204
-0.672069577032567 0.10088799999999998 0.4377545421387147
-0.6538934802978197 0.2602 0.36530979659088975
-0.7560992923314045 0.07235900000000006 0.5981153066535931
-0.8396887166488196 0.38732299999999986 0.719878011400503
-0.7142240895104863 0.25131499999999996 0.4804436225545417
-0.692936022632175 0.5147789999999999 0.4775756834714113
-0.8428216772066273 0.5431159999999999 0.7258568957565699
-0.8260084062894748 0.13797199999999998 0.7315285750551938
-0.7836470664094778 0.7402869999999999 0.6506869724760058
-0.746730295831383 0.4263060000000001 0.5424778693511564
-0.8088499935633964 0.6567609999999999 0.6987837755181444
-0.7938263513632607 0.3887719999999999 0.6323551162734908
-0.704734055879421 0.6288260000000001 0.5000908333153914
-0.6475642557628535 0.17412099999999997 0.390989037346527
-0.7361165736802506 0.3560859999999999 0.5599806535896301
-0.6528819341496389 0.517131 0.40113719706022466
-0.7523086421276098 0.14199499999999998 0.5908812994630748
-0.8381213080853062 0.713141 0.7168867977011788
-0.7295639926861218 0.28547600000000006 0.5097180118831361
-0.6168697769237169 0.176037 0.2946544414331491
-0.6529691929029526 0.567067 0.40130372006154924
-0.7546247122288632 0.299847 0.5953012450833376
-0.6798671677542213 0.29891500000000004 0.45263532098048137
-0.6091343812709138 0.24066799999999988 0.2798923545178585
-0.6058680318057214 0.11516000000000004 0.3114167297721159
-0.6865974112405868 0.3472489999999999 0.4277213774224206
-0.8115554790584275 0.08996899999999997 0.7039468743198503
-0.6378002741613957 0.375745 0.33459781773490316
-0.8114436207629562 0.16457900000000003 0.7037334060043225
-0.8140411411668449 0.631597 0.6709326496601256
-0.676218080953409 0.13664299999999996 0.4456714707867927
-0.7920294764352562 0.4939 0.666683809730905
-0.8358751434061967 0.4930509999999999 0.7503580748539006
-0.6196098930257226 0.46313099999999996 0.3376414451987936
-0.8407489322691615 0.16670200000000002 0.7566169535169872
-0.728496001242638 0.7337449999999999 0.5076798766382014
-0.7851351066388601 0.583656 0.6535267211049762
-0.7169099009628233 0.46748499999999993 0.5233269923246809
-0.7814145419230993 0.17073800000000006 0.6464264637719048
-0.6110299384439636 0.586651 0.2835098009934403
-0.6526727860360368 0.6269629999999999 0.36298024609363694
-0.7304867075881842 0.645046 0.5114789040460785
-0.8034679794621253 0.36488999999999994 0.6507550221592062
-0.8102653435168057 0.13792899999999997 0.6637269868102582
-0.8211251651000389 0.468067 0.7222094873055374
-0.6984970916525972 0.470793 0.45043050884773095
-0.5951667668248605 0.71495 0.29099463233308187
-0.7479328885432761 0.260038 0.5447728751832408
-0.7747050808299277 0.3519129999999999 0.5958644349672849
-0.6453832510723146 0.144335 0.3868268480740591
-0.8187025223345576 0.693452 0.6798283438213077
-0.8110896602502378 0.4162509999999999 0.6653000977163879
-0.7079983687095041 0.224785 0.5063203879340905
-0.641509055253645 0.35633399999999993 0.37943340396737896
-0.797216446757961 0.328538 0.638824712027078
-0.6690805005892662 0.6351689999999999 0.43205024358270416
-0.7680546698199981 0.49788199999999994 0.6209307293563446
-0.6172707958751164 0.31759500000000007 0.29541973863072574
-0.7589952562373184 0.20365999999999995 0.5658840944043518
-0.6947238987904971 0.561285 0.48098763347727347
-0.6932397517654437 0.678796 0.44039749801792794
-0.5918736771718761 0.378277 0.28471016055437154
-0.7208746045309407 0.7129989999999999 0.530893159757203
-0.7343817898105726 0.33449799999999996 0.5189122073817991
-0.7395939278282646 0.3223069999999999 0.5666167723445417
-0.6498176666529507 0.3113220000000001 0.3952894052796685
-0.7607031198533146 0.6535060000000001 0.6069011664947528
-0.6473980928177134 0.09299499999999994 0.39067193503549413
-0.6333691075768937 0.29932000000000003 0.32614146085381107
-0.799430225486255 0.575974 0.6808072632209031
-0.6868798938383568 0.084812 0.46601827857097256
-0.8232128771873007 0.660164 0.7261936386882913
-0.654769600903506 0.653033 0.40473958560483564
-0.752534215287772 0.38407599999999986 0.5913117791367116
-0.6357705798622413 0.12903299999999995 0.33072438643281704
-0.653446975400544 0.5103 0.3644576948500695
-0.8112073723297822 0.6236890000000002 0.7032825538358428
-0.8352132764794659 0.19789999999999996 0.7490949801736413
-0.7789770466038626 0.7428520000000001 0.6040169759470242
-0.5910101185382167 0.33867 0.2576518508051238
-0.7757568272927413 0.42318199999999995 0.5978715685896328
-0.7005279983127762 0.49167499999999986 0.49206407034729094
-0.7899484424061523 0.4562649999999999 0.624954586081648
-0.7073162595872493 0.711895 0.46726084686989805
-0.7234222816423193 0.4120029999999999 0.5357550999394921
-0.5901164344056746 0.294516 0.28135667075110193
-0.8395230178459845 0.34444600000000003 0.7195617948501154
-0.8170629916479007 0.21086300000000002 0.7144573101374933
-0.5990451399242738 0.550667 0.29839604828557015
-0.5998128312965129 0.4686060000000001 0.29986109639296793
-0.7439319818753797 0.540745 0.5371376184203819
-0.7224652202096972 0.07539200000000001 0.5339286614887944
-0.7250636688981955 0.4818530000000001 0.501129676665888
-0.7106750773816338 0.12568199999999996 0.5114285695757851
-0.7003638720027456 0.5901860000000001 0.4539930381633015
-0.7540501040554459 0.7181220000000001 0.5942046734044026
-0.7291351251964309 0.409284 0.508899569046839
-0.8322485155019077 0.14593100000000003 0.7056792682556505
-0.7622166879094643 0.27561100000000005 0.6097896319592171
-0.838783639154342 0.6819030000000001 0.7181507781420837
-0.7718292551090128 0.5677859999999999 0.590376262008738
-0.736806933353468 0.22954800000000009 0.5235403067537177
-0.6698609038696264 0.22794899999999996 0.39578173431198826
-0.7065476399304005 0.6739120000000001 0.46579402724120966
-0.8155477470884216 0.4518930000000001 0.6738078287149097
-0.6657444257678197 0.695921 0.387925923148439
-0.7976221071324089 0.260713 0.6395988668311079
-0.6748058759856088 0.136046 0.4052186282274753
-0.6784271142481295 0.441562 0.41212933278244335
-0.7930902216677522 0.08224699999999996 0.6309502998899765
-0.645245864950076 0.7477640000000001 0.3865646629230375
-0.6351943991960196 0.4545509999999999 0.367382630387484
-0.6304682181715163 0.07383899999999999 0.32060545682041575
-0.7165576169534342 0.6199330000000001 0.5226546999948654
-0.6195806520605164 0.5820539999999998 0.3375856422781369
-0.8531859748741595 0.29334799999999994 0.7456359309670848
-0.8198455247655387 0.739236 0.7197674452063261
-0.7387102008798105 0.176913 0.5649302840758081
-0.7789450207848273 0.3072870000000001 0.6039558584624956
-0.6635938744035116 0.3943209999999999 0.4215796669941016
-0.8229348559466895 0.18457600000000007 0.7256630680617309
-0.773843168569802 0.235112 0.5942195774488825
-0.845179055973013 0.10704400000000003 0.7303556740742683
-0.7000320102547705 0.399532 0.453359719301881
-0.7532134355456728 0.47722299999999995 0.5548501740453109
-0.6387791502823462 0.215414 0.33646588693593205
-0.713826319555221 0.15242299999999998 0.47968452568148257
-0.629727731129374 0.730712 0.3569501415066312
-0.6352547376956514 0.08843000000000001 0.3674977792713786
-0.6687126158074018 0.5925050000000001 0.3935903624754091
-0.7040797952954578 0.3120339999999999 0.46108443788991954
-0.7407572485101348 0.7362600000000001 0.5310790156062342
-0.7890874584306362 0.35910700000000007 0.6233115000845363
-0.6488647825010723 0.3979949999999999 0.39347093867477884
-0.8114705410166381 0.32097299999999995 0.7037847801217525
-0.6621473229051518 0.07354499999999997 0.3810612781470288
-0.7594434376379235 0.5208970000000002 0.6044972121032912
-0.7297257982846281 0.5207250000000001 0.5477846152638988
-0.6247456276290027 0.17130299999999998 0.34744238673951666
-0.8507735070939517 0.766332 0.7416977658855448
-0.6198169004936903 0.319221 0.33803649444661676
-0.8280204631810446 0.5127009999999999 0.7353683474527568
-0.7470763659249188 0.56433 0.5808961197081203
-0.8270719363757999 0.10904899999999995 0.6958003797781374
-0.7343864312336211 0.601558 0.5189210649882525
-0.6679272870275781 0.49312 0.3920916554634883
-0.741474168305254 0.10096099999999997 0.5702049887188272
-0.7486363482115546 0.500607 0.5838731612371191
-0.6328444467065114 0.1955610000000001 0.3628980242401111
-0.6249514227359458 0.20055 0.3100773057898659
-0.6625848290327451 0.7415289999999999 0.41965402335112534
-0.8285913582160229 0.699802 0.736457833046529
-0.5974389234730421 0.644503 0.2575729577764993
-0.7951573314277103 0.6869429999999999 0.6726529507198731
-0.7630885272238821 0.3474599999999999 0.573695617535634
-0.7961925488334389 0.673727 0.6368707240434508
-0.6860490791126567 0.659119 0.46443276701580816
-0.745593147184475 0.11248499999999995 0.5403077557700654
-0.6945544868492232 0.10387100000000005 0.4806643308417232
-0.6804563444049792 0.615372 0.416001878323884
-0.6014322237981707 0.24721100000000007 0.3029515152845705
-0.7094898380009104 0.7431540000000001 0.4714088639720405
-0.7996599759271609 0.09602599999999994 0.681245714740348
-0.7318109055839509 0.15972300000000006 0.5140059791672429
-0.7903636697031123 0.7172320000000001 0.663504814774768
-0.8267512140431414 0.718334 0.6951883191722051
-0.652010919109306 0.6793040000000001 0.36171715141337746
-0.7474371845616853 0.201411 0.5438268828140141
-0.6314840456109657 0.557355 0.36030185978861007
-0.8064480571357439 0.4256 0.6941999641784931
-0.7539224649216094 0.17820999999999998 0.5939610892269334
-0.6877832948295051 0.42696 0.42998449587127263
-0.8536891051326281 0.734124 0.7465960955066369
-0.7504958823507152 0.50722 0.5496640454668262
-0.7220314272205427 0.6004019999999999 0.4953430023698605
-0.7182593427089424 0.44896899999999995 0.4881444256051559
-0.6973843624819569 0.30311 0.48606481349638103
-0.8538186008356843 0.074685 0.7468432227266877
-0.5942537989112001 0.08531 0.28925234114369175
-0.6698418740351271 0.18376900000000007 0.3957454181255292
-0.7217320554339077 0.18368300000000004 0.49477168675361416
-0.7950032361824967 0.518116 0.6723588781856191
-0.806088526915367 0.23750099999999996 0.6557560267628143
-0.802229183650453 0.187322 0.6483909269967851
-0.6604460612919485 0.4652479999999999 0.41557243829738366
-0.7351664743822015 0.14962600000000004 0.5581675015486125
-0.7019909748576961 0.204291 0.49485598790141283
-0.76392676822646 0.45097999999999994 0.5752953012611239
-0.7454641156237238 0.3385609999999999 0.54006151431066
-0.7725512804694855 0.4040490000000001 0.62951197848843
-0.6954105453252757 0.36450099999999996 0.4445402005561983
-0.7761397446942511 0.625437 0.5986023211220408
-0.7716875116401404 0.7379579999999999 0.6278635779274462
-0.7842072861714443 0.432863 0.6517560855749351
-0.5982728071289861 0.502184 0.29692214257171895
-0.8226257371716524 0.10057300000000002 0.7250731514719322
-0.60874821487327 0.20376799999999995 0.27915540166093294
-0.8462967106431168 0.31208599999999986 0.7324885857082548
-0.639209048435514 0.766332 0.367227544979313
-0.7462759005149247 0.596943 0.5416107096793653
-0.7978903813846182 0.5987209999999998 0.6401108364841164
-0.8332858735532707 0.586703 0.7076589432979928
-0.5975264663027706 0.6716340000000001 0.295497839454007
-0.6001507268944513 0.42276999999999987 0.30050593014277777
-0.6335513354368139 0.42670600000000003 0.36424703770296885
-0.7013286437886603 0.42657100000000003 0.493592007460508
-0.6330367816866137 0.2756080000000001 0.32550725623174537
-0.6740305782706021 0.1932609999999999 0.44149688086528993
-0.8027168171469713 0.38443399999999994 0.6870793343505788
-0.7030614670785942 0.2290399999999999 0.45914107903403645
-0.7925061505823479 0.645831 0.6675934859136725
-0.7096536802345261 0.499209 0.4717215374798467
-0.6644715675020025 0.572627 0.42325464037444566
-0.6586620783379552 0.713695 0.3744101014611463
-0.766569414444445 0.565952 0.6180962952912462
-0.6578827834080946 0.45380599999999993 0.372922909337615
-0.6537716949480562 0.5418620000000001 0.40283520021734764
-0.5987714760302961 0.14557900000000001 0.2601159765892797
-0.8534240798765529 0.18319599999999991 0.7460903261781459
-0.8456733675276894 0.40673000000000004 0.7312990091615589
-0.7164944935999733 0.5136989999999999 0.5225342365470987
-0.6504001652455504 0.6317300000000001 0.3964010348895743
-0.7920514658440181 0.766332 0.6488153186232064
