-0.12644 0.445608 -0.412247
0.054369 -0.047802 -0.395065
0.283783 0.641671 -0.395065
0.249275 0.003083 -0.412247
0.115359 0.230073 -0.412247
-0.267253 -0.194292 -0.395065
-0.096181 0.297494 -0.395065
0.365712 0.396856 -0.395065
0.434947 0.019234 -0.395065
0.316637 -0.583104 -0.412247
-0.333843 0.256487 -0.412247
-0.153786 -0.016599 -0.412247
0.202129 -0.435923 -0.412247
0.288879 0.4689 -0.395065
0.266498 0.130817 -0.395065
0.131734 -0.215711 -0.412247
0.290387 -0.539328 -0.395065
-0.017049 0.298805 -0.412247
-0.391125 0.289443 -0.412247
-0.114076 0.132973 -0.395065
0.238675 -0.491024 -0.395065
-0.395281 0.127994 -0.412247
0.21703 0.08873 -0.412247
0.163097 0.314111 -0.395065
0.154008 0.595155 -0.412247
-0.011861 -0.084584 -0.395065
-0.448044 0.241308 -0.412247
0.4391 -0.625185 -0.395065
0.064503 0.236542 -0.395065
-0.196719 -0.531533 -0.395065
0.073971 -0.105985 -0.412247
-0.100076 -0.345613 -0.395065
-0.239392 -0.434334 -0.412247
-0.242312 0.051948 -0.412247
-0.033067 -0.536273 -0.395065
0.388709 -0.462396 -0.412247
0.227138 0.172455 -0.395065
0.114062 -0.095588 -0.412247
0.230461 0.34051 -0.395065
-0.044612 0.398053 -0.412247
-0.140395 -0.241645 -0.412247
0.419487 0.240153 -0.412247
0.214955 -0.579699 -0.395065
0.145712 -0.55421 -0.412247
-0.174265 -0.422235 -0.412247
-0.188592 0.482454 -0.412247
0.162801 0.357949 -0.395065
-0.371038 0.489898 -0.412247
0.4232 -0.55185 -0.395065
0.132923 -0.280084 -0.395065
-0.133852 0.098254 -0.412247
-0.027499 0.548978 -0.412247
-0.165101 0.346973 -0.395065
-0.422611 -0.314276 -0.395065
-0.193148 0.295353 -0.395065
0.130534 -0.529303 -0.395065
0.024877 0.327399 -0.412247
-0.265199 -0.572245 -0.395065
0.037942 -0.357058 -0.395065
0.333564 0.205774 -0.395065
-0.133171 -0.13774 -0.412247
0.027353 -0.597279 -0.395065
-0.40645 -0.246243 -0.395065
0.399004 -0.336527 -0.395065
0.068614 0.321498 -0.395065
0.162905 0.534603 -0.395065
-0.314063 0.015536 -0.395065
-0.000747 -0.404821 -0.412247
0.17195 0.615892 -0.395065
0.380505 0.621665 -0.412247
0.052399 -0.518332 -0.395065
0.20256 -0.219911 -0.412247
-0.269044 0.296179 -0.395065
-0.150751 0.432157 -0.395065
-0.157775 -0.097966 -0.412247
-0.04304 -0.505572 -0.395065
-0.417 -0.506223 -0.395065
-0.104923 -0.013704 -0.412247
-0.242452 -0.216502 -0.395065
-0.431775 -0.581978 -0.412247
-0.045157 -0.074785 -0.412247
0.238056 -0.119634 -0.412247
-0.204744 0.081159 -0.395065
0.350058 -0.006144 -0.395065
-0.143632 0.482456 -0.395065
0.005807 0.404731 -0.412247
0.121676 0.601794 -0.395065
-0.287007 0.50093 -0.412247
0.145407 -0.424033 -0.412247
-0.001355 -0.196924 -0.412247
-0.189652 0.42603 -0.412247
0.017129 0.232237 -0.412247
-0.228338 -0.360659 -0.395065
-0.325351 0.299213 -0.395065
-0.264747 -0.294012 -0.395065
0.110829 0.460362 -0.395065
0.004228 0.279896 -0.395065
0.213233 -0.525329 -0.395065
-0.156478 -0.49088 -0.395065
-0.216607 -0.288375 -0.395065
-0.130113 0.510576 -0.412247
0.408474 -0.229264 -0.412247
-0.232083 -0.503628 -0.395065
-0.268222 -0.384002 -0.412247
-0.108252 -0.267149 -0.395065
0.024074 -0.001668 -0.395065
0.333856 0.317239 -0.412247
-0.178227 -0.382285 -0.412247
0.01278 0.163557 -0.395065
-0.232978 -0.556914 -0.395065
-0.381511 0.085383 -0.412247
-0.357541 -0.479043 -0.395065
0.285276 0.192944 -0.395065
0.181284 0.436105 -0.395065
-0.406783 0.218483 -0.412247
-0.050413 -0.44107 -0.412247
-0.1238 -0.415205 -0.412247
-0.140094 0.250855 -0.395065
0.153413 0.195579 -0.395065
0.044194 -0.442926 -0.395065
-0.382559 -0.584861 -0.395065
0.363913 0.537739 -0.395065
0.429005 -0.378205 -0.395065
0.40584 0.295105 -0.395065
0.270545 -0.023426 -0.395065
-0.179801 -0.450682 -0.395065
-0.201317 -0.088 -0.395065
-0.428527 0.454933 -0.395065
0.038456 0.04 -0.412247
0.294606 -0.329403 -0.412247
0.430858 0.172655 -0.395065
0.390723 -0.195675 -0.395065
-0.408312 0.501603 -0.395065
0.184144 0.38576 -0.395065
0.291979 -0.272753 -0.395065
-0.301817 0.555786 -0.412247
-0.318063 0.353787 -0.395065
-0.311037 0.135991 -0.395065
0.03132 0.552015 -0.395065
0.25866 0.439761 -0.412247
0.390536 0.176953 -0.412247
-0.091605 0.461292 -0.395065
0.09199 -0.53973 -0.412247
-0.411445 -0.073229 -0.412247
-0.42872 -0.209967 -0.395065
-0.33727 0.385155 -0.395065
-0.245456 0.447405 -0.412247
-0.149676 -0.218115 -0.395065
0.042777 0.582836 -0.412247
-0.302389 -0.246502 -0.412247
-0.165065 0.237158 -0.412247
0.345225 0.253709 -0.412247
-0.029616 -0.152241 -0.412247
-0.069922 0.543292 -0.412247
-0.049598 -0.026444 -0.395065
-0.08275 -0.409822 -0.412247
-0.436206 0.399152 -0.395065
-0.438681 0.09939 -0.395065
-0.256091 0.142724 -0.412247
0.276842 0.306429 -0.395065
-0.159292 -0.561437 -0.395065
0.401464 0.502564 -0.395065
0.410787 0.120333 -0.412247
-0.328613 -0.010704 -0.412247
-0.099136 -0.45851 -0.395065
-0.380595 0.554879 -0.395065
0.245983 -0.434181 -0.412247
-0.407317 -0.537361 -0.395065
0.435486 0.341027 -0.412247
-0.246757 0.579662 -0.412247
0.314146 -0.284413 -0.412247
0.232245 0.65226 -0.412247
0.0483 -0.262661 -0.395065
-0.249101 -0.457188 -0.395065
-0.037386 -0.100691 -0.395065
0.122971 0.171172 -0.395065
-0.032755 0.238244 -0.412247
0.120188 -0.367175 -0.395065
0.103019 -0.021624 -0.412247
-0.201113 -0.319491 -0.395065
-0.337199 -0.123142 -0.395065
0.065703 0.038062 -0.395065
0.123976 0.653092 -0.412247
0.329131 0.644203 -0.412247
0.059628 -0.171627 -0.395065
0.031321 0.381132 -0.412247
-0.186257 0.259989 -0.412247
0.27091 0.353409 -0.412247
-0.383628 0.608169 -0.412247
-0.267523 -0.024062 -0.412247
-0.093782 0.374057 -0.412247
-0.427569 -0.460961 -0.395065
-0.319576 -0.173144 -0.412247
-0.099461 -0.11349 -0.412247
-0.443945 -0.611071 -0.412247
0.314667 -0.25089 -0.412247
0.188377 0.003182 -0.412247
0.159422 -0.266282 -0.395065
-0.372944 -0.431689 -0.412247
-0.20245 -0.175808 -0.412247
-0.062337 0.123946 -0.412247
0.316108 -0.200181 -0.412247
0.038028 -0.5754 -0.412247
-0.256935 -0.33466 -0.412247
-0.114455 0.628431 -0.395065
-0.424012 -0.40171 -0.412247
-0.229771 0.189858 -0.395065
0.196979 -0.19633 -0.395065
-0.09518 -0.043485 -0.412247
0.261657 -0.150917 -0.412247
-0.26979 0.629374 -0.412247
0.399143 0.435342 -0.395065
0.007459 0.64089 -0.395065
0.309777 0.532236 -0.412247
0.359559 0.182827 -0.395065
0.079772 -0.590308 -0.395065
-0.01878 0.624914 -0.395065
-0.314151 -0.351727 -0.412247
0.197144 0.263953 -0.412247
-0.323004 0.499473 -0.412247
0.235995 -0.553491 -0.395065
-0.018851 0.06003 -0.395065
0.133697 0.42603 -0.412247
-0.211228 -0.13881 -0.395065
0.259668 -0.233644 -0.395065
0.369923 -0.485721 -0.395065
-0.364601 -0.016007 -0.395065
-0.292539 0.319929 -0.395065
0.000758 -0.265094 -0.395065
0.140124 0.067292 -0.412247
-0.119977 0.185217 -0.412247
0.022411 0.137713 -0.412247
-0.297112 -0.302653 -0.395065
-0.306129 -0.070171 -0.395065
-0.024401 0.358104 -0.395065
-0.082792 0.272472 -0.412247
0.041506 -0.41122 -0.412247
-0.162587 -0.364885 -0.395065
0.115303 0.352151 -0.395065
-0.341837 -0.202812 -0.412247
-0.19778 -0.403641 -0.412247
-0.419023 0.302427 -0.395065
0.244861 -0.404783 -0.412247
-0.119509 -0.384318 -0.412247
0.318218 0.144877 -0.395065
0.254391 0.093012 -0.412247
0.202042 0.475585 -0.412247
-0.068061 -0.379166 -0.412247
0.342855 -0.248874 -0.395065
-0.262927 0.410892 -0.412247
-0.397583 -0.376054 -0.412247
0.415088 -0.07695 -0.412247
-0.339565 0.14826 -0.395065
-0.105209 -0.519291 -0.395065
-0.276387 0.08736 -0.412247
0.322349 -0.000467 -0.412247
-0.29534 -0.400297 -0.412247
0.147882 -0.40136 -0.395065
0.216161 0.520513 -0.395065
-0.294983 0.635504 -0.395065
0.213411 -0.149034 -0.412247
0.309151 0.091719 -0.412247
0.027809 -0.294526 -0.395065
-0.086004 -0.221958 -0.412247
-0.242294 0.272451 -0.412247
-0.336622 -0.580857 -0.395065
-0.084407 0.181898 -0.412247
-0.174378 0.529784 -0.412247
0.366941 0.052902 -0.412247
0.433222 0.116363 -0.395065
0.020946 0.496224 -0.395065
-0.428716 0.02213 -0.395065
-0.101675 0.233216 -0.395065
-0.313706 -0.271116 -0.395065
0.361052 -0.530146 -0.395065
0.101493 -0.049837 -0.412247
-0.270196 0.321874 -0.412247
0.056508 0.136845 -0.412247
0.091061 -0.285514 -0.412247
-0.168016 -0.035445 -0.395065
0.344655 0.490681 -0.412247
-0.218061 0.242718 -0.412247
0.097628 0.098496 -0.412247
-0.12715 0.560986 -0.395065
0.440636 0.311152 -0.412247
-0.385281 -0.163854 -0.412247
0.257698 0.276604 -0.395065
0.201285 -0.351181 -0.412247
-0.120328 0.312824 -0.395065
-0.323886 -0.384583 -0.412247
-0.363188 0.177591 -0.395065
0.056218 -0.384488 -0.395065
-0.015576 0.572529 -0.395065
0.036119 0.063389 -0.395065
0.261028 0.378112 -0.395065
-0.079051 0.087567 -0.412247
0.217834 0.110475 -0.395065
-0.349024 0.480157 -0.395065
0.091883 0.370287 -0.412247
0.064113 -0.462945 -0.395065
0.140115 0.019302 -0.412247
0.271059 -0.613873 -0.395065
0.025848 0.281072 -0.412247
-0.42513 -0.277202 -0.395065
0.329584 0.56404 -0.412247
-0.334135 0.077265 -0.412247
0.057891 0.405143 -0.412247
-0.137353 0.610844 -0.412247
-0.21897 0.289523 -0.412247
-0.444718 -0.376712 -0.412247
-0.085834 0.499239 -0.395065
0.380789 -0.37289 -0.412247
-0.288898 0.528394 -0.412247
-0.276948 -0.525796 -0.395065
-0.305904 0.41593 -0.412247
-0.210105 0.319579 -0.412247
0.326325 0.232274 -0.395065
-0.350141 -0.241315 -0.412247
-0.213218 0.111194 -0.412247
0.323737 -0.5175 -0.395065
0.258683 -0.483429 -0.412247
0.096731 -0.234411 -0.412247
-0.07046 -0.075649 -0.395065
-0.340922 0.438247 -0.412247
0.199211 0.496776 -0.395065
-0.436843 -0.515724 -0.412247
0.341303 0.624235 -0.395065
-0.159493 -0.329478 -0.412247
0.180168 0.214938 -0.412247
-0.378926 0.657286 -0.409724
0.086099 0.58366 -0.395065
0.088619 0.001617 -0.412247
-0.26779 -0.478307 -0.395065
0.395506 0.028509 -0.395065
-0.140486 0.290942 -0.395065
-0.035274 0.287956 -0.395065
-0.249708 0.497714 -0.395065
0.17762 0.636311 -0.412247
0.208058 -0.465064 -0.395065
-0.059325 0.592871 -0.395065
0.042654 -0.095041 -0.412247
-0.004614 -0.236264 -0.395065
-0.061648 -0.131151 -0.412247
-0.244575 -0.245648 -0.412247
-0.14731 0.411372 -0.412247
0.16344 0.259085 -0.412247
-0.298289 -0.210405 -0.395065
0.07753 -0.516751 -0.412247
0.010483 0.08879 -0.395065
-0.3821 -0.071761 -0.395065
-0.040625 -0.249402 -0.395065
0.243708 0.484125 -0.395065
-0.11353 -0.129021 -0.395065
-0.296005 0.46884 -0.395065
-0.334165 -0.29281 -0.412247
-0.184201 -0.342502 -0.395065
-0.355656 -0.542974 -0.395065
-0.052088 -0.544862 -0.412247
0.067769 -0.270152 -0.412247
0.310953 0.049911 -0.412247
0.366706 -0.251414 -0.412247
0.311237 0.39835 -0.412247
-0.172739 -0.209047 -0.412247
-0.200569 0.172236 -0.412247
0.090467 0.410809 -0.395065
0.270867 0.625484 -0.412247
0.301268 -0.225956 -0.412247
0.141977 0.109998 -0.395065
-0.431659 0.570879 -0.412247
0.083676 0.286442 -0.395065
-0.144249 -0.593689 -0.412247
-0.001928 0.485917 -0.412247
0.255993 0.564464 -0.395065
0.005918 0.251198 -0.395065
0.006531 -0.300465 -0.412247
-0.389747 -0.214038 -0.395065
0.300376 0.427139 -0.412247
0.32642 0.586207 -0.395065
0.262787 0.411692 -0.412247
0.109967 0.126738 -0.412247
0.410654 -0.038099 -0.395065
0.0115 -0.578725 -0.412247
-0.209116 -0.113408 -0.412247
0.276738 0.584244 -0.395065
-0.390988 -0.109566 -0.412247
0.249235 -0.057025 -0.395065
0.241127 0.611861 -0.412247
0.393003 0.319346 -0.395065
-0.366272 0.355085 -0.395065
0.360152 -0.573855 -0.412247
0.169574 0.137848 -0.395065
0.027555 -0.620323 -0.412247
-0.013007 -0.622939 -0.412247
0.3761 0.652084 -0.412247
-0.082239 -0.023613 -0.395065
-0.10051 -0.584959 -0.395065
0.212663 0.139167 -0.395065
-0.197208 -0.609293 -0.412247
-0.001969 -0.109121 -0.395065
0.110106 -0.60452 -0.412247
-0.371024 0.290587 -0.395065
-0.404928 0.069277 -0.395065
0.341328 -0.29118 -0.395065
-0.364499 -0.373528 -0.412247
0.224842 -0.348727 -0.395065
-0.196534 0.051177 -0.412247
-0.016507 0.117856 -0.412247
0.284459 0.007491 -0.395065
-0.270783 -0.125385 -0.395065
-0.100713 0.409559 -0.395065
0.190164 -0.491783 -0.395065
0.401577 0.34361 -0.412247
-0.334583 0.552844 -0.395065
-0.123136 -0.311343 -0.412247
0.347307 -0.104833 -0.395065
0.216907 0.600922 -0.395065
0.064685 -0.44183 -0.412247
-0.031466 -0.03473 -0.412247
0.003273 0.015981 -0.412247
-0.02016 0.522799 -0.412247
-0.356659 0.519315 -0.395065
0.089308 0.23065 -0.412247
-0.411831 0.334033 -0.412247
-0.113457 0.065862 -0.412247
0.17768 0.0435 -0.395065
-0.016258 -0.386748 -0.395065
-0.436567 0.259431 -0.395065
-0.397426 -0.022185 -0.412247
0.268216 -0.400695 -0.395065
-0.350254 -0.428132 -0.395065
-0.300671 -0.483931 -0.395065
-0.046609 0.619132 -0.412247
-0.281205 0.366539 -0.412247
0.163396 -0.315975 -0.412247
0.034058 -0.462133 -0.412247
0.143552 -0.231057 -0.395065
0.13729 0.397285 -0.412247
0.318803 -0.455678 -0.395065
0.364038 -0.06864 -0.395065
0.24365 0.292765 -0.412247
-0.395311 0.381719 -0.395065
0.240283 -0.186642 -0.395065
-0.2074 0.142145 -0.412247
0.25581 -0.089015 -0.412247
-0.284162 0.271451 -0.412247
0.435748 -0.568621 -0.412247
0.168789 0.484291 -0.395065
0.357785 -0.142336 -0.412247
0.300282 -0.114018 -0.395065
0.391993 0.548996 -0.395065
-0.282872 0.574696 -0.412247
0.097315 0.172352 -0.395065
-0.342703 0.587736 -0.412247
0.424936 0.428768 -0.395065
0.066779 0.429229 -0.412247
-0.237151 -0.579367 -0.412247
-0.039074 0.456076 -0.412247
0.055963 0.374105 -0.412247
0.282406 0.451027 -0.412247
-0.104997 -0.094219 -0.395065
0.010351 0.511988 -0.412247
-0.228664 0.605306 -0.412247
-0.14794 0.355093 -0.412247
0.005982 -0.061654 -0.395065
-0.195252 0.533016 -0.395065
0.072781 0.082152 -0.412247
0.034852 0.649467 -0.395065
0.185463 -0.328927 -0.412247
0.3059 0.287521 -0.395065
-0.281527 0.03088 -0.395065
0.260202 -0.21479 -0.412247
0.140024 0.182298 -0.412247
-0.304875 0.223581 -0.412247
-0.408916 0.193097 -0.412247
-0.381514 0.053847 -0.395065
0.261708 0.331182 -0.395065
-0.077721 0.562593 -0.395065
0.168343 -0.577933 -0.395065
-0.219359 0.442745 -0.395065
0.326857 0.188275 -0.412247
-0.353286 0.316417 -0.395065
0.14787 -0.001051 -0.395065
-0.365416 -0.230489 -0.395065
-0.429336 0.501268 -0.412247
0.248084 -0.289481 -0.395065
0.374016 -0.273562 -0.395065
0.352016 0.124609 -0.395065
-0.035276 0.021787 -0.395065
-0.265624 -0.167133 -0.412247
-0.276333 -0.241355 -0.395065
0.228949 0.379394 -0.395065
0.316992 -0.388966 -0.395065
-0.419816 -0.049282 -0.412247
0.148122 0.657286 -0.401391
0.442338 0.548345 -0.412247
-0.065954 -0.557252 -0.395065
-0.141916 -0.502437 -0.412247
-0.226075 -0.335456 -0.395065
0.287821 -0.069662 -0.395065
-0.028579 -0.347141 -0.395065
-0.313983 0.449336 -0.395065
-0.064242 -0.408811 -0.395065
0.362383 -0.61744 -0.395065
0.121679 0.141085 -0.395065
-0.258394 0.225508 -0.395065
-0.030409 -0.42569 -0.412247
0.411277 -0.383378 -0.412247
0.045445 -0.19926 -0.395065
-0.159106 -0.28066 -0.395065
-0.124325 -0.457827 -0.395065
0.056047 0.633861 -0.412247
0.343439 0.465542 -0.412247
0.348086 0.073168 -0.395065
-0.175899 0.624208 -0.412247
-0.157281 -0.466654 -0.412247
-0.281298 0.197629 -0.412247
-0.185437 -0.149379 -0.412247
-0.09894 -0.366016 -0.412247
-0.25273 0.113818 -0.412247
0.20763 -0.089445 -0.395065
-0.329519 0.623568 -0.395065
-0.201992 0.624281 -0.412247
0.326418 -0.083547 -0.395065
0.16011 -0.481506 -0.395065
0.376107 -0.206474 -0.412247
-0.103578 -0.179512 -0.395065
-0.407503 0.114576 -0.395065
0.34473 0.302728 -0.395065
-0.196922 -0.254471 -0.395065
0.379659 0.385275 -0.412247
0.171166 0.421071 -0.412247
0.387518 0.156408 -0.395065
0.000962 0.320302 -0.412247
0.030708 0.19968 -0.395065
-0.298713 0.055809 -0.395065
-0.217498 0.650792 -0.395065
-0.204887 0.206363 -0.395065
-0.04473 0.497138 -0.395065
0.367733 0.248391 -0.395065
-0.233427 -0.415081 -0.395065
0.283136 -0.189321 -0.412247
0.39338 0.478291 -0.412247
-0.079243 -0.158564 -0.395065
-0.031518 -0.306413 -0.412247
0.221541 0.633252 -0.395065
-0.229132 0.381054 -0.412247
-0.162531 0.08334 -0.395065
-0.171373 0.117087 -0.395065
0.398987 0.082693 -0.395065
0.433009 0.290641 -0.395065
-0.354836 0.093508 -0.412247
0.35373 0.370283 -0.412247
0.284822 0.058901 -0.412247
-0.348216 0.349699 -0.412247
0.320101 -0.151898 -0.395065
-0.150355 0.151157 -0.395065
0.105052 -0.112592 -0.395065
-0.102747 0.614424 -0.412247
-0.402742 0.450622 -0.395065
-0.174018 0.472284 -0.395065
0.146397 -0.059402 -0.395065
0.416527 0.656487 -0.395065
-0.288459 0.181447 -0.395065
0.356743 -0.326599 -0.412247
-0.326353 -0.432452 -0.412247
0.356101 0.411669 -0.412247
-0.263232 -0.592204 -0.412247
-0.096883 -0.062728 -0.395065
-0.209896 -0.269144 -0.412247
-0.205137 -0.047968 -0.412247
0.321771 -0.266941 -0.395065
0.386898 -0.586733 -0.412247
-0.279841 -0.08753 -0.395065
0.18601 -0.115474 -0.395065
0.065984 -0.328964 -0.412247
-0.405621 -0.296622 -0.395065
-0.428771 -0.55767 -0.412247
-0.283529 -0.036956 -0.395065
-0.413109 0.547948 -0.412247
-0.080937 0.40742 -0.412247
-0.391728 0.174608 -0.395065
0.240411 0.216441 -0.412247
0.053707 -0.147407 -0.412247
0.240065 0.59325 -0.395065
0.026242 -0.439033 -0.412247
0.100831 -0.389711 -0.412247
0.326601 0.438293 -0.412247
-0.203683 0.491712 -0.395065
0.106837 -0.423495 -0.412247
0.417706 -0.509011 -0.395065
0.175927 -0.073962 -0.395065
-0.426079 0.48437 -0.395065
0.000208 -0.497459 -0.412247
0.227147 -0.017574 -0.412247
-0.026485 -0.500989 -0.412247
0.041869 0.324416 -0.395065
0.275409 -0.531003 -0.412247
0.118739 -0.174913 -0.412247
0.119797 -0.061179 -0.395065
-0.123637 0.210033 -0.412247
0.288269 -0.556304 -0.412247
0.245322 0.261815 -0.412247
-0.420678 -0.192457 -0.412247
-0.136738 0.081446 -0.395065
-0.019436 0.196809 -0.395065
0.277683 -0.324801 -0.395065
-0.19895 0.020366 -0.395065
-0.17304 0.040034 -0.412247
0.379147 0.079508 -0.412247
0.073524 0.521204 -0.412247
-0.351498 -0.085822 -0.395065
0.206444 -0.117779 -0.412247
-0.423589 -0.023769 -0.412247
0.291428 0.10467 -0.395065
-0.322314 -0.115163 -0.412247
0.301741 -0.400069 -0.412247
-0.195493 0.1562 -0.395065
0.151431 -0.181346 -0.412247
0.225534 -0.620193 -0.412247
0.358891 -0.457579 -0.412247
-0.046558 -0.166277 -0.395065
-0.446279 0.153112 -0.412247
0.197401 -0.563376 -0.395065
-0.110286 0.247534 -0.412247
0.157315 -0.217813 -0.412247
0.027395 -0.369953 -0.412247
0.265307 -0.283281 -0.412247
-0.235326 0.527327 -0.395065
0.172274 -0.240125 -0.412247
0.326738 -0.47175 -0.412247
0.224376 0.315503 -0.412247
0.183986 -0.610466 -0.395065
-0.429048 0.147655 -0.395065
-0.130331 -0.009343 -0.395065
0.110856 0.085461 -0.395065
-0.396486 -0.424379 -0.412247
0.377772 -0.543924 -0.412247
0.098253 0.265651 -0.412247
0.07285 0.135173 -0.395065
0.111962 0.040151 -0.395065
-0.280636 -0.590313 -0.395065
-0.233347 -0.14668 -0.412247
0.036262 -0.559098 -0.395065
-0.178521 0.555394 -0.395065
-0.426326 -0.118811 -0.395065
0.050996 -0.337275 -0.395065
-0.189932 0.115469 -0.412247
0.024842 -0.339216 -0.412247
0.286264 -0.378847 -0.412247
0.059876 0.112737 -0.395065
-0.304323 -0.134 -0.395065
-0.252739 -0.623744 -0.412247
0.217858 -0.393796 -0.395065
0.367606 0.168755 -0.412247
-0.300326 0.089818 -0.395065
-0.35448 0.034317 -0.395065
0.150503 -0.615354 -0.395065
-0.249651 -0.360974 -0.412247
-0.398261 0.590008 -0.395065
-0.318354 0.068871 -0.395065
-0.187127 0.213988 -0.412247
0.039423 -0.062884 -0.412247
-0.378292 -0.600417 -0.412247
0.125318 -0.323479 -0.395065
0.339561 -0.533301 -0.412247
-0.040118 0.070121 -0.395065
0.126157 -0.507978 -0.412247
-0.23198 -0.255631 -0.395065
0.183952 -0.398849 -0.395065
0.224207 -0.194294 -0.412247
-0.168929 0.395213 -0.395065
-0.104939 -0.20863 -0.395065
-0.449775 0.629304 -0.395065
0.173228 0.374 -0.412247
-0.262144 -0.319486 -0.395065
0.000755 -0.439788 -0.412247
-0.389234 0.015 -0.395065
0.121981 0.415138 -0.395065
0.138584 0.341106 -0.412247
-0.271579 0.489187 -0.395065
-0.428979 0.546011 -0.395065
0.282816 -0.432684 -0.395065
-0.308696 0.175846 -0.412247
0.375378 -0.333525 -0.395065
-0.116631 0.148701 -0.412247
-0.151347 0.546125 -0.412247
0.173814 0.325865 -0.412247
0.199266 0.367895 -0.395065
0.006612 -0.023728 -0.412247
0.227279 0.059167 -0.412247
0.047442 0.260036 -0.412247
0.323405 -0.414893 -0.395065
-0.163383 0.29529 -0.395065
0.366719 -0.221278 -0.395065
-0.318558 -0.199054 -0.395065
0.288007 0.170059 -0.412247
0.162836 0.582269 -0.395065
0.295714 0.502184 -0.412247
0.41023 -0.053701 -0.412247
-0.24694 0.393138 -0.395065
-0.316491 -0.605078 -0.412247
0.369951 0.552107 -0.412247
-0.226799 0.404133 -0.412247
0.112842 -0.25396 -0.395065
-0.194422 -0.200328 -0.395065
-0.061265 -0.365149 -0.395065
0.256086 -0.536373 -0.395065
-0.295051 -0.421539 -0.395065
-0.423351 0.623221 -0.395065
0.244246 -0.513557 -0.395065
0.106012 0.217601 -0.395065
0.168583 0.192529 -0.412247
-0.145807 -0.195961 -0.412247
-0.32161 -0.03625 -0.395065
0.312496 -0.104551 -0.412247
0.008152 0.420005 -0.395065
-0.371244 -0.310525 -0.412247
0.063158 0.275903 -0.395065
-0.40127 -0.260711 -0.412247
0.09293 -0.364461 -0.412247
-0.039366 0.273148 -0.412247
-0.393336 0.498285 -0.412247
0.158393 0.29141 -0.395065
0.272794 0.279185 -0.412247
0.045303 0.007206 -0.395065
0.415625 0.407741 -0.395065
0.089265 0.561194 -0.412247
-0.445216 -0.061737 -0.412247
0.381245 0.49165 -0.395065
-0.058444 0.150214 -0.395065
-0.243189 -0.180138 -0.395065
-0.388724 0.345068 -0.412247
0.366531 -0.587643 -0.395065
0.331083 0.037185 -0.412247
-0.316421 -0.562996 -0.395065
-0.017475 0.249108 -0.395065
0.136965 -0.372143 -0.412247
-0.226348 -0.09647 -0.412247
0.336147 -0.324761 -0.395065
0.240162 0.506749 -0.395065
0.401552 0.377824 -0.412247
0.146681 0.37423 -0.395065
-0.133066 0.331801 -0.395065
-0.016853 0.401801 -0.412247
-0.176123 -0.296777 -0.395065
-0.002008 0.46308 -0.412247
-0.358343 -0.407163 -0.412247
0.120357 0.055901 -0.412247
0.360912 0.514533 -0.412247
-0.104677 0.476304 -0.412247
0.03273 -0.128101 -0.395065
-0.019611 -0.359085 -0.412247
0.233212 -0.444817 -0.395065
-0.05174 -0.609192 -0.395065
-0.435248 0.233343 -0.395065
-0.011459 0.094741 -0.395065
-0.220672 -0.433948 -0.395065
0.004715 -0.602719 -0.110859
0.294611 -0.602719 0.011423
-0.250886 -0.602719 0.070592
-0.264513 -0.602719 -0.25573
0.01667 -0.602719 0.149643
0.265426 -0.602719 -0.235394
0.067992 -0.602719 -0.29725
-0.178922 -0.602719 -0.095389
0.124154 -0.602719 0.021082
-0.347979 -0.602719 -0.109093
-0.081109 -0.602719 -0.247336
-0.14923 -0.602719 0.185231
0.162801 -0.602719 -0.122759
-0.392183 -0.602719 -0.337872
-0.095271 -0.602719 0.048407
-0.037118 -0.602719 0.298717
0.371113 -0.602719 0.262048
-0.194426 -0.602719 -0.37933
0.3318 -0.602719 -0.121195
-0.389435 -0.602719 0.140315
0.164533 -0.602719 0.142446
0.336432 -0.602719 0.129051
0.134708 -0.602719 0.276313
0.209376 -0.602719 -0.338583
-0.374896 -0.602719 0.021771
0.359526 -0.602719 -0.28982
0.080109 -0.602719 -0.190284
0.009822 -0.602719 0.044234
-0.376083 -0.602719 0.298471
0.390167 -0.602719 -0.026613
-0.271414 -0.602719 -0.029367
-0.267869 -0.602719 0.314371
-0.293579 -0.602719 -0.374325
-0.010172 -0.602719 -0.357256
-0.252706 -0.602719 0.169088
-0.087137 -0.602719 -0.061864
0.162784 -0.602719 -0.241536
0.209225 -0.602719 -0.033723
-0.385091 -0.602719 -0.241711
0.42187 -0.602719 0.074785
-0.174372 -0.602719 -0.232496
-0.112729 -0.602719 -0.336476
0.050571 -0.602719 0.2388
-0.273993 -0.602719 -0.164494
-0.17345 -0.602719 0.00297
-0.051658 -0.602719 0.210294
0.24221 -0.602719 0.099165
0.254037 -0.602719 0.307624
-0.067094 -0.602719 -0.15833
-0.168494 -0.602719 0.101557
0.00022 -0.602719 -0.216928
0.357929 -0.602719 -0.206193
0.094514 -0.602719 -0.075276
-0.123124 -0.602719 0.263345
0.06456 -0.602719 0.320564
0.244952 -0.602719 -0.158197
0.093584 -0.602719 0.094649
0.279582 -0.602719 0.182624
0.285497 -0.602719 -0.309315
-0.018508 -0.602719 -0.025302
0.088301 -0.602719 0.167729
-0.187729 -0.602719 -0.304287
-0.051407 -0.602719 0.125417
0.40065 -0.602719 -0.14815
-0.103099 -0.602719 0.335289
0.371409 -0.602719 0.190806
0.279669 -0.602719 -0.073241
0.133793 -0.602719 -0.323102
0.186789 -0.602719 0.219035
0.05811 -0.602719 -0.379449
-0.256829 -0.602719 -0.097022
-0.413749 -0.602719 0.217097
-0.312126 -0.602719 0.101962
-0.395253 -0.602719 -0.06036
-0.346612 -0.602719 -0.185979
-0.332871 -0.602719 -0.284198
-0.028592 -0.602719 -0.292785
-0.342978 -0.602719 0.186712
-0.337667 -0.602719 -0.031054
-0.163752 -0.602719 -0.158167
-0.418062 -0.602719 -0.121206
-0.212595 -0.602719 0.28269
0.415964 -0.602719 -0.318594
0.161062 -0.602719 0.07204
0.405536 -0.602719 0.138113
0.223839 -0.602719 0.039222
0.192176 -0.602719 0.304635
0.34481 -0.602719 0.046569
0.314563 -0.602719 0.316783
0.042644 -0.602719 -0.024769
0.302099 -0.602719 -0.182586
-0.257859 -0.602719 -0.3254
-0.304922 -0.602719 0.020085
-0.211681 -0.602719 -0.042863
-0.117712 -0.602719 0.135374
-0.132852 -0.602719 -0.275646
-0.124582 -0.602719 -0.200774
0.374973 -0.602719 -0.083061
0.094401 -0.602719 -0.13268
0.400742 -0.602719 -0.244134
-0.298008 -0.602719 0.250361
0.162728 -0.602719 -0.179077
0.296469 -0.602719 0.084148
-0.418295 -0.602719 -0.391795
-0.110184 -0.602719 -0.005575
-0.436057 -0.602719 0.290888
0.230395 -0.602719 -0.279029
0.216713 -0.602719 -0.108003
-0.198603 -0.602719 0.155856
0.218851 -0.602719 0.151765
0.060504 -0.602719 -0.241753
0.154973 -0.602719 -0.02501
-0.112985 -0.602719 -0.129538
0.070181 -0.602719 0.022377
0.221889 -0.602719 0.259712
-0.35512 -0.602719 0.249063
0.425896 -0.602719 0.272231
-0.411442 -0.602719 0.091634
-0.17311 -0.602719 0.246687
-0.006097 -0.602719 0.256212
-0.045444 -0.602719 0.03318
-0.222091 -0.602719 -0.166969
-0.2233 -0.602719 0.340183
0.019423 -0.602719 0.098264
-0.219388 -0.602719 0.025619
0.321203 -0.602719 -0.043314
0.315668 -0.602719 -0.263598
0.411784 -0.602719 0.02506
0.045246 -0.602719 -0.14392
0.008949 -0.602719 0.319178
0.393595 -0.602719 -0.363264
-0.340482 -0.602719 -0.349639
0.164012 -0.602719 -0.362766
0.044569 -0.602719 -0.074514
-0.416283 -0.602719 -0.198852
-0.1437 -0.602719 -0.060797
-0.108323 -0.602719 0.212728
0.23591 -0.602719 0.205356
-0.241456 -0.602719 0.118743
0.093814 -0.602719 0.216667
0.277143 -0.602719 0.13229
-0.058252 -0.602719 -0.357507
-0.294069 -0.602719 -0.21785
0.212415 -0.602719 -0.234598
0.349094 -0.602719 -0.336559
-0.39816 -0.602719 -0.287596
-0.153749 -0.602719 0.306012
-0.380344 -0.602719 -0.149973
0.333037 -0.602719 0.228763
0.280942 -0.602719 -0.357945
-0.232269 -0.602719 0.240021
0.000991 -0.602719 -0.159702
0.020187 -0.602719 0.203338
-0.077349 -0.602719 0.249287
-0.298592 -0.602719 0.146446
-0.186748 -0.602719 0.058942
-0.029695 -0.602719 0.08463
0.42082 -0.602719 -0.085254
0.254031 -0.602719 -0.024803
0.283555 -0.602719 0.255702
-0.045652 -0.602719 -0.118409
-0.337209 -0.602719 0.05184
-0.212023 -0.602719 -0.257197
-0.420955 -0.602719 -0.01212
-0.280388 -0.602719 0.209211
0.187737 -0.602719 -0.299455
0.147485 -0.602719 0.19816
0.269103 -0.602719 -0.120989
0.130057 -0.602719 -0.209081
0.02934 -0.602719 -0.337291
0.172635 -0.602719 0.015467
0.056479 -0.602719 0.12183
0.362569 -0.602719 0.093903
-0.068194 -0.602719 -0.202055
-0.312043 -0.602719 0.291706
0.401093 -0.602719 -0.200149
-0.201019 -0.602719 0.199359
0.097149 -0.602719 -0.360159
0.216919 -0.602719 -0.191211
-0.306002 -0.602719 -0.060232
-0.287349 -0.602719 -0.294167
0.025198 -0.602719 -0.293556
-0.430561 -0.602719 0.042804
-0.436996 -0.602719 -0.052226
-0.429766 -0.602719 0.169865
-0.034024 -0.602719 0.172432
0.095997 -0.602719 -0.263672
0.083859 -0.602719 -0.019874
0.064562 -0.602719 0.065033
-0.065831 -0.602719 -0.310521
0.412587 -0.602719 0.191409
0.132614 -0.602719 -0.090756
-0.0707 -0.602719 0.082037
0.341201 -0.602719 -0.168693
0.341105 -0.602719 0.005922
-0.135683 -0.602719 0.047659
0.268359 -0.602719 0.055686
0.432043 -0.602719 -0.272255
0.197454 -0.602719 -0.073816
-0.210396 -0.602719 -0.336192
-0.15176 -0.602719 -0.337506
0.440048 -0.602719 -0.050845
-0.430183 -0.602719 0.125754
-0.435011 -0.602719 -0.299354
-0.094675 -0.602719 0.289515
0.31645 -0.602719 -0.084619
0.124041 -0.602719 0.062301
-0.22156 -0.602719 -0.082768
0.029692 -0.602719 -0.192912
-0.245249 -0.602719 -0.002123
0.257102 -0.602719 0.013522
-0.319307 -0.602719 -0.133356
-0.08244 -0.602719 -0.099128
0.235743 -0.602719 -0.060137
-0.069555 -0.602719 0.15813
0.239008 -0.602719 -0.31535
-0.204941 -0.602719 0.111679
0.12183 -0.602719 0.241529
-0.335509 -0.602719 0.14353
0.024816 -0.602719 -0.256531
-0.024885 -0.602719 -0.243984
0.020443 -0.602719 0.009015
0.065996 -0.602719 -0.334349
0.13869 -0.602719 0.116516
-0.288081 -0.602719 0.074605
0.004015 -0.602719 -0.074472
-0.346509 -0.602719 -0.250568
-0.409239 -0.602719 0.253089
-0.025507 -0.602719 -0.191452
0.32522 -0.602719 -0.228721
-0.310743 -0.602719 -0.185364
-0.342475 -0.602719 0.310902
-0.374399 -0.602719 0.203751
-0.280839 -0.602719 -0.129419
0.19028 -0.602719 0.173082
0.082492 -0.602719 0.290035
-0.229084 -0.602719 -0.132264
0.433166 -0.602719 -0.175013
0.327434 -0.602719 0.193954
-0.252625 -0.602719 -0.059054
0.387999 -0.602719 0.292779
-0.244663 -0.602719 -0.357834
-0.382965 -0.602719 -0.02771
0.390928 -0.602719 -0.114051
0.337694 -0.602719 0.271746
-0.384039 -0.602719 -0.114445
-0.27126 -0.602719 0.027853
0.111627 -0.602719 -0.176142
0.200627 -0.602719 -0.138407
-0.153336 -0.602719 -0.125386
0.429018 -0.602719 -0.223062
-0.427061 -0.602719 -0.333993
0.104273 -0.602719 -0.305546
0.186631 -0.602719 -0.207108
-0.043419 -0.602719 0.252604
-0.042934 -0.602719 -0.048964
0.366813 -0.602719 -0.245066
-0.246371 -0.602719 0.283453
0.102433 -0.602719 0.127241
-0.369301 -0.602719 0.06211
0.053832 -0.602719 0.2036
-0.018663 -0.602719 0.118151
0.18896 -0.602719 0.254124
0.433348 -0.602719 -0.364044
-0.000426 -0.602719 -0.314753
-0.081807 -0.602719 -0.281426
-0.095217 -0.602719 -0.182806
-0.332818 -0.602719 0.218198
0.236561 -0.602719 -0.35744
-0.032779 -0.602719 -0.148851
0.130136 -0.602719 -0.360806
-0.345214 -0.602719 -0.314733
0.40083 -0.602719 -0.059091
-0.234164 -0.602719 -0.197598
-0.107691 -0.602719 0.166634
-0.019548 -0.602719 0.013067
-0.130148 -0.602719 -0.157245
0.033523 -0.602719 0.266555
-0.417298 -0.602719 -0.244654
-0.379294 -0.602719 -0.369352
0.184816 -0.602719 -0.267354
-0.300809 -0.602719 -0.011838
-0.325041 -0.602719 -0.380961
0.141055 -0.602719 -0.146414
-0.280875 -0.602719 0.108935
-0.010242 -0.602719 0.193502
-0.187662 -0.602719 -0.179027
0.372598 -0.602719 0.008391
0.367271 -0.602719 -0.150931
-0.448834 -0.602719 0.342405
0.05403 -0.602719 -0.104408
-0.250478 -0.602719 -0.227855
-0.444799 -0.602719 -0.186861
-0.158618 -0.602719 -0.372703
-0.080147 -0.602719 -0.389443
-0.180572 -0.602719 -0.274235
-0.072672 -0.602719 0.3243
0.100709 -0.602719 -0.233459
-0.384245 -0.602719 0.235489
0.367959 -0.602719 -0.047514
-0.158273 -0.602719 0.156158
-0.41908 -0.602719 -0.079191
-0.312634 -0.602719 0.187868
-0.123486 -0.602719 0.307879
0.44287 -0.602719 0.194982
0.297465 -0.602719 0.048264
0.390628 -0.602719 0.083392
-0.289865 -0.602719 -0.085402
0.303247 -0.602719 0.22687
0.296616 -0.602719 -0.026523
-0.055011 -0.602719 -0.233083
-0.447895 -0.602719 0.002242
0.290456 -0.602719 -0.279105
-0.366302 -0.602719 -0.054307
0.403552 -0.602719 -0.280121
-0.378333 -0.602719 0.167487
-0.077439 -0.602719 0.196297
0.294759 -0.602719 -0.210987
-0.132711 -0.602719 -0.024267
0.33481 -0.602719 -0.38443
0.153005 -0.602719 -0.269103
0.158776 -0.602719 -0.30247
0.264265 -0.602719 -0.179816
0.138889 -0.602719 0.304895
-0.243061 -0.602719 0.042832
0.144514 -0.602719 0.04202
0.059803 -0.602719 0.175437
-0.099858 -0.602719 -0.22551
-0.279363 -0.602719 0.179884
0.29696 -0.602719 0.281031
-0.109248 -0.602719 -0.08911
0.422342 -0.602719 0.32095
-0.431452 -0.602719 -0.148367
-0.235103 -0.602719 -0.273978
-0.401074 -0.602719 0.284713
0.171963 -0.602719 -0.149705
-0.377934 -0.602719 0.265992
-0.227924 -0.602719 0.312185
-0.113447 -0.602719 0.070155
0.31962 -0.602719 -0.146779
-0.040132 -0.602719 -0.322316
-0.026629 -0.602719 0.056521
0.253409 -0.602719 -0.083572
0.307783 -0.602719 -0.371828
0.190121 -0.602719 -0.373343
-0.306381 -0.602719 0.048158
-0.153123 -0.602719 -0.295001
0.028396 -0.602719 0.17505
-0.402234 -0.602719 0.01585
0.343145 -0.602719 0.1561
0.009393 -0.602719 0.280375
0.105578 -0.602719 0.191501
-0.174057 -0.602719 0.324926
-0.282198 -0.602719 -0.34908
-0.036472 -0.602719 -0.374531
0.170655 -0.602719 0.097895
-0.447051 -0.602719 -0.081785
0.037516 -0.602719 0.315513
0.310303 -0.602719 0.1079
-0.143098 -0.602719 0.124846
-0.171497 -0.602719 0.285193
-0.447534 -0.602719 -0.233081
0.031659 -0.602719 -0.368737
0.371844 -0.602719 0.048924
0.019229 -0.602719 -0.133768
-0.057809 -0.602719 0.058222
0.236389 -0.602719 0.063192
0.137746 -0.602719 0.089487
-0.063665 -0.602719 0.293693
-0.348298 -0.602719 0.026263
-0.391375 -0.602719 0.109616
0.389869 -0.602719 -0.172724
-0.399142 -0.602719 0.324713
-0.216749 -0.602719 -0.364515
-0.212507 -0.602719 0.051632
0.119899 -0.602719 -0.005352
-0.177687 -0.602719 0.137768
-0.40956 -0.602719 0.187285
-0.18959 -0.602719 0.032486
-0.364724 -0.602719 0.325985
-0.415078 -0.602719 0.147816
0.296828 -0.602719 -0.333182
-0.433966 -0.602719 -0.273027
-0.224963 -0.602719 -0.314433
0.326435 -0.602719 -0.19216
0.223966 -0.602719 0.338755
0.405274 -0.602719 0.16408
0.270471 -0.602719 -0.146919
-0.131901 -0.602719 0.00865
0.219338 -0.602719 0.28552
0.197534 -0.602719 0.137057
-0.33525 -0.602719 -0.005326
-0.442388 -0.602719 0.102989
0.433351 -0.602719 0.050358
-0.149827 -0.602719 -0.195562
0.397475 -0.602719 0.212258
0.107509 -0.602719 0.283946
0.276198 -0.602719 -0.010888
0.092674 -0.602719 0.069018
-0.043734 -0.602719 0.005068
0.161804 -0.602719 -0.216086
-0.144044 -0.602719 0.094501
0.203408 -0.602719 -0.009026
-0.132721 -0.602719 0.205924
0.310723 -0.602719 -0.311432
0.318664 -0.602719 0.071981
-0.019041 -0.602719 -0.084676
-0.11854 -0.602719 -0.059218
0.051924 -0.602719 -0.218072
-0.176769 -0.602719 0.192762
0.349855 -0.602719 -0.082352
0.420738 -0.602719 -0.121806
0.430185 -0.602719 0.133707
0.164333 -0.602719 0.179833
0.111188 -0.602719 -0.38077
0.244692 -0.602719 -0.221839
0.027561 -0.602719 -0.101512
0.01831 -0.602719 0.073621
0.363498 -0.602719 0.290559
-0.01398 -0.602719 0.327908
-0.282801 -0.602719 -0.052499
0.338708 -0.602719 0.104712
0.186998 -0.602719 0.280762
0.408608 -0.602719 -0.382515
-0.244199 -0.602719 -0.1514
0.071196 -0.602719 -0.16759
0.36477 -0.602719 -0.182799
0.055425 -0.602719 -0.193954
0.157116 -0.602719 0.288738
-0.169554 -0.602719 0.222611
0.44022 -0.602719 -0.32047
0.050598 -0.602719 0.008003
-0.205688 -0.602719 -0.138725
0.22857 -0.602719 -0.08332
0.188731 -0.602719 -0.239718
-0.316522 -0.602719 -0.346909
0.128198 -0.602719 0.326466
0.270701 -0.602719 -0.21078
0.079528 -0.602719 -0.222335
-0.357206 -0.602719 -0.144134
-0.017668 -0.602719 -0.130402
0.018877 -0.602719 -0.025389
0.111847 -0.602719 -0.332208
-0.372324 -0.602719 -0.172137
-0.425031 -0.602719 -0.174165
0.423618 -0.602719 -0.294117
-0.196751 -0.602719 0.000995
-0.403689 -0.602719 -0.150961
-0.200048 -0.602719 0.342453
0.16568 -0.602719 0.229016
-0.083934 -0.602719 -0.36648
-0.111724 -0.602719 0.189547
-0.379762 -0.602719 -0.318223
0.180182 -0.602719 -0.008306
0.101619 -0.602719 -0.097387
0.295969 -0.602719 0.166316
-0.210632 -0.602719 -0.234132
0.273637 -0.602719 0.029534
0.111975 -0.602719 0.040582
-0.339375 -0.602719 -0.164219
-0.133654 -0.602719 -0.351568
-0.155496 -0.602719 0.017205
0.060251 -0.602719 0.295368
-0.428204 -0.602719 0.074657
-0.281502 -0.602719 0.000408
0.395446 -0.602719 0.009027
0.210565 -0.602719 -0.299369
-0.357057 -0.602719 0.151036
0.296249 -0.602719 -0.057572
-0.059586 -0.602719 0.178584
-0.051219 -0.602719 -0.290411
-0.269092 -0.602719 -0.277991
0.470125 0.056053 0.37812
0.4693 0.714559 0.352879
0.4778 0.546402 0.343756
0.419057 -0.083967 0.343756
0.477907 -0.3057 0.370637
0.46807 0.361332 0.37812
0.475195 0.634358 0.37812
0.477907 0.185022 0.375256
0.473243 -0.031713 0.37812
0.441246 -0.46089 0.37812
0.409179 0.665584 0.361057
0.409179 0.041825 0.360399
0.477907 -0.101468 0.363407
0.477907 0.121647 0.365956
0.477907 0.478917 0.362984
0.438648 0.596332 0.343756
0.409369 -0.379715 0.343756
0.423565 -0.015311 0.343756
0.422951 0.455189 0.343756
0.415016 -0.501491 0.343756
0.409179 -0.177488 0.364822
0.477907 0.30444 0.372895
0.409179 0.199432 0.346003
0.409179 0.297826 0.363533
0.468896 0.425496 0.37812
0.477907 -0.420912 0.363696
0.409179 -0.259066 0.359652
0.417002 0.249088 0.343756
0.477563 -0.46564 0.343756
0.477907 -0.353108 0.366266
0.443766 0.150515 0.37812
0.47482 -0.260403 0.343756
0.427144 0.714559 0.371585
0.440955 0.32523 0.343756
0.427856 -0.402879 0.37812
0.444846 -0.066592 0.37812
0.473676 0.257354 0.37812
0.409415 0.407866 0.343756
0.45166 0.510872 0.343756
0.409179 0.493003 0.361726
0.469428 -0.000162 0.343756
0.470479 -0.234887 0.37812
0.451956 -0.177495 0.37812
0.409179 0.144049 0.346658
0.445265 0.678181 0.343756
0.466978 -0.205392 0.343756
0.409179 -0.435878 0.354534
0.466404 0.595041 0.37812
0.409179 0.569956 0.346023
0.409179 0.626264 0.359619
0.409179 0.10268 0.347523
0.418713 -0.619614 0.343756
0.409179 -0.134768 0.360364
0.449958 0.170688 0.343756
0.435809 -0.31138 0.343756
0.409179 -0.547763 0.353795
0.471788 0.531457 0.37812
0.441819 -0.652155 0.343756
0.42142 -0.205648 0.343756
0.470125 0.018989 0.37812
0.477486 -0.659992 0.34832
0.476314 -0.57336 0.343756
0.475877 0.36664 0.343756
0.444613 0.107684 0.37812
0.442693 0.422428 0.343756
0.420145 0.534735 0.343756
0.444272 0.026474 0.343756
0.477907 -0.155699 0.371055
0.432459 -0.16253 0.343756
0.413623 -0.048003 0.343756
0.457097 -0.124113 0.37812
0.477907 -0.483016 0.372742
0.456555 -0.497879 0.343756
0.439766 0.574652 0.37812
0.409179 -0.291232 0.345975
0.463668 0.455933 0.343756
0.477907 0.148567 0.346916
0.477907 0.692934 0.376048
0.417474 0.700718 0.343756
0.448326 0.209576 0.343756
0.449088 -0.427185 0.37812
0.477907 0.68011 0.346503
0.4679 0.403422 0.343756
0.419214 0.08941 0.37812
0.467218 -0.294072 0.343756
0.477907 -0.626465 0.359205
0.429186 0.418516 0.37812
0.476223 -0.396808 0.343756
0.450315 0.275754 0.37812
0.477907 0.611938 0.356565
0.409179 -0.321167 0.354689
0.464666 0.396758 0.37812
0.433654 0.482088 0.343756
0.460538 0.453136 0.37812
0.409179 0.074184 0.344181
0.410363 0.600106 0.343756
0.409179 0.461452 0.376599
0.431967 -0.265021 0.343756
0.438888 0.013714 0.37812
0.431246 0.652936 0.343756
0.477907 0.296634 0.345931
0.411516 0.328633 0.343756
0.477907 0.510885 0.353422
0.477907 0.212168 0.345012
0.438747 0.621958 0.37812
0.429167 -0.201209 0.37812
0.439837 0.690979 0.37812
0.410766 0.514822 0.37812
0.477907 0.658288 0.362962
0.477907 0.095097 0.372091
0.425805 0.289761 0.343756
0.468834 -0.341209 0.343756
0.424188 -0.476356 0.343756
0.409179 -0.228936 0.346578
0.409179 0.42774 0.363586
0.461934 -0.237826 0.343756
0.449445 0.301682 0.37812
0.423015 0.375118 0.37812
0.47096 -0.435837 0.343756
0.427809 0.382239 0.343756
0.460297 -0.037008 0.343756
0.477907 -0.598858 0.345164
0.477907 -0.07754 0.372393
0.409179 0.353066 0.368608
0.437476 0.04311 0.37812
0.451406 -0.283908 0.37812
0.444632 0.338378 0.37812
0.477907 -0.180456 0.345023
0.477907 -0.54917 0.349554
0.458901 -0.2569 0.37812
0.421136 -0.072781 0.37812
0.477907 0.386477 0.360358
0.477907 0.242743 0.353457
0.449879 -0.04282 0.37812
0.444457 -0.067757 0.343756
0.435808 -0.513931 0.343756
0.426483 0.164812 0.343756
0.463856 0.594727 0.343756
0.420234 -0.271552 0.37812
0.409179 -0.051819 0.367036
0.477907 0.189393 0.35185
0.477907 0.634551 0.350466
0.419791 0.586792 0.37812
0.42329 0.673007 0.37812
0.409179 -0.388992 0.367851
0.409179 0.5603 0.375184
0.409179 0.515874 0.35188
0.449747 -0.225281 0.37812
0.413031 -0.154175 0.37812
-0.484279 -0.458616 0.34529
-0.484279 -0.076739 0.367915
-0.471691 -0.335792 0.37812
-0.484279 0.406164 0.373501
-0.478228 0.714559 0.346237
-0.415552 -0.138141 0.35487
-0.483929 -0.547964 0.343756
-0.475955 0.280747 0.343756
-0.415552 0.235295 0.360744
-0.423886 -0.385192 0.343756
-0.484279 0.102118 0.363504
-0.484279 0.600025 0.375474
-0.422837 0.33189 0.343756
-0.415552 -0.47072 0.351249
-0.484279 -0.153575 0.370193
-0.420257 -0.203909 0.343756
-0.426193 -0.581056 0.343756
-0.484279 -0.611158 0.355075
-0.484279 0.534825 0.369466
-0.415552 -0.3187 0.357468
-0.484279 0.338848 0.353106
-0.484279 0.465371 0.368933
-0.484279 -0.392697 0.367014
-0.433789 0.589194 0.343756
-0.448616 0.143134 0.343756
-0.48064 -0.215618 0.343756
-0.415552 -0.043252 0.364213
-0.415552 0.44299 0.349212
-0.439221 0.69454 0.37812
-0.422565 0.285622 0.37812
-0.433319 0.524393 0.343756
-0.484279 -0.27239 0.364284
-0.463966 0.209613 0.37812
-0.443001 0.083043 0.343756
-0.454623 -0.643224 0.37812
-0.415823 0.039369 0.343756
-0.424038 -0.629567 0.343756
-0.441549 -0.095299 0.37812
-0.458204 -0.027989 0.37812
-0.483552 0.679105 0.37812
-0.419967 0.183517 0.343756
-0.484279 0.056894 0.377592
-0.441467 0.477716 0.343756
-0.457401 0.235557 0.343756
-0.465446 0.309068 0.37812
-0.421938 -0.512833 0.37812
-0.484279 -0.501549 0.347918
-0.443609 0.430188 0.37812
-0.422339 -0.079448 0.343756
-0.480685 -0.576478 0.37812
-0.469635 0.639709 0.37812
-0.415552 -0.278207 0.345005
-0.484279 0.24697 0.372654
-0.472132 -0.11986 0.343756
-0.415552 0.358051 0.373534
-0.466479 0.011466 0.343756
-0.484038 0.175343 0.37812
-0.41989 -0.610537 0.37812
-0.458777 -0.408527 0.343756
-0.433905 0.714559 0.345116
-0.438648 0.2985 0.343756
-0.448469 -0.287004 0.37812
-0.478153 -0.428947 0.37812
-0.415552 0.476864 0.369897
-0.435257 0.163288 0.37812
-0.415552 0.632654 0.348408
-0.484279 -0.306796 0.354437
-0.484279 0.375445 0.355491
-0.462639 0.546384 0.343756
-0.447271 -0.454966 0.343756
-0.476973 0.586508 0.343756
-0.444666 -0.235938 0.343756
-0.4832 -0.659992 0.366476
-0.48374 -0.470883 0.37812
-0.451458 0.470551 0.37812
-0.455064 -0.068743 0.343756
-0.418146 -0.547664 0.343756
-0.484279 0.154065 0.351273
-0.460272 0.275318 0.37812
-0.474763 0.071007 0.343756
-0.467541 0.506992 0.37812
-0.416553 0.005824 0.343756
-0.415552 -0.437518 0.355273
-0.452291 -0.393385 0.37812
-0.438682 0.250374 0.37812
-0.450903 0.398495 0.37812
-0.437249 -0.129332 0.37812
-0.44755 0.042018 0.343756
-0.458892 0.578399 0.37812
-0.461096 0.083876 0.37812
-0.447754 0.531589 0.37812
-0.415552 -0.2873 0.375181
-0.484279 -0.041675 0.367043
-0.431897 -0.483027 0.37812
-0.415552 -0.23349 0.360294
-0.429262 -0.022653 0.343756
-0.444194 -0.361818 0.343756
-0.484279 0.000731 0.366391
-0.422942 0.407856 0.343756
-0.457437 0.327232 0.343756
-0.484279 -0.364239 0.35011
-0.455033 -0.152961 0.343756
-0.428145 -0.507566 0.343756
-0.467671 -0.129802 0.37812
-0.415552 -0.543528 0.374853
-0.415552 0.042588 0.3734
-0.428149 -0.066303 0.37812
-0.484279 -0.10621 0.371063
-0.417002 0.278333 0.343756
-0.445641 -0.596579 0.37812
-0.439368 0.21248 0.343756
-0.460694 -0.244327 0.37812
-0.457079 -0.559302 0.343756
-0.484279 0.224581 0.34446
-0.484279 0.562725 0.362721
-0.484279 -0.183629 0.375959
-0.468871 -0.285089 0.343756
-0.436742 0.630432 0.37812
-0.429042 -0.166017 0.343756
-0.475589 -0.431629 0.343756
-0.484279 0.426984 0.354324
-0.457879 0.510377 0.343756
-0.421847 -0.657747 0.343756
-0.415552 0.699421 0.364222
-0.417845 -0.38844 0.37812
-0.416737 -0.107749 0.37812
-0.456597 -0.491959 0.343756
-0.484279 0.306794 0.345184
-0.41893 -0.106572 0.343756
-0.484279 -0.545623 0.370649
-0.472228 -0.186218 0.343756
-0.467992 0.446473 0.37812
-0.484279 -0.359434 0.376246
-0.422174 0.098931 0.343756
-0.415552 -0.012013 0.371421
-0.415552 0.502838 0.367143
-0.484279 -0.633149 0.368582
-0.45819 -0.030941 0.343756
-0.415552 0.181177 0.378058
-0.455363 -0.314762 0.37812
-0.475558 0.131248 0.343756
-0.470006 -0.386082 0.343756
-0.474409 -0.611468 0.37812
-0.415552 0.452183 0.373974
-0.426382 0.388181 0.37812
-0.479749 -0.219576 0.37812
-0.45105 -0.645386 0.343756
-0.424058 0.143955 0.343756
-0.466953 0.554781 0.37812
-0.433379 0.362875 0.343756
-0.484279 0.46639 0.344822
-0.461529 0.16675 0.37812
-0.444348 0.107985 0.343756
-0.474981 0.033351 0.37812
-0.415552 0.378618 0.357801
-0.451802 0.105636 0.37812
-0.484279 -0.24784 0.360714
-0.476902 0.658787 0.343756
-0.451412 0.192235 0.343756
-0.484279 -0.410242 0.348373
-0.415552 -0.638942 0.371199
-0.429707 0.243083 0.343756
-0.478364 0.122966 0.37812
-0.484279 -0.129463 0.360995
-0.415552 -0.495793 0.363785
-0.484279 -0.578453 0.355431
-0.447896 -0.621282 0.37812
-0.415552 0.331015 0.376792
-0.434049 0.558211 0.37812
-0.451506 0.279767 0.343756
-0.173636 -0.623839 0.343756
-0.32803 -0.659992 0.371776
0.343511 -0.659282 0.37812
0.183767 -0.659992 0.348752
-0.08082 -0.6557 0.37812
0.018899 -0.659992 0.355036
-0.240272 -0.659992 0.375491
0.271273 -0.659992 0.357555
-0.365592 -0.591264 0.369919
-0.40716 -0.659992 0.377553
0.107488 -0.659992 0.353446
0.370458 -0.594665 0.343756
0.018705 -0.591264 0.369492
0.141807 -0.591264 0.34589
0.403124 -0.659818 0.343756
-0.317513 -0.604068 0.343756
-0.13086 -0.659992 0.344776
-0.036467 -0.622294 0.37812
0.277117 -0.591264 0.35524
0.224968 -0.628346 0.343756
-0.281557 -0.659992 0.344276
-0.367726 -0.648486 0.343756
0.205567 -0.597993 0.37812
-0.133978 -0.617203 0.37812
-0.02864 -0.659992 0.349019
-0.203306 -0.659992 0.348112
0.059414 -0.644066 0.37812
0.215772 -0.655978 0.37812
0.346861 -0.633936 0.343756
-0.036237 -0.597694 0.343756
-0.157527 -0.659992 0.377378
0.13861 -0.621102 0.37812
0.181823 -0.61359 0.343756
0.311983 -0.659992 0.351419
-0.147388 -0.591264 0.344264
-0.072558 -0.626641 0.343756
0.106865 -0.591264 0.377816
-0.239318 -0.609514 0.37812
0.181184 -0.635626 0.37812
0.13653 -0.636904 0.343756
0.046274 -0.625985 0.343756
-0.073994 -0.591264 0.356157
-0.249895 -0.640359 0.343756
-0.382408 -0.611446 0.343756
0.322408 -0.591264 0.364868
0.256617 -0.634593 0.37812
0.301924 -0.621935 0.343756
-0.281742 -0.591264 0.344369
0.062555 -0.591264 0.3529
0.026665 -0.634114 0.37812
0.130998 -0.657739 0.37812
0.385701 -0.630843 0.343756
0.321423 -0.621657 0.37812
-0.20746 -0.646891 0.37812
0.101615 -0.628508 0.37812
-0.296082 -0.659755 0.37812
0.384891 -0.659992 0.370607
-0.108714 -0.591264 0.376607
-0.171366 -0.658873 0.343756
-0.17714 -0.634474 0.37812
-0.016174 -0.654764 0.37812
-0.37519 -0.659992 0.37499
-0.311234 -0.648481 0.343756
0.166644 -0.591264 0.365135
-0.126372 -0.659992 0.376222
0.057154 -0.65518 0.343756
-0.259983 -0.633479 0.37812
-0.006986 -0.591264 0.351121
-0.207332 -0.593106 0.37812
-0.322685 -0.604023 0.37812
0.363182 -0.659538 0.343756
0.108323 -0.625972 0.343756
-0.251844 -0.610237 0.343756
-0.057699 -0.659992 0.355136
-0.013421 -0.635249 0.343756
0.256524 -0.591264 0.376044
0.229623 -0.613331 0.37812
0.25131 -0.638569 0.343756
0.084028 -0.647211 0.343756
0.314965 -0.65219 0.37812
-0.134027 -0.61568 0.343756
-0.26854 -0.659992 0.376814
0.235808 -0.659992 0.359873
-0.290406 -0.629542 0.37812
0.100933 -0.658072 0.37812
-0.230488 -0.635752 0.37812
-0.179346 -0.608994 0.37812
0.167508 -0.6571 0.37812
0.014308 -0.603882 0.343756
0.285998 -0.595653 0.37812
0.275735 -0.618846 0.37812
-0.351351 -0.630074 0.343756
0.245235 -0.613777 0.343756
-0.400435 -0.635495 0.343756
0.189213 -0.591264 0.349798
0.085422 -0.591264 0.360685
0.203659 -0.627482 0.37812
-0.039713 -0.621276 0.343756
-0.269833 -0.62574 0.343756
0.282837 -0.659524 0.37812
0.289865 -0.655601 0.343756
0.137114 -0.659992 0.347942
-0.085501 -0.593098 0.37812
0.310444 -0.591264 0.344872
0.082673 -0.607679 0.37812
-0.225459 -0.659992 0.354208
-0.219323 -0.624807 0.343756
0.031168 0.714559 0.347282
-0.207722 0.714559 0.362593
0.163275 0.714559 0.348056
-0.334002 0.707433 0.343756
0.324619 0.696958 0.37812
-0.118991 0.714559 0.344181
-0.020608 0.648096 0.343756
0.104985 0.645832 0.348062
0.241156 0.673933 0.343756
-0.248905 0.6496 0.343756
-0.046981 0.714559 0.346003
-0.156902 0.653891 0.343756
-0.2734 0.714559 0.370743
0.18238 0.645832 0.349184
-0.323382 0.645832 0.362735
0.090166 0.69793 0.37812
0.366303 0.714559 0.345857
-0.099055 0.645832 0.359178
0.277488 0.714559 0.34393
-0.386476 0.70492 0.37812
0.224491 0.710459 0.37812
-0.37295 0.645832 0.348454
-0.145759 0.689983 0.37812
-0.082357 0.71258 0.37812
0.310589 0.658912 0.343756
0.272654 0.673022 0.37812
-0.283235 0.680303 0.343756
0.059826 0.645832 0.348089
-0.034854 0.686498 0.37812
-0.203414 0.675885 0.343756
0.186736 0.691541 0.37812
-0.406807 0.662992 0.37812
-0.161772 0.707584 0.343756
