-0.498701 0.441208 -0.390557
-0.121575 0.078489 -0.374174
0.304008 -0.253558 -0.390557
-0.118423 0.13571 -0.390557
-0.127006 -0.403958 -0.390557
0.061835 0.507473 -0.374174
-0.449391 -0.511835 -0.390557
-0.086572 -0.51774 -0.374174
0.331653 0.273367 -0.374174
-0.257479 0.545716 -0.374174
0.40282 0.563724 -0.374174
-0.548783 -0.04031 -0.374174
-0.332929 0.265705 -0.374174
-0.461347 0.230993 -0.374174
0.372631 0.313146 -0.374174
-0.200708 -0.035202 -0.374174
-0.354569 -0.194742 -0.374174
0.459052 0.39123 -0.374174
-0.268231 -0.140368 -0.390557
0.541456 -0.307382 -0.374174
-0.10217 -0.066013 -0.374174
-0.513054 0.147299 -0.390557
0.274334 -0.159162 -0.390557
0.18482 -0.216749 -0.390557
-0.093444 0.578985 -0.374174
-0.022628 -0.450091 -0.390557
0.505884 -0.184187 -0.374174
0.16819 -0.027384 -0.390557
0.334503 0.145933 -0.390557
0.115451 0.298143 -0.374174
-0.249932 0.208951 -0.374174
-0.520773 -0.100168 -0.390557
0.267885 0.225278 -0.374174
0.332246 0.600352 -0.374174
0.522223 -0.401241 -0.374174
0.165499 0.589292 -0.374174
-0.426368 -0.212233 -0.374174
0.412473 -0.448045 -0.390557
-0.47839 0.56888 -0.374174
0.040327 -0.358435 -0.390557
-0.137484 -4.3e-05 -0.374174
0.449479 0.605978 -0.374174
-0.301968 0.321763 -0.390557
-0.365272 -0.003675 -0.390557
-0.509432 -0.381488 -0.374174
-0.230609 -0.17627 -0.374174
0.171132 0.379176 -0.374174
0.357812 -0.102446 -0.374174
-0.454181 -0.358807 -0.390557
-0.000242 -0.303457 -0.390557
-0.444856 0.619338 -0.374174
0.193608 -0.456234 -0.374174
0.432491 0.067089 -0.374174
-0.461106 -0.462747 -0.390557
-0.027218 0.492286 -0.390557
-0.491817 0.33764 -0.390557
-0.41515 -0.122107 -0.374174
0.531311 0.222369 -0.374174
-0.073725 0.060232 -0.374174
0.559364 0.360692 -0.374174
-0.52209 0.032632 -0.374174
0.040019 -0.551321 -0.390557
-0.219863 0.131887 -0.390557
0.082205 -0.156151 -0.374174
-0.326345 -0.03978 -0.390557
-0.54813 -0.412824 -0.374174
0.238125 -0.300292 -0.374174
0.133438 -0.080591 -0.390557
0.322905 0.5036 -0.374174
-0.518693 0.395732 -0.390557
0.21923 -0.114956 -0.374174
0.192125 -0.571967 -0.374174
0.263064 0.049271 -0.374174
-0.422027 -0.393005 -0.374174
0.522442 -0.452807 -0.390557
-0.077366 0.237974 -0.374174
-0.51094 -0.445946 -0.390557
0.526653 0.445828 -0.374174
-0.218998 -0.325585 -0.390557
0.547846 -0.248518 -0.390557
0.472069 0.156971 -0.390557
0.394409 -0.519824 -0.390557
0.075001 -0.027148 -0.374174
0.516206 0.122221 -0.374174
-0.327684 0.619725 -0.374174
-0.278735 -0.25795 -0.390557
-0.3781 -0.381401 -0.390557
-0.526372 0.519108 -0.374174
-0.237017 0.264386 -0.390557
0.010676 0.29857 -0.390557
0.108978 0.17334 -0.374174
0.229634 0.646064 -0.376789
-0.503942 0.214246 -0.390557
0.425815 -0.097864 -0.390557
0.101327 0.340435 -0.390557
-0.195556 -0.429936 -0.390557
-0.418164 -0.077784 -0.390557
0.086415 -0.25724 -0.374174
-0.137114 -0.507623 -0.390557
-0.160457 0.196187 -0.390557
-0.090281 -0.118861 -0.390557
-0.03793 0.386867 -0.390557
0.210361 0.539411 -0.374174
0.134438 -0.511858 -0.374174
-0.155596 0.047014 -0.374174
0.476819 -0.46363 -0.390557
0.349527 -0.261171 -0.390557
0.443083 -0.336617 -0.374174
-0.322428 -0.166028 -0.390557
0.023942 0.611964 -0.374174
0.083236 -0.513665 -0.374174
0.397024 0.489031 -0.390557
0.375639 0.214688 -0.390557
0.189498 -0.373984 -0.390557
-0.357389 0.475288 -0.374174
0.259129 0.420456 -0.374174
0.535254 -0.566313 -0.390557
-0.114108 0.338162 -0.374174
-0.198852 0.500654 -0.374174
-0.274619 0.356324 -0.374174
0.392311 0.387888 -0.390557
-0.209662 -0.269238 -0.374174
0.561407 -0.528736 -0.374174
-0.27219 0.451483 -0.374174
0.489711 0.519959 -0.390557
-0.35127 -0.466472 -0.390557
-0.080527 0.158527 -0.374174
-0.508489 0.288809 -0.374174
0.123711 -0.127661 -0.374174
0.523458 0.488488 -0.390557
0.31247 -0.209338 -0.390557
0.059798 0.243175 -0.374174
-0.297026 -0.570984 -0.374174
0.285992 0.266301 -0.374174
0.385615 -0.178393 -0.390557
-0.309255 -0.459185 -0.374174
0.240129 0.381943 -0.390557
-0.147119 0.254296 -0.390557
0.216147 0.05282 -0.374174
-0.522252 -0.213868 -0.390557
-0.028972 -0.053205 -0.390557
-0.078957 0.387955 -0.374174
0.470595 0.562688 -0.390557
-0.492942 0.616562 -0.390557
-0.435082 0.145532 -0.390557
0.26655 0.152997 -0.374174
-0.508179 -0.042721 -0.390557
0.332449 -0.417789 -0.390557
-0.227549 0.417039 -0.374174
-0.303472 0.525024 -0.390557
-0.427124 0.08042 -0.390557
-0.233972 -0.409078 -0.390557
0.485221 -0.524189 -0.374174
-0.545775 0.478526 -0.390557
-0.312991 0.195326 -0.374174
-0.046597 -0.362039 -0.390557
0.243323 0.304038 -0.374174
0.503034 -0.282597 -0.390557
0.142906 -0.307481 -0.374174
0.09166 -0.474038 -0.390557
0.407986 0.099403 -0.390557
-0.370102 0.542427 -0.390557
-0.401354 -0.177141 -0.374174
-0.074296 0.301284 -0.374174
0.274202 -0.043795 -0.374174
-0.451809 0.356008 -0.374174
0.463306 -0.220565 -0.374174
0.325397 0.312535 -0.390557
0.520534 -0.11142 -0.390557
-0.182072 -0.107924 -0.390557
0.264546 -0.257396 -0.374174
-0.039573 -0.204839 -0.374174
0.045704 0.418326 -0.390557
-0.465475 -0.238438 -0.374174
-0.28792 -0.032252 -0.374174
-0.442141 0.519761 -0.390557
0.038542 -0.136706 -0.374174
0.471478 0.066582 -0.390557
-0.290863 0.646064 -0.385375
0.52581 0.630066 -0.390557
0.486808 -0.574953 -0.374174
-0.465469 -0.321705 -0.374174
0.317303 -0.46754 -0.390557
0.441498 -0.133283 -0.374174
0.066162 0.090476 -0.374174
-0.448252 -0.176553 -0.374174
0.200387 0.302837 -0.374174
-0.327311 -0.542155 -0.374174
-0.039202 0.532324 -0.390557
0.419145 0.305651 -0.390557
0.139042 0.640389 -0.374174
-0.082863 -0.029109 -0.374174
0.034674 -0.319105 -0.374174
0.359889 0.476248 -0.374174
0.040024 0.324324 -0.374174
-0.028401 0.339051 -0.374174
0.181977 -0.141583 -0.374174
-0.424668 0.480366 -0.390557
-0.362976 0.165449 -0.390557
0.443752 0.478636 -0.374174
0.008654 -0.518722 -0.390557
0.087703 0.41769 -0.374174
-0.239451 -0.052393 -0.390557
0.195825 0.121518 -0.374174
0.277428 -0.542703 -0.374174
-0.423232 0.275862 -0.390557
0.488617 -0.058306 -0.390557
0.348004 -0.536086 -0.374174
-0.066171 0.610688 -0.390557
-0.093509 0.480115 -0.390557
-0.536 -0.302953 -0.374174
0.065577 -0.402567 -0.390557
0.316771 0.239311 -0.390557
-0.309419 0.410367 -0.374174
0.426827 0.240029 -0.390557
0.252093 -0.348647 -0.390557
-0.183301 0.399716 -0.374174
0.328959 0.403499 -0.374174
0.514267 -0.012527 -0.374174
0.245292 -0.088916 -0.390557
-0.09805 -0.426576 -0.374174
-0.024462 -0.260119 -0.390557
-0.430563 0.211211 -0.390557
0.462116 0.323449 -0.374174
0.354272 0.043479 -0.374174
-0.001565 -0.18485 -0.390557
-0.024826 0.091379 -0.374174
0.386238 -0.332097 -0.374174
-0.350578 0.09618 -0.374174
-0.176977 -0.573142 -0.390557
-0.237588 0.040212 -0.374174
0.417662 0.201251 -0.390557
-0.007958 -0.000677 -0.374174
-0.392755 -0.282328 -0.374174
-0.381401 -0.101325 -0.374174
-0.299068 0.037148 -0.390557
0.143328 0.54733 -0.374174
-0.085461 -0.312562 -0.390557
0.413688 0.606325 -0.390557
-0.159761 -0.389741 -0.374174
-0.303885 0.586009 -0.374174
0.123136 0.133269 -0.390557
-0.362446 0.646064 -0.389455
0.275119 -0.480334 -0.390557
0.552276 0.126571 -0.390557
0.094873 0.646064 -0.385176
0.279371 0.602141 -0.374174
0.249444 -0.004133 -0.374174
-0.161728 0.430993 -0.390557
0.030182 0.174593 -0.390557
-0.269778 0.288413 -0.374174
0.004678 -0.480051 -0.390557
-0.092848 0.104606 -0.374174
0.095935 0.498801 -0.390557
-0.352945 0.360731 -0.390557
-0.464467 -0.028381 -0.390557
-0.129944 -0.445455 -0.390557
0.227848 -0.219429 -0.390557
0.480088 -0.144071 -0.390557
-0.097466 0.533679 -0.390557
-0.321275 0.443269 -0.390557
-0.081815 -0.38236 -0.390557
0.303441 -0.127744 -0.390557
-0.180625 0.231301 -0.390557
0.348508 0.55827 -0.374174
0.089165 -0.117773 -0.390557
-0.221753 0.228803 -0.390557
-0.335922 0.039897 -0.374174
-0.392186 0.088049 -0.374174
-0.282489 -0.323893 -0.374174
-0.125671 0.227464 -0.374174
0.057472 -0.21324 -0.374174
0.134868 -0.414685 -0.374174
-0.125952 -0.2552 -0.390557
0.540419 -0.211319 -0.390557
-0.169218 -0.012698 -0.390557
0.468431 0.239851 -0.390557
0.388151 -0.243652 -0.390557
-0.01666 -0.096585 -0.374174
0.053778 -0.067895 -0.390557
0.501678 0.027553 -0.390557
-0.486881 0.535961 -0.390557
-0.418423 -0.456597 -0.374174
-0.116719 -0.153415 -0.374174
0.394884 -0.02996 -0.374174
0.184002 0.428546 -0.374174
-0.512341 0.473777 -0.374174
-0.00375 -0.417654 -0.390557
0.402097 -0.480626 -0.374174
0.322337 -0.35515 -0.390557
-0.203182 0.579834 -0.390557
-0.16743 0.479449 -0.374174
0.368543 0.585679 -0.390557
-0.375357 -0.321203 -0.390557
0.061472 0.60133 -0.390557
-0.101526 -0.208492 -0.390557
0.366325 -0.433577 -0.390557
0.149391 -0.206148 -0.390557
0.209061 -0.492202 -0.390557
0.541779 0.393382 -0.374174
0.352507 -0.315243 -0.374174
0.014158 0.506059 -0.374174
0.06657 0.551249 -0.374174
-0.341312 -0.576134 -0.374174
-0.188932 -0.217938 -0.374174
0.276968 0.189473 -0.374174
-0.398389 0.591297 -0.374174
0.404934 0.524861 -0.390557
0.164366 -0.352865 -0.374174
-0.507166 0.181582 -0.374174
-0.060495 0.26673 -0.390557
-0.244086 -0.085566 -0.374174
0.018692 0.036502 -0.390557
-0.540437 0.214012 -0.390557
0.493421 0.633071 -0.374174
0.176947 -0.296103 -0.390557
0.480717 0.296917 -0.390557
0.10935 -0.173786 -0.390557
-0.180237 0.341639 -0.374174
0.529877 0.31027 -0.390557
-0.267535 0.103715 -0.390557
0.191794 0.153475 -0.390557
-0.179432 0.628676 -0.390557
-0.204423 -0.464945 -0.390557
0.402044 -0.075964 -0.374174
-0.181177 0.072486 -0.374174
0.437181 -0.239326 -0.390557
0.115869 0.377175 -0.374174
-0.166849 0.540717 -0.390557
-0.079713 0.190625 -0.390557
-0.246848 -0.486244 -0.374174
-0.125143 0.030387 -0.390557
0.354681 -0.351131 -0.374174
-0.399901 -0.036239 -0.390557
0.436494 0.551195 -0.374174
-0.386123 0.216747 -0.390557
-0.233576 0.450362 -0.390557
0.512446 -0.147886 -0.374174
-0.29902 -0.351078 -0.390557
0.110057 0.045257 -0.374174
-0.050078 0.566324 -0.390557
-0.117071 -0.038028 -0.390557
-0.244765 0.177714 -0.390557
0.256965 -0.124906 -0.390557
0.235869 0.209644 -0.374174
-0.335573 0.538222 -0.374174
-0.289812 -0.224189 -0.390557
-0.492768 0.118706 -0.374174
0.118196 -0.349028 -0.374174
0.241864 -0.43284 -0.374174
0.436932 0.00889 -0.374174
0.266169 0.468331 -0.374174
-0.216955 0.293624 -0.390557
0.107022 -0.056182 -0.374174
0.48661 0.372661 -0.390557
-0.166742 -0.359133 -0.390557
0.395407 0.066339 -0.390557
0.024528 -0.233191 -0.374174
0.068708 -0.308847 -0.390557
0.407694 -0.283087 -0.374174
-0.263607 0.068764 -0.390557
0.41657 -0.175387 -0.374174
-0.422395 -0.308205 -0.390557
-0.461036 0.026176 -0.374174
-0.194736 -0.069827 -0.374174
0.424531 0.397763 -0.374174
0.310785 0.021198 -0.374174
0.408736 0.153061 -0.390557
0.212283 0.612807 -0.390557
-0.311258 0.119557 -0.374174
-0.48167 -0.290587 -0.374174
0.08382 0.266696 -0.390557
-0.034903 0.026619 -0.390557
0.066935 0.47672 -0.390557
0.224855 0.509914 -0.390557
0.449673 -0.366672 -0.390557
-0.069119 -0.267326 -0.390557
-0.313453 -0.399854 -0.390557
0.08213 -0.345906 -0.374174
-0.452958 0.419511 -0.374174
0.338811 0.101557 -0.374174
-0.201746 0.102325 -0.390557
-0.053547 -0.483757 -0.374174
-0.31047 -0.289628 -0.390557
-0.345024 -0.126367 -0.390557
0.046087 -0.097324 -0.374174
0.143441 0.200456 -0.374174
-0.243106 0.637997 -0.390557
0.299846 0.343068 -0.390557
0.26854 -0.32294 -0.374174
0.532563 -0.34058 -0.374174
-0.045666 0.314356 -0.390557
-0.252883 0.14103 -0.390557
-0.244506 0.378953 -0.390557
-0.199102 -0.15556 -0.374174
-0.368611 0.588364 -0.390557
0.116053 0.58238 -0.374174
0.431414 0.635558 -0.390557
0.064665 0.341079 -0.390557
0.512731 -0.08268 -0.374174
-0.49931 -0.169888 -0.374174
0.007524 0.217081 -0.390557
0.52685 -0.533246 -0.374174
-0.513709 -0.410901 -0.390557
0.171923 -0.262204 -0.374174
0.348107 -0.134915 -0.374174
-0.129996 0.593435 -0.374174
0.333886 0.450488 -0.390557
0.388079 0.417089 -0.374174
0.30866 0.582658 -0.390557
0.532522 -0.37186 -0.390557
-0.275326 -0.11176 -0.374174
0.300666 0.143116 -0.390557
0.541332 -0.181588 -0.374174
-0.429749 0.377332 -0.390557
-0.286894 0.490272 -0.374174
0.123383 -0.55444 -0.374174
-0.129349 -0.085813 -0.374174
-0.28495 0.005042 -0.390557
0.146935 0.26178 -0.374174
0.046899 0.367223 -0.374174
-0.501962 0.059413 -0.374174
0.555898 -0.454365 -0.390557
-0.00722 0.460706 -0.390557
0.358665 0.12965 -0.374174
0.46518 0.419682 -0.390557
0.339202 -0.568286 -0.374174
0.509797 0.246414 -0.390557
-0.289485 -0.163401 -0.374174
-0.037484 -0.328998 -0.390557
-0.288468 -0.439114 -0.390557
0.446619 -0.027389 -0.390557
0.443849 0.162911 -0.374174
-0.024914 0.124491 -0.374174
0.351175 0.229776 -0.374174
-0.516379 0.322725 -0.374174
0.324406 -0.102164 -0.390557
0.428197 -0.424035 -0.374174
0.175059 -0.487255 -0.390557
0.316144 0.372155 -0.374174
0.455788 -0.310906 -0.390557
-0.37938 -0.460871 -0.374174
0.003883 0.63818 -0.374174
-0.388641 0.343849 -0.374174
0.249433 0.118826 -0.374174
-0.046977 0.194588 -0.390557
0.126686 -0.284019 -0.390557
0.019701 0.583804 -0.390557
-0.167066 0.168561 -0.374174
0.04689 0.055881 -0.390557
0.547962 0.564607 -0.374174
0.481639 -0.016585 -0.390557
-0.551286 0.587918 -0.390557
-0.481175 -0.383002 -0.390557
-0.159576 -0.1317 -0.374174
0.449319 0.042732 -0.390557
0.199978 -0.020601 -0.390557
0.246512 -0.186491 -0.374174
0.553023 0.159054 -0.390557
0.153955 0.229399 -0.390557
0.154162 -0.56465 -0.374174
-0.008501 0.186837 -0.374174
0.116391 0.444804 -0.390557
0.528045 0.364002 -0.390557
0.171373 0.108107 -0.390557
-0.400764 -0.005147 -0.374174
-0.387818 -0.571655 -0.390557
0.151883 0.000454 -0.390557
0.155926 0.480904 -0.374174
-0.525277 0.117608 -0.390557
-0.12991 0.428851 -0.374174
0.212521 -0.425519 -0.390557
-0.501283 0.585604 -0.390557
-0.425709 -0.264712 -0.390557
-0.378221 0.44338 -0.374174
0.056842 -0.24075 -0.390557
0.202826 0.39598 -0.374174
0.499692 0.436907 -0.390557
-0.353943 0.241643 -0.374174
0.117553 -0.482984 -0.374174
-0.193027 -0.184879 -0.390557
0.002647 -0.339954 -0.374174
-0.44912 0.46806 -0.374174
-0.198002 -0.35075 -0.390557
-0.243931 -0.345457 -0.390557
0.001355 -0.54578 -0.374174
-0.228655 -0.291132 -0.390557
-0.272926 0.194246 -0.390557
-0.450676 -0.053544 -0.374174
-0.352141 -0.078488 -0.374174
-0.255366 -0.570906 -0.374174
-0.147845 -0.424927 -0.374174
-0.481378 0.144765 -0.390557
-0.221685 -0.011351 -0.374174
0.207261 0.190974 -0.390557
0.046513 0.13751 -0.390557
0.378996 -0.4026 -0.374174
0.072496 0.16853 -0.390557
0.126386 -0.232087 -0.390557
0.445679 -0.538227 -0.390557
0.48858 0.183982 -0.390557
0.288225 0.071326 -0.374174
0.317487 -0.07601 -0.374174
0.373017 -0.54622 -0.390557
-0.478939 0.202776 -0.374174
-0.424364 0.63963 -0.390557
0.275226 -0.282148 -0.390557
0.227134 0.449425 -0.390557
-0.339488 0.503162 -0.390557
0.47218 -0.27659 -0.390557
-0.530152 -0.571162 -0.390557
0.219882 -0.334734 -0.374174
-0.329044 0.301396 -0.390557
-0.384229 0.469349 -0.390557
0.366816 -0.006195 -0.390557
-0.438879 -0.432978 -0.374174
-0.237061 -0.142237 -0.390557
0.058647 -0.006247 -0.390557
-0.32151 0.071883 -0.374174
0.169256 0.304253 -0.374174
0.009424 -0.13481 -0.390557
-0.428077 0.114769 -0.374174
0.365012 -0.497858 -0.374174
0.023752 -0.401581 -0.374174
0.017252 0.082295 -0.374174
-0.525733 -0.068269 -0.390557
-0.16298 0.566738 -0.374174
-0.033825 -0.235548 -0.374174
0.176685 0.54278 -0.390557
-0.036206 0.463626 -0.374174
-0.182382 -0.302986 -0.374174
0.399056 0.33029 -0.374174
-0.14337 -0.55553 -0.390557
-0.209744 0.347967 -0.390557
0.001574 -0.253897 -0.374174
-0.483671 -0.103335 -0.374174
0.129058 0.343702 -0.374174
-0.374999 -0.211041 -0.390557
-0.072914 0.432812 -0.374174
0.041317 0.557952 -0.390557
0.50972 -0.214104 -0.390557
0.500505 0.22144 -0.374174
0.260103 0.269656 -0.390557
0.284798 -0.504555 -0.374174
-0.068397 -0.133019 -0.374174
0.543091 -0.015334 -0.390557
0.036465 0.492666 -0.390557
0.38864 0.357394 -0.390557
0.320186 0.473086 -0.374174
0.298569 0.42117 -0.390557
-0.326348 0.158406 -0.390557
0.492185 -0.490118 -0.390557
-0.024204 0.245168 -0.390557
-0.392502 0.267785 -0.374174
0.00314 0.119643 -0.390557
-0.446446 -0.567991 -0.374174
-0.100544 0.212959 -0.390557
-0.171549 0.291439 -0.374174
-0.154285 0.634271 -0.374174
0.221041 0.319791 -0.390557
0.50142 0.148671 -0.390557
0.318339 -0.2829 -0.374174
0.538517 0.338464 -0.374174
-0.019693 0.368783 -0.374174
-0.46948 0.516 -0.374174
-0.135518 -0.284078 -0.390557
-0.540782 0.409139 -0.374174
-0.425256 0.178231 -0.390557
-0.218605 0.484509 -0.390557
0.347601 0.620697 -0.390557
-0.422377 0.008353 -0.390557
-0.534301 0.054993 -0.390557
-0.266533 0.521905 -0.390557
-0.527883 -0.518786 -0.374174
0.219497 -0.555222 -0.390557
0.550695 -0.39602 -0.390557
-0.479498 -0.509134 -0.390557
-0.186918 0.005455 -0.374174
-0.532266 0.178515 -0.390557
0.155301 0.412012 -0.374174
0.559424 0.421175 -0.374174
-0.14201 -0.315821 -0.374174
0.080226 -0.05183 -0.390557
-0.348591 -0.15238 -0.374174
0.192469 0.254679 -0.390557
0.4185 -0.008111 -0.390557
0.149974 0.617848 -0.390557
0.006742 -0.026656 -0.374174
0.335066 -0.38715 -0.374174
0.291444 0.537176 -0.390557
0.223345 -0.071955 -0.374174
0.417286 0.465054 -0.374174
0.006734 -0.445578 -0.390557
0.090872 0.088767 -0.390557
0.257027 0.445339 -0.390557
0.403202 -0.363742 -0.390557
0.468484 -0.244745 -0.390557
0.071818 -0.541709 -0.390557
-0.109735 -0.180048 -0.390557
-0.494894 0.402095 -0.374174
0.476193 0.263211 -0.374174
-0.134827 0.104915 -0.374174
-0.015573 0.318054 -0.390557
-0.109911 0.560488 -0.390557
0.15498 -0.10082 -0.390557
0.452263 -0.464422 -0.374174
-0.388295 0.400233 -0.374174
-0.372355 -0.35251 -0.390557
-0.413115 0.537756 -0.374174
0.102038 -0.406074 -0.374174
0.4925 0.094428 -0.374174
-0.442148 0.590093 -0.374174
0.423195 -0.149368 -0.390557
0.291125 -0.19759 -0.374174
-0.077855 -0.335666 -0.374174
-0.486203 -0.259124 -0.374174
0.19583 -0.121354 -0.390557
0.294105 0.171635 -0.390557
-0.505272 -0.081545 -0.374174
-0.238556 -0.212548 -0.374174
-0.494245 -0.222151 -0.390557
0.124598 -0.392813 -0.390557
0.168638 0.171119 -0.374174
-0.169325 -0.189145 -0.374174
-0.019287 -0.477786 -0.374174
-0.332701 -0.221566 -0.374174
0.347017 -0.06294 -0.390557
-0.34798 -0.34023 -0.374174
0.215024 -0.517531 -0.374174
-0.484489 -0.457676 -0.374174
0.133929 -0.022724 -0.390557
-0.257761 -0.037019 -0.374174
0.137498 0.019502 -0.374174
0.528217 0.59086 -0.374174
0.189583 0.364091 -0.390557
-0.092671 0.35779 -0.390557
0.179354 0.477369 -0.390557
0.473722 -0.193722 -0.374174
0.350139 0.201331 -0.390557
-0.190125 0.472795 -0.390557
-0.083041 -0.079866 -0.390557
0.317829 -0.440869 -0.374174
0.221696 -0.011391 -0.374174
0.050316 0.460074 -0.374174
-0.368234 -0.267509 -0.374174
-0.433966 0.296721 -0.374174
-0.106809 0.460796 -0.374174
-0.222436 0.201055 -0.374174
-0.272583 0.567126 -0.390557
-0.05751 -0.054572 -0.390557
0.454506 0.351583 -0.374174
-0.47511 0.278273 -0.374174
0.22426 -0.137742 -0.390557
0.368668 -0.2745 -0.374174
-0.158763 0.402653 -0.390557
-0.501091 0.087887 -0.374174
-0.045167 -0.131335 -0.390557
0.152771 -0.533603 -0.374174
0.274959 0.127607 -0.390557
-0.106426 0.240755 -0.390557
0.060433 -0.148118 -0.390557
0.382888 0.112557 -0.390557
-0.098739 -0.010806 -0.390557
-0.11294 0.057158 -0.390557
0.010744 0.275559 -0.374174
-0.113372 -0.316863 -0.390557
0.259853 0.026526 -0.390557
-0.452917 -0.392681 -0.374174
-0.440852 -0.533092 -0.374174
0.531302 0.417441 -0.390557
-0.39842 -0.208916 -0.374174
-0.301675 -0.530607 -0.374174
0.243516 -0.242743 -0.390557
-0.331219 0.228108 -0.390557
0.28154 0.288669 -0.390557
0.293871 0.619696 -0.390557
0.283616 -0.410925 -0.374174
0.30021 0.503101 -0.390557
-0.431759 0.345378 -0.390557
-0.485895 -0.047623 -0.374174
0.457348 0.133025 -0.374174
-0.200385 0.242325 -0.374174
-0.266419 -0.434038 -0.374174
-0.092042 -0.490488 -0.390557
0.240792 0.568562 -0.390557
-0.518762 -0.016897 -0.390557
0.157486 -0.053126 -0.390557
-0.290241 0.379407 -0.374174
-0.314598 -0.059018 -0.374174
0.269806 0.556083 -0.390557
0.379506 -0.372901 -0.374174
-0.432183 -0.367177 -0.374174
-0.376228 0.308687 -0.374174
0.153361 -0.443366 -0.390557
-0.490206 -0.142906 -0.374174
0.19962 0.452412 -0.390557
0.17062 -0.176922 -0.374174
0.30419 0.646064 -0.388898
-0.195797 -0.507599 -0.374174
-0.360061 0.270806 -0.374174
0.287525 -0.067971 -0.374174
-0.484971 0.032699 -0.390557
-0.472552 0.086495 -0.374174
0.256275 0.629548 -0.374174
-0.325985 0.335282 -0.390557
0.432769 0.573019 -0.390557
-0.443701 -0.325719 -0.390557
0.471614 -0.079949 -0.390557
0.372449 -0.152792 -0.374174
-0.467087 -0.214805 -0.390557
0.299274 -0.481166 -0.374174
-0.257254 -0.169472 -0.374174
-0.509301 0.252524 -0.390557
0.33626 0.079635 -0.390557
0.011932 0.444917 -0.374174
0.503934 0.554035 -0.374174
0.192399 0.062503 -0.390557
0.071957 0.620665 -0.374174
0.307614 -0.376845 -0.374174
-0.000275 0.602544 -0.390557
-0.435032 0.404204 -0.390557
0.200501 -0.544285 -0.374174
-0.425207 -0.141582 -0.390557
0.39401 0.296085 -0.374174
-0.074424 0.410971 -0.390557
-0.287229 0.426983 -0.390557
-0.08231 0.26811 -0.374174
0.251485 0.36328 -0.374174
0.346061 0.389931 -0.390557
0.068526 -0.281554 -0.390557
-0.403604 0.15244 -0.374174
0.421887 -0.524909 -0.390557
0.164066 -0.223388 -0.374174
0.159107 -0.37401 -0.390557
0.027067 0.397048 -0.390557
0.465389 0.51846 -0.374174
-0.540076 0.535999 -0.390557
-0.303388 0.173042 -0.390557
-0.112708 -0.532373 -0.390557
0.198137 -0.097824 -0.374174
-0.061426 0.036007 -0.374174
0.048818 0.185641 -0.374174
0.323522 -0.546681 -0.390557
-0.132361 -0.053926 -0.374174
0.247416 0.140307 -0.390557
-0.21675 0.517934 -0.390557
-0.525971 -0.351655 -0.390557
0.464625 0.446745 -0.390557
0.399013 -0.540894 -0.374174
0.423661 0.11415 -0.374174
0.197241 0.275624 -0.374174
0.007766 -0.566233 -0.390557
0.110104 -0.150952 -0.374174
-0.18072 0.042715 -0.390557
-0.42253 -0.509466 -0.390557
0.542493 -0.099366 -0.374174
-0.203734 -0.301402 -0.390557
0.472473 -0.39051 -0.390557
0.14808 0.516839 -0.390557
-0.321493 -0.568193 -0.390557
-0.505764 0.643454 -0.390557
-0.533481 -0.431254 -0.390557
0.523778 0.049011 -0.374174
-0.361781 -0.417085 -0.374174
0.342732 0.249323 -0.390557
-0.405483 0.566488 -0.390557
-0.477581 0.469856 -0.374174
-0.138686 -0.23821 -0.374174
0.312118 -0.322488 -0.390557
-0.046048 -0.276142 -0.374174
0.374384 0.068193 -0.374174
-0.548064 0.335258 -0.390557
0.274436 0.245299 -0.390557
-0.307339 0.258231 -0.374174
0.191589 0.582098 -0.374174
0.467677 0.18182 -0.374174
-0.284 -0.29262 -0.390557
0.0283 -0.075638 -0.390557
0.420784 0.284758 -0.374174
0.187784 -0.240874 -0.374174
0.396409 0.212274 -0.374174
0.24685 -0.368884 -0.374174
-0.457521 0.210464 -0.390557
-0.214597 0.061369 -0.374174
0.259306 0.39002 -0.374174
0.332723 -0.481476 -0.374174
-0.395942 -0.318346 -0.374174
0.248988 -0.278845 -0.390557
-0.449025 -0.155837 -0.390557
0.032701 -0.294523 -0.390557
-0.030652 0.621462 -0.374174
0.40204 0.646064 -0.389279
0.06087 0.310485 -0.390557
-0.28039 -0.478083 -0.374174
0.247652 0.49754 -0.374174
-0.252127 0.431621 -0.390557
-0.381015 -0.518542 -0.374174
0.239863 0.467113 -0.374174
0.241053 0.336902 -0.390557
-0.032679 -0.408975 -0.390557
-0.281464 0.320223 -0.374174
0.050141 0.218727 -0.374174
0.559033 0.339096 -0.390557
-0.101735 -0.453994 -0.390557
-0.167541 0.252452 -0.374174
0.438275 -0.193524 -0.390557
0.011354 -0.379062 -0.390557
-0.460168 0.337408 -0.390557
0.517028 0.509014 -0.374174
0.126046 -0.049014 -0.390557
0.390948 -0.271564 -0.390557
0.496234 -0.398776 -0.374174
0.426348 -0.471007 -0.374174
0.279639 0.344551 -0.374174
-0.235364 -0.26596 -0.390557
-0.481291 0.182123 -0.390557
-0.155037 -0.278 -0.374174
0.035532 -0.448496 -0.390557
0.41997 -0.053647 -0.390557
0.061398 -0.173544 -0.374174
-0.195859 0.614691 -0.374174
0.464393 -0.545686 -0.374174
0.499207 -0.552235 -0.374174
-0.352394 -0.557152 -0.390557
-0.16996 -0.426476 -0.390557
0.342567 0.35082 -0.390557
-0.501767 -0.295558 -0.390557
-0.118644 -0.336106 -0.374174
-0.292576 -0.101736 -0.390557
-0.200777 0.409307 -0.390557
-0.068876 0.586846 -0.374174
-0.100514 -0.09173 -0.374174
0.25163 -0.070102 -0.374174
0.050422 0.533901 -0.390557
0.018198 0.32616 -0.390557
-0.170669 0.504951 -0.374174
-0.015626 -0.347574 -0.390557
-0.537542 -0.466738 -0.390557
0.420148 -0.119024 -0.374174
0.363526 -0.122559 -0.390557
0.367928 0.640107 -0.390557
0.314484 0.083324 -0.374174
0.529486 -0.241484 -0.374174
-0.062264 -0.380321 -0.374174
0.501047 -0.033243 -0.390557
-0.294866 0.463284 -0.374174
0.51314 -0.306076 -0.390557
-0.057346 0.001843 -0.374174
-0.312163 0.549039 -0.390557
-0.228295 -0.195724 -0.390557
0.101705 -0.234388 -0.374174
-0.037915 0.512818 -0.374174
0.202159 -0.342963 -0.390557
0.451294 -0.098688 -0.390557
-0.351041 0.380155 -0.374174
0.047649 -0.049369 -0.374174
0.253467 -0.525934 -0.390557
0.423847 0.042974 -0.390557
-0.478758 -0.335982 -0.390557
-0.007245 -0.120242 -0.374174
-0.222634 -0.471882 -0.374174
-0.058603 -0.176494 -0.374174
0.12101 -0.189396 -0.374174
0.344523 -0.516958 -0.390557
0.028222 0.202333 -0.390557
-0.161478 0.022305 -0.374174
0.436985 -0.080702 -0.374174
0.118395 0.221442 -0.374174
0.073929 -0.481821 -0.374174
0.103361 -0.087958 -0.390557
-0.319236 -0.012979 -0.390557
0.109331 -0.275472 -0.374174
0.046613 -0.473208 -0.374174
0.205422 -0.048235 -0.374174
-0.199774 -0.555331 -0.110365
-0.465782 -0.555331 -0.020309
-0.391479 -0.555331 -0.220303
-0.00655 -0.555331 -0.052598
0.194871 -0.555331 -0.254452
-0.404597 -0.555331 0.13745
-0.231703 -0.555331 -0.257187
0.494616 -0.555331 -0.268794
-0.103654 -0.555331 -0.209057
0.023905 -0.555331 0.175527
-0.521775 -0.555331 -0.284792
-0.318252 -0.555331 -0.330015
-0.177381 -0.555331 0.09681
0.078837 -0.555331 -0.289412
0.545784 -0.555331 0.065761
0.289737 -0.555331 -0.314134
-0.021405 -0.555331 -0.299701
0.459747 -0.555331 0.283112
0.37275 -0.555331 -0.120263
-0.497246 -0.555331 0.117378
0.278703 -0.555331 -0.03201
-0.551367 -0.555331 -0.057726
-0.303171 -0.555331 0.154825
-0.168662 -0.555331 0.252934
0.233385 -0.555331 -0.118131
-0.409393 -0.555331 -0.328912
-0.031599 -0.555331 -0.155238
0.115945 -0.555331 -0.197044
0.479224 -0.555331 -0.181623
0.244886 -0.555331 0.255837
0.10469 -0.555331 -0.084848
-0.222278 -0.555331 0.023883
-0.391172 -0.555331 0.23261
0.515883 -0.555331 -0.35082
0.381118 -0.555331 -0.359923
0.140896 -0.555331 -0.345473
-0.281309 -0.555331 -0.09501
-0.082759 -0.555331 0.319161
-0.041581 -0.555331 0.243974
-0.100088 -0.555331 -0.295444
-0.491933 -0.555331 -0.212485
-0.22419 -0.555331 0.306924
0.103032 -0.555331 0.158107
0.409323 -0.555331 -0.284025
0.407879 -0.555331 -0.0524
-0.242456 -0.555331 -0.334329
0.347917 -0.555331 0.052729
0.386731 -0.555331 0.157619
0.307045 -0.555331 0.296224
0.293258 -0.555331 -0.231185
0.50966 -0.555331 -0.114457
0.073703 -0.555331 0.262487
-0.507022 -0.555331 0.319016
0.197618 -0.555331 -0.180997
-0.32794 -0.555331 -0.153952
0.388148 -0.555331 0.273813
-0.245568 -0.555331 0.114421
-0.316478 -0.555331 0.253938
0.303725 -0.555331 -0.135106
0.036988 -0.555331 -0.160602
-0.22034 -0.555331 -0.175529
0.18462 -0.555331 0.216039
-0.473219 -0.555331 -0.356327
0.396049 -0.555331 -0.193265
-0.301135 -0.555331 -0.215997
-0.172334 -0.555331 -0.293576
0.036307 -0.555331 -0.341074
-0.069281 -0.555331 -0.096302
0.517161 -0.555331 0.236682
-0.116408 -0.555331 0.05365
-0.446664 -0.555331 -0.258366
0.200351 -0.555331 -0.318319
0.453017 -0.555331 -0.338866
0.010513 -0.555331 -0.236428
-0.180092 -0.555331 -0.020946
0.452671 -0.555331 -0.004402
-0.407302 -0.555331 0.289603
0.127486 -0.555331 -0.255935
0.441182 -0.555331 -0.13674
0.237572 -0.555331 -0.366313
0.047938 -0.555331 -0.099418
0.325021 -0.555331 -0.06683
-0.352284 -0.555331 0.307024
0.13017 -0.555331 0.291922
-0.382111 -0.555331 -0.136095
0.01446 -0.555331 0.25213
-0.47413 -0.555331 -0.07602
0.54078 -0.555331 -0.23081
0.158694 -0.555331 -0.099975
-0.171574 -0.555331 -0.221158
0.24642 -0.555331 -0.27571
-0.510458 -0.555331 0.171396
-0.523481 -0.555331 0.002112
-0.280403 -0.555331 -0.283003
-0.264602 -0.555331 0.235544
0.218764 -0.555331 0.306042
0.339802 -0.555331 -0.291747
-0.355615 -0.555331 0.174458
-0.425445 -0.555331 -0.177738
-0.525229 -0.555331 -0.341458
-0.169576 -0.555331 0.043637
-0.537439 -0.555331 0.23799
0.142339 -0.555331 -0.151209
0.291068 -0.555331 0.019276
-0.126035 -0.555331 -0.35304
0.344199 -0.555331 -0.214961
0.179994 -0.555331 0.155284
-0.035406 -0.555331 0.296133
0.091364 -0.555331 0.208654
0.345156 -0.555331 0.001021
-0.146378 -0.555331 0.317727
-0.34772 -0.555331 -0.28841
0.243381 -0.555331 -0.22151
0.272195 -0.555331 -0.085713
0.290214 -0.555331 0.205657
0.455885 -0.555331 -0.065704
-0.458396 -0.555331 0.329693
0.312708 -0.555331 -0.357622
0.068254 -0.555331 -0.207416
-0.079059 -0.555331 -0.144153
0.346855 -0.555331 0.201937
-0.401157 -0.555331 -0.273454
-0.523104 -0.555331 0.077006
0.240101 -0.555331 -0.000837
-0.5011 -0.555331 0.272702
-0.479528 -0.555331 -0.155693
0.398641 -0.555331 0.325825
-0.519185 -0.555331 -0.124473
-0.291467 -0.555331 0.293194
-0.282277 -0.555331 -0.155315
0.534705 -0.555331 -0.169843
-0.023972 -0.555331 -0.097674
-0.340288 -0.555331 0.124708
-0.144228 -0.555331 0.215361
-0.2075 -0.555331 0.138036
0.104307 -0.555331 0.328451
0.053774 -0.555331 0.305012
0.530648 -0.555331 -0.070829
0.408504 -0.555331 -0.005637
0.186524 -0.555331 -0.138283
-0.346266 -0.555331 0.221442
0.491405 -0.555331 -0.223733
0.182961 -0.555331 0.075045
0.422987 -0.555331 -0.094492
0.368482 -0.555331 -0.071396
-0.237825 -0.555331 -0.131492
-0.538478 -0.555331 0.130948
0.425957 -0.555331 -0.372641
0.069859 -0.555331 0.047174
-0.142539 -0.555331 0.12195
-0.418841 -0.555331 -0.370762
0.178339 -0.555331 0.291926
0.373517 -0.555331 -0.260665
-0.102923 -0.555331 -0.251572
-0.008123 -0.555331 -0.19824
-0.348023 -0.555331 -0.238226
-0.167941 -0.555331 0.178268
0.265133 -0.555331 0.302406
0.096941 -0.555331 -0.126313
0.497005 -0.555331 0.302736
0.451374 -0.555331 -0.283056
-0.187726 -0.555331 -0.332272
0.018842 -0.555331 -0.290713
0.084871 -0.555331 -0.329759
0.131105 -0.555331 0.199523
0.39632 -0.555331 0.202484
0.352086 -0.555331 -0.330577
0.434274 -0.555331 -0.179547
0.174306 -0.555331 -0.21416
0.181032 -0.555331 -0.064435
-0.018178 -0.555331 0.211025
0.271267 -0.555331 -0.15894
-0.335032 -0.555331 -0.103119
0.161556 -0.555331 -0.307977
-0.06085 -0.555331 -0.305234
-0.187755 -0.555331 0.287736
0.329524 -0.555331 -0.253455
-0.257264 -0.555331 -0.189481
-0.055615 -0.555331 -0.186193
-0.424069 -0.555331 0.211427
-0.134242 -0.555331 0.280717
0.053457 -0.555331 -0.243095
-0.011083 -0.555331 -0.33691
0.12665 -0.555331 0.242726
0.106981 -0.555331 0.073041
0.498844 -0.555331 -0.307011
0.356996 -0.555331 0.239013
-0.445712 -0.555331 -0.318158
-0.332785 -0.555331 -0.195194
0.509296 -0.555331 0.19492
0.325405 -0.555331 0.263393
-0.411506 -0.555331 -0.112738
-0.514835 -0.555331 -0.049491
0.553758 -0.555331 0.159164
-0.213262 -0.555331 -0.289638
0.445355 -0.555331 -0.225926
-0.154865 -0.555331 -0.188119
-0.514101 -0.555331 0.208001
0.520351 -0.555331 0.273253
-0.142398 -0.555331 -0.320199
-0.360355 -0.555331 0.255202
0.117883 -0.555331 -0.314073
0.54422 -0.555331 -0.036941
-0.441461 -0.555331 0.267471
-0.488303 -0.555331 -0.271552
-0.476098 -0.555331 0.182046
0.5501 -0.555331 -0.101024
0.102462 -0.555331 -0.230014
-0.457707 -0.555331 -0.202721
-0.187622 -0.555331 -0.055585
-0.195549 -0.555331 -0.150194
-0.164791 -0.555331 -0.115797
-0.091752 -0.555331 -0.345169
-0.439441 -0.555331 -0.070204
0.462116 -0.555331 -0.10848
0.324189 -0.555331 0.175049
-0.009721 -0.555331 -0.266805
0.392896 -0.555331 -0.148576
0.424206 -0.555331 -0.319636
-0.123617 -0.555331 -0.083674
-0.151866 -0.555331 -0.265944
0.321642 -0.555331 -0.105963
-0.523829 -0.555331 -0.082196
0.017753 -0.555331 -0.132704
0.430065 -0.555331 0.027823
-0.274766 -0.555331 -0.325689
-0.388701 -0.555331 0.170257
-0.44889 -0.555331 -0.116546
0.551373 -0.555331 0.30632
-0.312147 -0.555331 -0.292864
0.229166 -0.555331 -0.191734
0.48757 -0.555331 0.002267
0.048247 -0.555331 -0.275455
0.098164 -0.555331 0.284963
0.428583 -0.555331 0.312582
0.415845 -0.555331 0.176387
-0.218815 -0.555331 0.22408
-0.244643 -0.555331 0.281666
-0.263829 -0.555331 -0.253234
0.371234 -0.555331 -0.298793
-0.415811 -0.555331 -0.147416
0.314356 -0.555331 -0.204187
0.463573 -0.555331 0.251698
-0.052318 -0.555331 -0.274783
-0.481854 -0.555331 0.150998
-0.062154 -0.555331 -0.355534
0.523614 -0.555331 -0.257357
0.309337 -0.555331 -0.026298
-0.300517 -0.555331 0.185829
0.018181 -0.555331 -0.090645
-0.015172 -0.555331 0.152828
0.112169 -0.555331 -0.157081
-0.550453 -0.555331 0.298541
0.23327 -0.555331 -0.336122
0.041744 -0.555331 -0.192452
-0.085399 -0.555331 -0.180418
-0.206672 -0.555331 -0.001948
0.482884 -0.555331 -0.335065
0.058644 -0.555331 0.091164
0.266794 -0.555331 -0.253801
-0.512983 -0.555331 -0.25473
0.535916 -0.555331 0.025191
-0.462027 -0.555331 -0.2852
0.057553 -0.555331 -0.367089
-0.262978 -0.555331 -0.218371
0.123539 -0.555331 -0.107459
-0.431896 -0.555331 -0.216649
-0.47002 -0.555331 0.260852
0.555055 -0.555331 0.224912
-0.481008 -0.555331 -0.185093
0.259294 -0.555331 0.23043
0.140233 -0.555331 -0.288486
-0.285025 -0.555331 -0.126799
0.07372 -0.555331 0.231146
-0.199642 -0.555331 0.041186
0.411803 -0.555331 0.240965
-0.140747 -0.555331 0.162128
0.47219 -0.555331 -0.244004
-0.427881 -0.555331 -0.281557
-0.013879 -0.555331 0.247088
0.401387 -0.555331 -0.122153
-0.330754 -0.555331 0.198481
-0.551065 -0.555331 -0.358441
0.322226 -0.555331 -0.313104
0.524499 -0.555331 -0.208489
0.22437 -0.555331 -0.092051
-0.288516 -0.555331 0.249154
0.295414 -0.555331 0.321155
-0.394467 -0.555331 -0.164717
0.272824 -0.555331 -0.350224
-0.161382 -0.555331 -0.047951
0.385045 -0.555331 -0.037422
-0.140433 -0.555331 -0.211271
-0.396921 -0.555331 -0.354545
-0.04619 -0.555331 -0.081816
0.245012 -0.555331 -0.15217
-0.370549 -0.555331 -0.253273
-0.510975 -0.555331 -0.021852
-0.475222 -0.555331 -0.129222
0.384877 -0.555331 0.127331
0.562245 -0.555331 -0.124861
-0.450891 -0.555331 -0.169478
0.285487 -0.555331 0.045426
-0.43403 -0.555331 0.125265
0.00847 -0.555331 0.209449
-0.286432 -0.555331 -0.238272
0.128639 -0.555331 0.165565
-0.420569 -0.555331 -0.253683
0.253116 -0.555331 0.023769
-0.385827 -0.555331 -0.317038
-0.151424 -0.555331 -0.238188
-0.510025 -0.555331 -0.193284
-0.279266 -0.555331 0.170246
0.303118 -0.555331 -0.087258
0.141605 -0.555331 -0.233808
-0.372235 -0.555331 -0.081839
-0.545407 -0.555331 -0.127134
0.454772 -0.555331 -0.159063
0.369931 -0.555331 -0.192623
0.026434 -0.555331 -0.261281
0.265401 -0.555331 -0.305036
0.199793 -0.555331 -0.21832
-0.316104 -0.555331 -0.120643
-0.26266 -0.555331 0.305121
0.009574 -0.555331 -0.31458
-0.033915 -0.555331 -0.3255
0.101483 -0.555331 0.246737
0.035692 -0.555331 0.041018
0.253373 -0.555331 -0.033275
0.141628 -0.555331 0.26934
0.595123 0.691247 0.355863
0.595123 0.167285 0.352353
0.595123 -0.171859 0.344787
0.595123 -0.418477 0.357398
0.544437 0.575773 0.33028
0.57724 -0.069616 0.33028
0.594682 -0.265748 0.363046
0.574256 0.252719 0.33028
0.529592 -0.365436 0.332919
0.529592 0.399304 0.330574
0.532468 -0.222129 0.33028
0.529592 -0.012268 0.348186
0.529592 -0.12941 0.33304
0.530139 -0.524061 0.33028
0.595123 0.376869 0.354257
0.595123 -0.341328 0.352538
0.543019 0.324376 0.33028
0.595123 0.092731 0.356097
0.595123 0.524906 0.336166
0.529592 0.485056 0.339627
0.535274 -0.295742 0.33028
0.595123 0.619262 0.34414
0.595123 -0.480264 0.349254
0.538724 -0.433382 0.33028
0.529592 0.076729 0.350064
0.536138 0.700673 0.343961
0.557509 0.196955 0.33028
0.593634 -0.01881 0.363046
0.529592 0.535995 0.351965
0.546872 -0.479268 0.33028
0.539786 -0.174634 0.33028
0.541384 -0.60994 0.342518
0.594038 -0.584413 0.33028
0.566723 -0.383438 0.363046
0.546443 -0.558826 0.363046
0.549152 -0.270855 0.363046
0.554034 0.294897 0.363046
0.560267 0.344508 0.363046
0.571632 -0.544125 0.33028
0.564737 -0.147263 0.363046
0.589455 -0.306723 0.33028
0.595123 0.277812 0.362211
0.589439 0.324532 0.33028
0.529592 0.444501 0.346763
0.595123 0.05651 0.332755
0.542985 -0.04807 0.363046
0.529592 -0.403458 0.356498
0.59238 0.484748 0.33028
0.595123 -0.104483 0.339899
0.595123 -0.209372 0.357995
0.545888 -0.454003 0.363046
0.537199 0.279272 0.33028
0.55109 0.50637 0.363046
0.577365 -0.369442 0.33028
0.581878 -0.140319 0.33028
0.529592 0.368436 0.350828
0.538408 0.153922 0.33028
0.595123 0.130887 0.33699
0.564228 0.606867 0.33028
0.575512 0.291435 0.33028
0.563956 0.146421 0.363046
0.532708 0.046643 0.33028
0.561987 0.261085 0.363046
0.592145 -5.4e-05 0.33028
0.542704 0.397989 0.363046
0.574331 0.680913 0.33028
0.567204 0.200162 0.363046
0.55602 0.467603 0.363046
0.529592 0.662397 0.347629
0.529592 0.198231 0.359148
0.570247 -0.310138 0.363046
0.595051 0.245611 0.363046
0.563172 -0.002933 0.363046
0.588875 -0.516747 0.33028
0.549765 0.020442 0.33028
0.542297 0.096813 0.33028
0.57892 -0.045964 0.363046
0.595123 0.030341 0.354607
0.531891 -0.505024 0.363046
0.547151 0.427361 0.363046
0.539157 -0.059037 0.33028
0.529843 0.581035 0.363046
0.532193 -0.235512 0.363046
0.595123 -0.390701 0.359658
0.557118 0.424734 0.33028
0.595123 0.458496 0.338349
0.529592 -0.473602 0.349999
0.595123 -0.398801 0.334444
0.581795 0.222148 0.363046
0.595123 -0.2741 0.338048
0.529592 -0.133852 0.358987
0.556764 0.532054 0.363046
0.590761 0.367685 0.33028
0.571271 0.469877 0.33028
0.53789 0.524789 0.33028
0.539462 0.461471 0.33028
0.564127 0.618613 0.363046
0.580606 -0.336326 0.33028
0.580563 0.298557 0.363046
-0.555847 0.062837 0.33028
-0.526194 -0.279125 0.33028
-0.584428 0.258308 0.341429
-0.584428 -0.119638 0.351836
-0.518898 0.607926 0.348577
-0.540955 -0.397446 0.33028
-0.584428 0.510413 0.345068
-0.580562 -0.469755 0.33028
-0.536936 -0.06333 0.33028
-0.578186 0.607111 0.33028
-0.518898 0.199252 0.340595
-0.584428 -0.319912 0.342953
-0.518898 0.421334 0.333093
-0.535321 -0.14691 0.33028
-0.518898 -0.459362 0.341353
-0.584428 0.397977 0.347245
-0.581873 0.700673 0.335285
-0.562489 0.13083 0.33028
-0.582008 -0.422711 0.363046
-0.584428 -0.031786 0.337065
-0.572025 -0.233944 0.33028
-0.547224 0.010289 0.33028
-0.537408 0.380265 0.363046
-0.521244 0.559632 0.33028
-0.584428 -0.179123 0.337754
-0.535766 -0.504953 0.33028
-0.529547 0.272602 0.33028
-0.523613 0.075206 0.363046
-0.584428 0.555788 0.334356
-0.543752 0.44757 0.363046
-0.584428 0.026285 0.352641
-0.572578 -0.559485 0.363046
-0.538694 0.694251 0.363046
-0.584428 0.08154 0.36026
-0.584428 -0.074903 0.357483
-0.577315 0.438768 0.33028
-0.557477 0.646733 0.33028
-0.541777 -0.178987 0.363046
-0.539086 0.523959 0.363046
-0.558391 -0.35738 0.33028
-0.547947 0.487764 0.33028
-0.584428 0.205632 0.33711
-0.531887 0.241914 0.363046
-0.582202 0.293767 0.363046
-0.540446 -0.095315 0.363046
-0.558898 0.619559 0.363046
-0.518898 0.644727 0.33448
-0.575981 0.1686 0.33028
-0.584428 0.120052 0.361833
-0.546479 -0.475128 0.363046
-0.525595 -0.522309 0.363046
-0.544039 -0.263641 0.363046
-0.539203 -0.380065 0.363046
-0.55026 -0.338936 0.363046
-0.518898 0.156808 0.337025
-0.579959 -0.60994 0.353078
-0.574383 -0.270203 0.33028
-0.52205 -0.604697 0.363046
-0.565904 -0.422911 0.33028
-0.539718 0.281704 0.363046
-0.558512 -0.2012 0.33028
-0.584428 0.662914 0.34523
-0.553197 0.142187 0.363046
-0.520371 0.52548 0.33028
-0.547889 -0.429541 0.363046
-0.584428 0.47696 0.344799
-0.519925 -0.236768 0.33028
-0.571989 0.091622 0.33028
-0.518898 0.677144 0.339523
-0.546456 -0.60994 0.341997
-0.584195 0.003733 0.33028
-0.553799 0.484622 0.363046
-0.524086 -0.30538 0.363046
-0.537804 0.45864 0.33028
-0.541159 -0.051791 0.363046
-0.558527 -0.14068 0.363046
-0.584428 -0.292564 0.353534
-0.57629 -0.38458 0.33028
-0.584428 -0.565415 0.331355
-0.523656 -0.120255 0.33028
-0.557876 0.266297 0.33028
-0.562298 0.556974 0.363046
-0.518898 -0.091906 0.342405
-0.53561 0.121311 0.33028
-0.584428 0.231679 0.350941
-0.555152 -0.21705 0.363046
-0.562936 -0.054028 0.33028
-0.568443 -0.030945 0.363046
-0.584428 -0.518911 0.333684
-0.584428 -0.216732 0.347021
-0.584428 0.285075 0.336749
-0.564897 -0.502295 0.363046
-0.579545 -0.172771 0.363046
-0.518898 -0.19205 0.36085
-0.518898 -0.167599 0.330797
-0.530963 -0.451046 0.363046
-0.552283 0.195333 0.363046
-0.518898 0.584994 0.337179
-0.542807 0.433555 0.33028
0.188511 0.700673 -0.411458
-0.245033 0.688406 -0.423322
0.545452 0.700673 -0.422263
-0.025218 0.65065 -0.390557
0.366749 0.700673 -0.400575
-0.424259 0.700673 -0.419528
0.350836 0.587152 -0.423322
0.540847 0.586596 -0.423322
0.203895 0.588558 -0.423322
-0.131086 0.700673 -0.391488
0.460373 0.653446 -0.390557
-0.466501 0.584673 -0.423322
0.066885 0.700673 -0.402804
-0.074355 0.569612 -0.42242
-0.340174 0.661264 -0.423322
-0.540615 0.700673 -0.397193
0.443681 0.585813 -0.423322
0.024477 0.610782 -0.423322
-0.088284 0.646215 -0.423322
-0.492849 0.657046 -0.423322
0.135387 0.658344 -0.423322
0.235882 0.654634 -0.423322
0.266782 0.569612 -0.41471
-0.178196 0.670093 -0.423322
0.14316 0.569612 -0.416724
-0.061063 0.700673 -0.407561
0.275602 0.700673 -0.392383
0.406198 0.647303 -0.423322
0.314667 0.652694 -0.423322
-0.214012 0.60139 -0.423322
-0.133669 0.572987 -0.423322
0.009392 0.685795 -0.423322
-0.303078 0.692791 -0.390557
0.428001 0.700673 -0.402457
-0.325408 0.605235 -0.423322
0.065651 0.569612 -0.4095
-0.284434 0.569612 -0.41644
0.496802 0.638246 -0.423322
-0.150191 0.627545 -0.423322
-0.272245 0.645309 -0.423322
0.18564 0.639761 -0.423322
-0.392536 0.58776 -0.423322
0.498026 0.688775 -0.423322
0.136297 0.700673 -0.399044
-0.351696 0.695802 -0.390557
-0.013234 0.580141 -0.423322
0.491151 0.583814 -0.423322
-0.48218 0.700673 -0.404575
-0.045994 0.624344 -0.423322
0.068618 0.621605 -0.423322
0.361079 0.644423 -0.423322
0.138214 0.613792 -0.423322
-0.381415 0.689353 -0.423322
0.265856 0.623419 -0.423322
-0.151247 0.662548 -0.390557
-0.365761 0.626844 -0.423322
0.318018 0.700673 -0.394029
0.381088 0.662094 -0.390557
-0.45074 0.653824 -0.423322
-0.429076 0.608352 -0.423322
-0.211731 0.700673 -0.401716
-0.023566 0.695622 -0.390557
-0.104006 0.700673 -0.421883
0.544626 0.675447 -0.390557
-0.541076 0.638562 -0.423322
0.317344 0.612743 -0.423322
-0.398052 0.650416 -0.423322
-0.065833 0.650336 -0.390557
-0.233487 0.647534 -0.423322
-0.170498 0.569612 -0.411825
0.341322 0.683795 -0.423322
0.528553 0.665639 -0.423322
-0.008434 0.629183 -0.423322
-0.084101 0.608163 -0.423322
0.446692 0.663231 -0.423322
-0.021973 0.666926 -0.423322
0.516226 0.569612 -0.393143
-0.279025 0.608831 -0.423322
0.104352 0.68591 -0.390557
0.393522 0.69254 -0.423322
-0.324815 0.653237 -0.390557
0.400976 0.569612 -0.408657
0.204375 0.569612 -0.393951
0.018149 0.700673 -0.392931
0.246183 0.67353 -0.390557
0.103696 0.618731 -0.423322
0.462575 0.700673 -0.402633
-0.422067 0.56993 -0.423322
-0.306273 0.655266 -0.423322
-0.511279 0.700673 -0.422645
0.237405 0.594069 -0.423322
-0.345104 0.700673 -0.423309
-0.247015 0.680721 -0.390557
0.527087 0.623682 -0.423322
0.046143 0.645549 -0.423322
0.187912 0.672423 -0.390557
-0.119367 0.602437 -0.423322
-0.205489 0.670681 -0.390557
0.348883 0.666688 -0.390557
0.109778 0.677927 -0.423322
0.312204 0.580976 -0.423322
-0.448339 0.700673 -0.399333
-0.424672 0.681945 -0.390557
-0.488902 0.626907 -0.423322
-0.537991 0.685617 -0.423322
0.054046 0.593703 -0.423322
0.436519 0.614906 -0.423322
0.264828 0.661598 -0.423322
0.03234 0.667483 -0.390557
0.25531 0.700673 -0.413853
-0.363916 0.580523 -0.423322
-0.150271 0.597177 -0.423322
-0.220292 0.569612 -0.412074
-0.26873 0.700673 -0.411472
0.093929 0.700673 -0.414776
-0.139431 0.569612 -0.390606
-0.149531 0.700673 -0.413646
0.122757 0.589501 -0.423322
-0.02695 0.695283 -0.423322
-0.40325 0.663036 -0.390557
0.291036 0.637519 -0.423322
0.515326 0.569612 -0.422285
-0.241778 0.604009 -0.423322
0.531234 0.699889 -0.390557
0.46917 0.635407 -0.423322
0.218669 0.670011 -0.390557
-0.264003 0.656146 -0.390557
0.148361 0.695814 -0.423322
0.420535 0.670336 -0.423322
0.496732 0.654536 -0.390557
0.106852 0.569612 -0.395921
0.082594 0.67021 -0.390557
0.463935 0.569612 -0.416729
-0.335783 0.635072 -0.423322
-0.219699 0.66999 -0.423322
0.160236 0.62809 -0.423322
-0.486364 0.669849 -0.390557
0.262288 0.652914 -0.390557
-0.113817 0.645012 -0.423322
-0.519536 0.569612 -0.398452
-0.448895 0.569612 -0.412715
0.431296 0.663265 0.080425
0.443524 0.667908 -0.080417
0.45832 0.667908 -0.287386
0.446296 0.667908 0.228914
0.431296 0.655282 -0.191281
0.504542 0.667908 0.02158
0.516833 0.646064 -0.127956
0.516684 0.667908 0.281745
0.521772 0.667908 0.187121
0.554737 0.646064 -0.364346
0.526823 0.667908 -0.238343
0.495814 0.667908 0.1108
0.441156 0.646064 -0.001522
0.519358 0.646064 -0.043848
0.439991 0.646064 0.294225
0.44257 0.646064 0.145147
0.52645 0.646064 -0.30745
0.489152 0.646064 -0.180568
0.438218 0.646064 -0.336797
0.543779 0.646064 0.137812
0.442511 0.646064 -0.130939
0.558472 0.646064 0.220382
0.489096 0.667908 -0.33615
0.49064 0.646064 0.238026
0.458132 0.646064 -0.242344
0.468741 0.646064 0.047443
0.55301 0.667908 0.093389
0.538656 0.667908 -0.186937
0.466391 0.646064 0.193285
0.487842 0.667908 -0.067143
0.431296 0.666909 0.036346
0.516396 0.646064 0.078498
0.471612 0.667908 0.27045
0.488838 0.667908 0.326777
0.479277 0.646064 -0.015804
0.483784 0.667908 -0.123226
0.530705 0.646064 -0.006578
0.520753 0.667908 -0.096477
0.431296 0.666477 -0.032232
0.431436 0.646064 -0.26889
0.454456 0.667908 0.109533
0.435324 0.646064 0.256737
0.489762 0.646064 -0.302687
0.518914 0.646064 -0.271526
0.477856 0.646064 0.087466
0.477172 0.646064 0.156003
0.469081 0.667908 -0.160252
0.480444 0.646064 0.299565
0.497827 0.667908 -0.217566
0.518807 0.667908 0.149808
0.524965 0.646064 0.245296
0.5501 0.667908 -0.291394
0.431296 0.661706 -0.226332
0.547304 0.667908 -0.338316
0.484557 0.667908 -0.370441
0.431296 0.663297 -0.306847
0.542373 0.646064 -0.161869
0.5347 0.667908 0.061723
0.539437 0.667908 0.018958
0.499353 0.667908 0.05323
0.515372 0.646064 0.122504
0.522743 0.646064 -0.363706
0.431296 0.665029 -0.16144
0.433002 0.667908 -0.386243
0.46397 0.667908 -0.318025
0.537854 0.646064 -0.210984
0.545547 0.667908 0.241127
0.493583 0.646064 -0.105276
0.474993 0.646064 -0.275839
0.555782 0.667908 -0.106567
0.481955 0.646064 -0.144673
0.504387 0.667908 -0.289246
0.539639 0.646064 0.197771
0.559206 0.646064 0.071851
0.431296 0.651396 -0.057191
0.532797 0.667908 0.306019
0.507869 0.646064 -0.241814
0.512564 0.646064 0.218953
0.45827 0.667908 -0.218415
0.559476 0.646064 0.168018
0.55487 0.667908 -0.067768
0.448435 0.667908 0.196071
0.457072 0.646064 -0.173499
0.45273 0.646064 -0.095282
0.442752 0.646064 0.325531
0.469203 0.646064 -0.3627
0.472571 0.667908 -0.187783
0.456855 0.667908 0.026062
0.515795 0.646064 -0.18704
0.480811 0.646064 -0.081394
0.524205 0.646064 0.023184
0.557618 0.667908 0.143759
0.47015 0.667908 -0.250929
0.464343 0.646064 0.23874
0.450849 0.646064 -0.30346
0.485054 0.667908 0.143784
0.446342 0.667908 0.057373
0.555526 0.667908 0.181121
0.529664 0.667908 0.211577
0.433395 0.646064 0.225274
0.432082 0.667908 0.136923
0.530925 0.667908 -0.038011
0.491055 0.646064 0.199266
0.48299 0.646064 -0.236885
-0.430885 0.667908 -0.240516
-0.420602 0.661098 0.177493
-0.426988 0.646064 -0.043484
-0.459765 0.667908 0.07211
-0.478183 0.646064 -0.337169
-0.491221 0.667908 -0.146525
-0.513996 0.667908 0.223533
-0.504052 0.646064 -0.258822
-0.498746 0.667908 -0.024781
-0.420602 0.659657 -0.119605
-0.483613 0.646064 0.149075
-0.53494 0.646064 -0.195627
-0.511625 0.646064 0.296425
-0.535539 0.646064 -0.095801
-0.518907 0.667908 0.091174
-0.471324 0.667908 -0.088051
-0.420602 0.646411 -0.325691
-0.420602 0.654148 0.112639
-0.420602 0.656374 0.012237
-0.533376 0.667908 0.166213
-0.456058 0.667908 -0.38351
-0.432658 0.667908 0.229447
-0.512334 0.667908 0.026244
-0.447425 0.646064 -0.16272
-0.504689 0.667908 -0.301859
-0.462359 0.646064 0.198587
-0.538242 0.667908 -0.052193
-0.457591 0.646064 -0.209326
-0.427131 0.667908 -0.284924
-0.539292 0.667908 -0.240998
-0.523536 0.646064 0.129172
-0.460324 0.667908 0.005135
-0.510403 0.667908 -0.380334
-0.420602 0.654641 0.068956
-0.525495 0.646064 -0.142698
-0.484519 0.646064 -0.056061
-0.469241 0.646064 -0.121677
-0.420602 0.661142 -0.367572
