0.143076 -0.504346 -0.060293
0.057091 -0.504346 -0.04709
-0.07079 -0.504346 -0.079215
0.40705 -0.482504 0.100139
0.175057 -0.482504 -0.205296
0.459546 -0.482504 0.010997
0.289636 -0.482504 -0.057611
0.264099 -0.504346 0.072165
0.363189 -0.504346 0.20888
0.358684 -0.504346 0.067076
0.183701 -0.504346 -0.015929
-0.415545 -0.504346 -0.124921
-0.305204 -0.482504 0.19764
-0.425688 -0.504346 -0.04887
-0.013108 -0.482504 0.168805
-0.167728 -0.504346 -0.108712
0.390341 -0.504346 -0.065141
0.457179 -0.504346 -0.113661
-0.175508 -0.504346 0.053524
-0.349014 -0.504346 -0.215047
-0.318156 -0.504346 -0.070122
-0.037664 -0.482504 -0.0383
-0.11565 -0.482504 0.149618
-0.389816 -0.504346 0.144175
-0.016413 -0.504346 0.07309
-0.264029 -0.504346 -0.141569
0.331515 -0.504346 -0.083405
-0.233711 -0.482504 -0.01982
0.499108 -0.482504 0.062128
-0.114888 -0.482504 0.232033
-0.204547 -0.482504 0.179103
-0.470594 -0.482504 0.188711
0.217115 -0.504346 -0.121213
-0.013886 -0.504346 -0.200152
0.208288 -0.482504 0.158667
-0.167106 -0.504346 0.000582
0.079111 -0.504346 0.134886
0.170674 -0.482504 -0.102248
0.162773 -0.482504 0.128117
0.459522 -0.504346 0.154116
0.004625 -0.504346 -0.018328
0.10533 -0.504346 0.047824
-0.475114 -0.504346 0.043293
0.40874 -0.482504 0.218647
0.470456 -0.504346 -0.204518
0.053875 -0.482504 -0.200885
0.104665 -0.504346 0.17829
-0.026494 -0.504346 0.219338
0.40755 -0.504346 -0.018822
-0.340841 -0.482504 0.106437
-0.26603 -0.504346 -0.04991
0.036063 -0.482504 -0.097994
-0.286917 -0.504346 -0.188751
0.336145 -0.482504 -0.219464
-0.224445 -0.504346 -0.095451
-0.385827 -0.482504 -0.030887
-0.120865 -0.504346 -0.089488
-0.382703 -0.482504 0.04061
-0.35741 -0.504346 -0.119664
-0.195681 -0.504346 0.220279
0.064572 -0.504346 -0.135222
0.116243 -0.504346 -0.125138
0.276711 -0.482504 -0.162928
-0.12514 -0.504346 0.054801
-0.214208 -0.482504 0.077816
0.442266 -0.504346 0.056434
-0.419751 -0.504346 0.063745
-0.479343 -0.504346 -0.001936
0.209736 -0.482504 0.028474
0.502435 -0.504346 -0.112994
0.329132 -0.482504 0.229261
-0.148557 -0.504346 0.12105
0.312713 -0.482504 -0.129164
0.353247 -0.482504 0.028496
-0.077038 -0.504346 -0.013879
-0.054105 -0.482504 0.067677
0.247885 -0.504346 0.182158
-0.149505 -0.482504 0.083506
0.023064 -0.504346 0.151418
-0.046539 -0.482504 -0.174881
0.145565 -0.504346 0.004039
-0.077425 -0.482504 0.130162
0.108528 -0.482504 -0.209749
-0.259378 -0.499875 -0.238052
-0.466044 -0.482504 -0.042434
-0.203629 -0.482504 -0.180488
-0.405609 -0.504346 -0.199711
0.022805 -0.482504 0.060069
-0.172369 -0.482504 0.150183
0.093095 -0.482504 -0.047561
0.020295 -0.482504 -0.057635
0.419455 -0.482504 -0.115752
-0.039214 -0.482504 -0.095984
-0.489194 -0.504346 -0.116674
-0.399589 -0.504346 0.22673
-0.341646 -0.482504 0.034547
-0.466702 -0.482504 -0.152661
-0.248753 -0.504346 0.067018
-0.276141 -0.504346 0.030243
-0.470211 -0.482504 -0.203434
0.237096 -0.482504 -0.090714
-0.126997 -0.482504 -0.183345
0.352836 -0.504346 0.12722
-0.431707 -0.504346 0.106097
-0.251843 -0.482504 -0.17884
-0.131601 -0.482504 0.020595
-0.44194 -0.482504 -0.103527
0.488713 -0.482504 0.173512
-0.341376 -0.504346 -0.174596
-0.098331 -0.482504 -0.059842
4e-05 -0.482504 -0.138946
0.05593 -0.504346 0.220738
0.37503 -0.482504 -0.210702
0.369198 -0.504346 -0.158149
-0.163063 -0.504346 -0.068831
-0.47415 -0.504346 0.11903
-0.271898 -0.504346 0.15478
0.078313 -0.482504 0.066978
0.207286 -0.504346 -0.212639
-0.435917 -0.504346 0.186975
0.474776 -0.504346 -0.018215
-0.468669 -0.501098 -0.238052
-0.071792 -0.504346 -0.14848
0.213511 -0.482504 -0.038372
0.485936 -0.482504 -0.053249
0.147288 -0.504346 -0.18825
-0.364489 -0.482504 0.193156
0.298536 -0.482504 0.165438
-0.098985 -0.504346 0.203428
0.240196 -0.504346 -0.152668
-0.17385 -0.504346 -0.20786
-0.222205 -0.504346 0.152903
0.117095 -0.504346 0.129693
0.259404 -0.504346 -0.068571
-0.188879 -0.482504 0.02318
0.249005 -0.482504 0.099355
0.178061 -0.482504 0.072526
-0.117068 -0.504346 -0.225349
0.427126 -0.482504 0.180234
0.454611 -0.482504 -0.177934
-0.068507 -0.504346 0.096693
-0.320158 -0.482504 -0.100438
0.239018 -0.504346 0.044572
0.253689 -0.482504 -0.022953
-0.401154 -0.482504 0.108604
0.111476 -0.504346 -0.07992
0.43187 -0.482504 -0.210544
-0.478999 -0.504346 0.226428
0.018481 -0.504346 0.030321
0.088661 -0.482504 0.102583
-0.006241 -0.489305 -0.238052
0.005007 -0.504346 0.192536
0.286767 -0.504346 0.108455
0.355706 -0.482504 -0.114621
0.191603 -0.501552 0.237009
0.514008 -0.496489 -0.225813
0.162381 -0.482504 0.216726
-0.359077 -0.504346 0.164435
0.236165 -0.482504 0.228064
0.436433 -0.504346 0.092337
-0.275901 -0.504346 -0.010373
0.278279 -0.482504 0.046964
-0.031446 -0.504346 -0.006865
-0.165638 -0.482504 -0.138894
0.372544 -0.482504 0.17522
-0.393957 -0.482504 -0.106157
0.449697 -0.503073 0.237009
0.429249 -0.504346 -0.08897
-0.070096 -0.482504 -0.115112
0.219146 -0.482504 0.073387
0.321825 -0.504346 0.181441
-0.354432 -0.504346 0.062286
0.463551 -0.482504 -0.081027
-0.064778 -0.504346 0.024897
-0.131661 -0.482504 0.200927
0.307702 -0.504346 -0.036601
0.009596 -0.482504 0.12722
0.297479 -0.482504 -0.09198
0.059675 -0.482504 -0.16237
0.392613 -0.482504 -0.092558
0.488106 -0.504346 0.222799
-0.220657 -0.504346 -0.043948
0.427615 -0.504346 0.02188
-0.336314 -0.482504 -0.008587
0.424041 -0.482504 0.13051
-0.492505 -0.482504 0.063991
-0.473416 -0.482504 0.146045
-0.363287 -0.501323 0.237009
0.354953 -0.482504 -0.070052
-0.171801 -0.504346 -0.033751
0.0113 -0.504346 -0.114514
-0.331081 -0.482504 0.226921
0.099649 -0.482504 -0.149381
-0.035611 -0.504346 0.185932
-0.284194 -0.482504 0.076145
-0.108245 -0.504346 -0.164482
0.386534 -0.504346 0.008384
-0.146811 -0.482504 -0.020409
-0.362569 -0.482504 0.138211
0.320955 -0.504346 0.139855
-0.319608 -0.482504 -0.189491
0.136604 -0.504346 0.159767
0.071221 -0.482504 -0.021267
0.499493 -0.504346 0.006887
0.397361 -0.504346 -0.196822
-0.294952 -0.504346 -0.107784
0.054819 -0.482504 0.124149
0.076582 -0.482825 0.237009
0.29223 -0.504346 -1.8e-05
0.088777 -0.482504 0.028175
-0.244499 -0.504346 0.233938
-0.501576 -0.504346 -0.055944
0.382913 -0.504346 0.112233
-0.055465 -0.482504 -0.221855
-0.296176 -0.482504 0.162193
0.500964 -0.504346 -0.179334
-0.008093 -0.504346 -0.162866
0.134507 -0.504346 0.067491
-0.320355 -0.482504 0.080163
0.41415 -0.482504 -0.043287
0.139618 -0.504346 -0.097744
0.306307 -0.504346 -0.206776
0.020778 -0.482504 -0.199006
-0.448611 -0.482504 -0.070469
-0.181619 -0.482504 -0.088254
-0.456554 -0.504346 -0.130284
0.059569 -0.482504 -0.071417
0.321901 -0.482504 0.066214
-0.501639 -0.482899 -0.17351
-0.409077 -0.482504 0.159573
0.133814 -0.504346 -0.026212
-0.355058 -0.482504 -0.041128
0.119821 -0.482504 0.227564
-0.188169 -0.504346 -0.156938
0.419648 -0.504346 -0.151248
0.172664 -0.482504 0.15897
-0.421245 -0.504346 -0.092286
0.42074 -0.482504 0.071134
0.055252 -0.504346 0.160808
0.438378 -0.504346 -0.010784
0.435565 -0.504346 0.208505
0.500688 -0.482504 0.144047
0.49954 -0.482504 0.099887
0.173002 -0.504346 0.107542
0.252916 -0.482504 0.026354
0.166872 -0.482504 -0.174754
0.380506 -0.504346 0.044291
0.19426 -0.504346 -0.184
-0.286189 -0.482504 -0.21137
-0.424291 -0.486762 0.237009
-0.067524 -0.482504 -0.047985
0.200277 -0.482504 -0.091798
-0.042635 -0.504346 0.155381
-0.423054 -0.482504 0.131515
-0.296164 -0.504346 -0.041592
-0.170397 -0.482504 0.232659
-0.284433 -0.504346 0.189729
-0.227407 -0.482504 -0.07347
-0.255553 -0.482504 0.088305
-0.0515 -0.482504 0.002566
-0.216272 -0.504346 0.002644
0.308056 -0.504346 0.235564
-0.325785 -0.504346 -0.136328
-0.239184 -0.482504 -0.122562
0.352116 -0.504346 -0.204556
-0.210862 -0.482504 0.124193
-0.314242 -0.504346 0.030219
0.210939 -0.504346 0.002385
-0.358411 -0.482504 -0.146111
-0.339365 -0.482504 -0.071391
-0.111225 -0.504346 0.170396
-0.007614 -0.482504 -0.045412
-0.25204 -0.504346 0.011727
0.386452 -0.482504 -0.018849
-0.097733 -0.504346 0.067801
-0.230074 -0.504346 0.091386
0.18727 -0.504346 -0.144722
-0.311924 -0.482504 0.128887
0.033095 -0.504346 0.079234
-0.433438 -0.482504 -0.19607
-0.183288 -0.504346 0.082547
0.50639 -0.504346 -0.143818
-0.453572 -0.504346 -0.017313
-0.117415 -0.482504 0.073847
-0.295681 -0.482504 -0.07405
-0.005891 -0.482504 0.209778
0.2147 -0.482504 0.119174
0.462495 -0.482504 0.055918
0.084867 -0.504346 -0.214633
-0.119371 -0.504346 -0.059809
0.054959 -0.504346 -0.091068
-0.291357 -0.504346 -0.235202
0.228748 -0.482504 0.188224
-0.074086 -0.504346 0.219471
-0.173749 -0.482504 0.182039
0.370566 -0.498847 0.237009
0.179141 -0.504346 0.140085
-0.456878 -0.482504 0.028722
-0.41614 -0.482504 -0.066064
-0.114745 -0.482504 -0.005045
-0.089319 -0.482504 -0.159759
0.494857 -0.504346 0.194321
0.011777 -0.482504 0.012121
0.457373 -0.504346 0.030255
0.157267 -0.482504 0.096265
0.252115 -0.504346 -0.120901
0.240641 -0.482504 0.136209
-0.090098 -0.482504 -0.214421
-0.07378 -0.504346 0.171674
0.247532 -0.482504 0.061699
0.028652 -0.482504 -0.143818
0.365589 -0.504346 0.15744
0.119281 -0.482504 0.190543
-0.379293 -0.504346 -0.211869
-0.022715 -0.504346 -0.105476
-0.289087 -0.482504 0.047636
0.482409 -0.504346 -0.079405
0.133357 -0.504346 -0.213559
0.268622 -0.504346 -0.034334
0.383898 -0.482504 -0.169441
-0.486786 -0.504346 -0.031413
-0.283387 -0.482504 0.136575
0.281947 -0.504346 -0.129019
-0.438499 -0.482504 0.168749
0.287695 -0.482504 0.073886
-0.202861 -0.504346 0.061579
-0.134609 -0.482504 -0.219384
0.322174 -0.482504 -0.02563
0.249892 -0.504346 0.216278
0.209005 -0.504346 0.058625
-0.36586 -0.504346 0.034525
-0.363346 -0.482504 0.081442
0.271235 -0.482504 0.151342
-0.180764 -0.482504 -0.018316
-0.418932 -0.482504 -0.032392
0.103413 -0.482504 0.160575
-0.451716 -0.504346 0.011826
0.340489 -0.482504 0.108543
-0.161971 -0.482504 -0.183142
0.041683 -0.482504 -0.234226
-0.138865 -0.482504 -0.158124
0.059184 -0.504346 -0.17968
-0.319527 -0.504346 -0.004355
0.497189 -0.482504 -0.010271
-0.388432 -0.482504 -0.194582
0.140916 -0.504346 0.031452
0.042351 -0.504346 -0.213527
0.44393 -0.482504 -0.128673
-0.298341 -0.504346 -0.139796
0.378731 -0.482504 0.215593
-0.441279 -0.497538 -0.238052
-0.251624 -0.482504 -0.060192
0.405668 -0.482504 0.000841
0.158444 -0.482504 0.014704
0.159261 -0.482504 -0.056178
0.151066 -0.482504 -0.082986
-0.485187 -0.482504 -0.063726
0.160067 -0.482504 -0.134403
-0.317091 -0.503768 0.237009
0.388337 -0.504346 -0.222664
0.271529 -0.482504 -0.083303
0.370144 -0.504346 -0.015867
-0.054124 -0.482504 0.168215
0.454642 -0.504346 -0.062792
-0.398285 -0.504346 -0.060523
-0.029659 -0.482504 -0.196387
0.111132 -0.504346 0.097189
0.019076 -0.482504 0.184535
0.299751 -0.504346 -0.070192
0.18893 -0.482504 -0.122347
0.282175 -0.482504 0.123842
-0.453919 -0.504346 0.07303
0.249931 -0.482504 -0.20698
-0.413102 -0.504346 -0.17377
-0.44816 -0.504346 0.041997
0.447987 -0.482504 0.081696
0.415504 -0.504346 0.055787
-0.470751 -0.504346 -0.188081
-0.242625 -0.482504 0.023833
0.198477 -0.482504 0.19838
-0.385734 -0.482504 0.220371
0.347306 -0.482504 0.077165
-0.14822 -0.504346 -0.200711
-0.344422 -0.482504 0.168274
0.098302 -0.504346 -0.105556
-0.35432 -0.482504 -0.182346
0.361407 -0.482504 0.139603
0.199012 -0.482504 -0.016158
0.231774 -0.482504 -0.124604
0.364102 -0.504346 -0.102148
0.190782 -0.504346 -0.047623
-0.034563 -0.504346 -0.073103
0.501166 -0.482504 -0.097583
-0.02837 -0.482504 0.134229
-0.434817 -0.482504 0.201849
-0.188534 -0.482504 -0.207895
0.256961 -0.482504 -0.145603
0.152904 -0.504346 0.138981
0.36128 -0.504346 -0.05699
0.471167 -0.482504 0.145459
0.14812 -0.501383 0.237009
0.474945 -0.482504 0.090459
-0.459852 -0.504346 0.176497
-0.212281 -0.482504 -0.103039
0.309641 -0.482504 -0.163749
0.026405 -0.504346 -0.044831
-0.112059 -0.504346 0.032281
-0.162504 -0.482504 0.118466
-0.195783 -0.504346 -0.087721
0.05876 -0.482504 -0.122336
-0.193432 -0.504346 0.138397
-0.02521 -0.482504 -0.128582
0.319569 -0.482504 0.026568
-0.082342 -0.504346 -0.108271
-0.093696 -0.482504 0.180323
0.265943 -0.504346 -0.098981
-0.038895 -0.504346 0.023609
0.317625 -0.504346 -0.105266
-0.400905 -0.482504 -0.131099
0.152399 -0.482504 -0.217804
0.481995 -0.504346 -0.135193
-0.365103 -0.482504 -0.084659
-0.324074 -0.504346 -0.044971
-0.222066 -0.504346 0.221201
0.368862 -0.482504 0.051554
0.380028 -0.482504 -0.13434
-0.134049 -0.482504 0.175287
-0.161004 -0.482504 -0.042053
0.492788 -0.504346 0.045983
0.004359 -0.482504 -0.082386
0.432411 -0.482504 0.001297
0.118035 -0.482504 -0.041525
-0.016276 -0.482504 0.059656
-0.235517 -0.488066 -0.238052
0.50722 -0.490896 0.237009
-0.451372 -0.504346 -0.085409
-0.336447 -0.482504 -0.210657
-0.301784 -0.504346 0.210378
0.230548 -0.482504 -0.002835
0.082269 -0.504346 -0.02844
0.137153 -0.482504 0.208731
-0.047277 -0.504346 -0.161848
0.359813 -0.504346 -0.127425
-0.488247 -0.482504 -0.132039
0.21165 -0.482504 0.220109
0.433094 -0.504346 -0.121832
0.290311 -0.504346 0.0513
-0.079141 -0.504346 0.050692
0.167274 -0.504346 0.205012
0.075844 -0.504346 0.2052
0.300588 -0.482504 -0.227097
0.105713 -0.504346 -0.046325
-0.439702 -0.482504 -0.12866
-0.192372 -0.504346 -0.186033
0.449349 -0.482504 -0.103935
0.223357 -0.504346 0.228587
-0.090034 -0.504346 -0.050603
-0.052729 -0.482504 -0.074876
0.431911 -0.482504 -0.077048
-0.456531 -0.501391 0.237009
0.359214 -0.504346 0.181574
-0.157048 -0.504346 0.070309
0.202982 -0.504346 0.147405
-0.155857 -0.482504 -0.078462
-0.123653 -0.504346 0.120137
0.357894 -0.482504 -0.025616
-0.224098 -0.482504 -0.216622
-0.501639 -0.497575 -0.0799
-0.174027 -0.482504 0.065366
-0.399857 -0.482504 0.022597
-0.345805 -0.504346 0.08557
0.298418 -0.504346 -0.169998
0.454696 -0.504346 -0.037982
-0.119509 -0.482504 -0.110019
0.053749 -0.482504 0.070198
0.404511 -0.504346 -0.090228
-0.184938 -0.482504 -0.123438
0.081761 -0.482504 -0.173483
0.490787 -0.482504 0.20506
-0.340083 -0.482504 0.065355
0.071006 -0.504346 -0.070754
0.186294 -0.504346 0.086775
-0.424682 -0.504346 0.016716
0.147101 -0.482504 -0.155357
-0.336395 -0.482504 0.131487
0.338789 -0.504346 0.205721
-0.009461 -0.501761 0.237009
-0.17795 -0.504346 0.025834
-0.271554 -0.504346 0.05795
-0.303458 -0.482504 0.222101
0.460019 -0.482504 0.167214
-0.194322 -0.504346 0.175195
-0.375296 -0.504346 0.192691
-0.093212 -0.482504 0.057977
0.028503 -0.504346 -0.191445
-0.031134 -0.482504 0.2096
0.083489 -0.504346 -0.150561
-0.379845 -0.504346 -0.09936
0.413417 -0.504346 0.131146
0.173085 -0.504346 -0.112611
0.514008 -0.491607 -0.055282
0.226585 -0.504346 -0.092039
0.039665 -0.504346 0.018478
0.465727 -0.504346 0.209401
-0.501639 -0.498124 0.101501
-0.283157 -0.504346 -0.158691
-0.271358 -0.504346 0.210127
-0.414377 -0.504346 -0.149109
-0.420458 -0.504346 0.14164
-0.330505 -0.504346 -0.101909
0.104625 -0.504346 -0.013458
-0.139523 -0.482504 0.146226
-0.200615 -0.482504 0.097719
-0.094179 -0.482504 0.2198
0.109939 -0.482504 0.056769
0.232304 -0.504346 0.141539
0.397373 -0.482504 0.171308
-0.036677 -0.504346 -0.189493
-0.01378 -0.504346 0.122813
-0.203967 -0.482504 -0.079692
-0.276913 -0.504346 -0.084368
-0.314136 -0.504346 0.087609
-0.152911 -0.504346 0.093827
0.398148 -0.482504 -0.216616
-0.476554 -0.482504 -0.011092
0.068854 -0.504346 0.068113
0.076542 -0.482504 0.001942
-0.087523 -0.482504 0.007174
-0.045953 -0.504346 0.06294
-0.096605 -0.482504 0.099629
-0.028371 -0.504346 -0.036947
-0.482303 -0.482504 0.209391
-0.050726 -0.482504 0.126205
0.437221 -0.504346 0.145972
0.233567 -0.482504 -0.159195
-0.143392 -0.504346 4.5e-05
0.436375 -0.504346 0.18022
-0.046169 -0.482504 0.19092
0.273148 -0.482504 -0.220623
-0.138175 -0.504346 0.163294
0.29912 -0.482504 0.234385
-0.091894 -0.504346 -0.136094
-0.488367 -0.504346 -0.14099
-0.423217 -0.482504 0.071974
0.11994 -0.482504 -0.077082
0.293077 -0.504346 0.217333
-0.016246 -0.482504 -0.166497
0.140158 -0.482504 -0.193496
-0.462902 -0.504346 -0.050694
-0.210319 -0.504346 -0.164869
-0.421065 -0.504346 -0.024155
-0.254663 -0.482504 -0.140146
-0.172556 -0.504346 -0.232281
-0.500203 -0.482504 0.170472
0.47517 -0.482504 -0.197555
-0.231962 -0.504346 -0.066424
-0.437009 -0.504346 -0.203499
-0.107315 -0.504346 -0.00149
0.468225 -0.504346 0.175762
-0.254308 -0.482504 -0.223347
0.051682 -0.504346 -0.234848
-0.446684 -0.482504 -0.171049
-0.284566 -0.504346 0.084069
0.016302 -0.482504 0.16147
0.330025 -0.482504 -0.075636
0.242722 -0.482504 0.169684
-0.32603 -0.482504 -0.029394
-0.188144 -0.504346 -0.060534
0.456675 -0.504346 -0.170397
-0.328902 -0.482504 0.015204
0.084653 -0.504346 0.034564
-0.071094 -0.482504 0.039625
0.2575 -0.504346 -0.167926
0.031977 -0.504346 0.049016
-0.351462 -0.504346 -0.143719
0.309312 -0.482504 0.185805
-0.338411 -0.504346 0.174465
0.000144 -0.504346 0.150306
-0.262372 -0.504346 -0.11869
-0.234182 -0.482504 -0.193473
-0.224188 -0.482504 0.159568
-0.060947 -0.504346 -0.030165
0.212067 -0.482504 -0.070085
0.403037 -0.504346 0.032659
0.2971 -0.482504 0.030506
0.159622 -0.482504 0.037456
0.003285 -0.482504 -0.012091
0.042577 -0.482504 -0.053114
-0.491757 -0.482504 -0.035182
0.41133 -0.504346 -0.178912
-0.19963 -0.482504 0.143877
0.111745 -0.482504 -0.121122
0.514008 -0.488448 0.126762
-0.32134 -0.504346 -0.195084
0.250442 -0.482504 0.19458
0.215155 -0.504346 0.029048
-0.441411 -0.482504 -0.011088
0.191447 -0.482504 0.041493
0.469776 -0.482504 -0.017598
-0.252204 -0.504346 -0.010637
-0.076664 -0.482504 -0.13649
-0.299196 -0.504346 0.158576
0.162637 -0.504346 -0.071081
-0.497786 -0.504346 -0.168251
-0.293206 -0.482504 -0.045186
0.077581 -0.504346 0.160934
0.175114 -0.504346 0.004648
0.08654 -0.504346 -0.128479
-0.39764 -0.504346 0.111103
0.315174 -0.504346 -0.132681
0.054853 -0.504346 0.12843
-0.440461 -0.482504 0.146585
0.434464 -0.482504 0.099351
0.514008 -0.491516 0.024442
-0.087838 -0.504346 -0.217693
-0.010864 -0.482504 0.118623
0.287614 -0.504346 -0.103739
-0.100093 -0.504346 0.151208
-0.463199 -0.482504 -0.097239
0.499438 -0.504346 0.096106
-0.285894 -0.482504 0.186271
-0.337095 -0.504346 0.227523
0.090608 -0.482504 -0.077406
-0.119942 -0.504346 0.196278
0.457435 -0.504346 0.116802
-0.341689 -0.504346 0.137104
-0.019732 -0.482504 0.189897
0.094942 -0.482504 -0.191168
-0.077719 -0.482504 -0.028488
-0.328019 -0.182329 -0.19122
0.357203 -0.182329 -0.040702
-0.018877 -0.182329 0.015953
-0.277133 -0.182329 0.045854
0.131951 -0.160487 -0.130654
-0.380896 -0.160487 0.220315
0.177204 -0.182329 0.072367
-0.148097 -0.160487 -0.116248
0.369812 -0.160487 0.142223
-0.419786 -0.160487 -0.042459
-0.144053 -0.182329 0.156909
0.06344 -0.160487 0.148926
-0.007107 -0.182329 -0.118774
-0.150511 -0.182329 0.015692
0.230117 -0.182329 -0.053583
-0.395105 -0.182329 0.084511
0.437085 -0.182329 -0.14084
-0.283232 -0.160487 -0.079212
0.24476 -0.160487 -0.167243
0.220291 -0.160487 0.177112
0.514008 -0.162099 0.182532
0.117861 -0.182329 -0.021014
-0.263646 -0.160487 0.158397
0.303741 -0.160487 0.056918
-0.038609 -0.182329 0.149436
0.444604 -0.160487 0.065596
-0.114533 -0.160487 -0.211222
-0.229105 -0.160487 -0.173123
-0.408265 -0.182329 -0.136999
0.44921 -0.160487 -0.036723
0.064341 -0.160487 0.054005
0.346472 -0.182329 -0.143925
-0.076875 -0.182329 -0.052909
-0.090693 -0.182329 0.080413
-0.446863 -0.182329 0.153395
-0.007421 -0.182329 -0.203995
-0.205364 -0.182329 -0.046947
-0.202552 -0.160487 0.076849
0.144103 -0.160487 -0.217084
-0.346954 -0.182329 0.004069
-0.083067 -0.182329 0.214696
0.142387 -0.160487 0.16566
0.295996 -0.182329 0.133989
0.443747 -0.182329 0.141233
-0.475357 -0.160487 0.081675
-0.336468 -0.182329 0.148268
-0.07988 -0.182329 -0.143548
0.514008 -0.172058 -0.105843
0.03841 -0.182329 -0.03315
0.236267 -0.182329 0.025953
0.284624 -0.160487 -0.096533
-0.202402 -0.160487 0.197536
0.345799 -0.182329 0.2062
0.045955 -0.182329 0.214614
0.386764 -0.160487 0.026086
0.017065 -0.182329 0.101807
0.076045 -0.182329 -0.096404
-0.351132 -0.160487 -0.061135
0.49781 -0.182329 0.025167
0.117084 -0.182329 0.102358
-0.44675 -0.160487 0.021023
0.296829 -0.160487 -0.009732
0.17933 -0.160487 -0.006211
0.092444 -0.182329 -0.179409
0.399375 -0.160487 -0.090952
0.234842 -0.182329 0.111041
-0.300302 -0.160487 0.214932
0.402913 -0.160487 -0.200694
0.160156 -0.182329 -0.077321
0.198117 -0.182329 -0.129066
-0.320058 -0.182329 -0.126656
-0.139583 -0.160487 -0.05314
0.300482 -0.182329 -0.187826
-0.016804 -0.160487 -0.060479
0.415841 -0.182329 0.197835
0.373226 -0.182329 0.083672
-0.076955 -0.160487 0.015063
-0.446275 -0.160487 -0.186412
-0.057211 -0.160487 -0.233544
-0.269169 -0.182329 -0.02361
0.285063 -0.160487 0.20125
-0.326065 -0.160487 0.072566
-0.392283 -0.160487 0.144855
0.46406 -0.160487 -0.189006
-0.209084 -0.160487 0.136696
-0.454513 -0.182329 -0.084437
0.127962 -0.160487 0.031623
-0.029897 -0.160487 0.209453
-0.170678 -0.160487 -0.16875
-0.25817 -0.182329 -0.125419
0.109432 -0.182329 0.208748
-0.146042 -0.160487 0.078136
-0.272408 -0.160487 0.102815
-0.206855 -0.182329 -0.10278
-0.03076 -0.160487 0.083266
0.485311 -0.160487 0.110567
-0.208799 -0.160487 0.022662
-0.143373 -0.160487 0.205886
0.039862 -0.160487 -0.196896
-0.082358 -0.160487 0.126718
-0.365063 -0.160487 -0.155153
0.190076 -0.182329 -0.208142
0.007141 -0.182329 0.181756
0.443377 -0.182329 0.008822
-0.388938 -0.182329 -0.086787
0.168479 -0.182329 0.128392
-0.47328 -0.160487 -0.021884
0.06673 -0.182329 0.009313
-0.034956 -0.160487 -0.168721
-0.460494 -0.182329 0.200977
0.079495 -0.160487 -0.049758
0.031218 -0.160487 -0.140825
-0.105692 -0.182329 -0.101529
0.01364 -0.182329 0.052625
0.464901 -0.182329 0.185032
-0.049199 -0.160487 -0.108772
0.065939 -0.182329 0.097138
-0.314166 -0.160487 -0.029961
-0.112897 -0.182329 -0.019447
0.316356 -0.182329 -0.068049
0.264435 -0.182329 0.073123
-0.289791 -0.160487 -0.156151
-0.09998 -0.160487 0.176555
-0.458784 -0.182329 -0.146768
0.223222 -0.160487 -0.094153
0.494739 -0.182329 -0.058125
0.175285 -0.160487 0.198044
0.329279 -0.182329 0.014612
-0.12536 -0.160487 -0.161121
-0.379707 -0.182329 -0.027511
0.389626 -0.182329 -0.129913
-0.375841 -0.182329 -0.193381
-0.161039 -0.160487 0.12115
0.465349 -0.182329 -0.105738
0.253674 -0.182329 -0.015426
0.153729 -0.160487 -0.173691
-0.048444 -0.182329 -0.018895
-0.439767 -0.182329 0.096155
0.401225 -0.182329 -0.040029
0.015679 -0.160487 -0.000252
-0.416773 -0.182329 0.205062
-0.21498 -0.182329 -0.216859
-0.352781 -0.160487 -0.104823
-0.250527 -0.160487 0.010755
0.110741 -0.160487 -0.082466
-0.382387 -0.160487 0.015805
-0.358615 -0.160487 0.100745
-0.48246 -0.182329 0.122084
-0.266402 -0.182329 0.195045
0.035533 -0.182329 -0.083156
0.229915 -0.160487 0.218547
0.260869 -0.160487 0.143796
0.495628 -0.160487 -0.01178
0.330667 -0.182329 0.166598
-0.164252 -0.182329 -0.024408
-0.083239 -0.160487 -0.182762
0.501887 -0.182329 0.06726
0.10384 -0.182329 0.062224
-0.001742 -0.160487 0.146743
0.109966 -0.160487 0.137628
-0.239084 -0.182329 0.116033
-0.418225 -0.182329 0.049527
-0.376948 -0.182329 0.177063
-0.488372 -0.160487 0.223015
0.007408 -0.160487 0.236094
0.169152 -0.182329 0.031917
-0.289375 -0.182329 -0.205508
0.362904 -0.182329 -0.081485
0.083065 -0.160487 -0.145977
0.335022 -0.160487 -0.185833
0.276947 -0.182329 0.02211
-0.057415 -0.160487 0.178387
0.424552 -0.182329 0.093554
-0.171523 -0.182329 -0.069507
0.283315 -0.160487 -0.222499
0.180193 -0.182329 -0.042147
-0.316319 -0.182329 0.036025
-0.480383 -0.182329 0.025192
0.320087 -0.160487 -0.122776
-0.474233 -0.182329 -0.222007
0.379453 -0.182329 -0.176491
0.316221 -0.160487 0.107269
0.495283 -0.182329 -0.201069
0.270079 -0.182329 -0.053864
-0.238756 -0.160487 -0.046215
-0.046508 -0.160487 0.046731
-0.227591 -0.182329 0.17625
-0.198704 -0.160487 -0.140887
-0.405627 -0.160487 -0.179495
0.362508 -0.160487 -0.00496
0.278425 -0.160487 -0.146957
-0.239971 -0.182329 0.058372
0.390493 -0.182329 0.168012
-0.219124 -0.182329 -0.00812
-0.247818 -0.160487 -0.209951
0.206095 -0.182329 0.138634
0.382961 -0.182329 0.218085
-0.122452 -0.182329 0.125245
-0.180054 -0.160487 0.166419
0.211294 -0.182329 0.054849
0.153027 -0.160487 0.101282
0.326684 -0.182329 0.077857
0.220163 -0.160487 -0.000416
-0.305378 -0.182329 -0.000408
0.415165 -0.182329 0.037652
0.423029 -0.182329 -0.070504
-0.128279 -0.182329 0.045795
-0.188437 -0.160487 -0.202171
0.226789 -0.160487 0.080904
0.250439 -0.182329 0.18
-0.417044 -0.160487 -0.108038
-0.045887 -0.182329 -0.073645
-0.237036 -0.160487 -0.103023
-0.417899 -0.160487 0.171879
0.41732 -0.160487 -0.006257
0.176652 -0.182329 0.168111
-0.401238 -0.160487 -0.222798
0.055851 -0.160487 0.184847
-0.236629 -0.160487 0.210715
-0.331501 -0.174459 0.237009
-0.437374 -0.160487 0.125813
0.18567 -0.160487 -0.102713
0.488777 -0.182329 0.139425
-0.410927 -0.182329 0.010949
0.401971 -0.160487 0.125462
-0.078359 -0.182329 0.15537
0.438769 -0.160487 0.169483
-0.072587 -0.182329 -0.209361
-0.129355 -0.18035 -0.238052
-0.451488 -0.182329 -0.040307
0.431036 -0.160487 -0.107864
-0.468541 -0.160487 0.173765
-0.273617 -0.182329 0.131843
0.367781 -0.160487 -0.21381
-0.086679 -0.160487 -0.079165
0.471192 -0.160487 0.033299
-0.201527 -0.182329 -0.169559
-0.163415 -0.165877 0.237009
0.203536 -0.182329 0.210019
0.042552 -0.182329 -0.16612
0.1422 -0.160487 -0.00062
0.436502 -0.182329 -0.190997
-0.358128 -0.160487 0.058004
0.051348 -0.160487 -0.112016
-0.43184 -0.181748 0.237009
0.233138 -0.182329 -0.127038
-0.298637 -0.160487 0.160891
0.183425 -0.160487 -0.155072
0.076054 -0.160487 -0.201373
-0.311929 -0.160487 0.104582
0.480537 -0.160487 -0.158188
-0.443372 -0.182329 -0.006324
-0.349845 -0.160487 0.175073
-0.083629 -0.160487 -0.019045
-0.035755 -0.182329 0.114812
0.321483 -0.160487 -0.041633
-0.256498 -0.182329 -0.076181
0.207472 -0.160487 -0.187623
0.334891 -0.160487 0.140168
0.048305 -0.182329 0.126839
0.207105 -0.181561 -0.238052
0.273782 -0.182329 0.227249
-0.217203 -0.160487 -0.07301
0.129146 -0.182329 -0.104427
0.457273 -0.182329 -0.070573
-0.300095 -0.182329 0.188603
-0.294254 -0.160487 -0.111491
0.095518 -0.182329 0.027588
0.006035 -0.160487 -0.181617
0.36336 -0.160487 -0.124031
-0.29191 -0.160487 0.024497
-0.391692 -0.160487 0.053398
-0.177142 -0.182329 0.100914
0.014811 -0.160487 -0.105118
-0.013317 -0.182329 -0.017309
0.485338 -0.160487 -0.121827
0.452718 -0.160487 0.098265
-0.119364 -0.160487 0.229471
-0.234025 -0.160487 0.088751
-0.325881 -0.160487 -0.151478
0.031984 -0.182329 0.024577
0.08225 -0.182329 0.16596
0.082958 -0.182329 -0.024666
0.259507 -0.182329 -0.093859
-0.057393 -0.182329 0.078086
0.09068 -0.160487 0.092169
-0.308254 -0.182329 -0.078399
-0.026029 -0.182329 0.182806
0.197836 -0.160487 -0.05974
0.080857 -0.160487 0.206533
0.038739 -0.160487 0.089758
-0.224186 -0.182329 -0.130893
-0.123263 -0.182329 0.087791
-0.454908 -0.160487 0.226836
0.487238 -0.160487 -0.081611
0.414145 -0.160487 -0.149414
0.233149 -0.182329 -0.215314
-0.357249 -0.160487 -0.017947
-0.069447 -0.160487 0.234675
-0.480838 -0.160487 -0.177888
0.400733 -0.160487 0.089935
0.144996 -0.182329 0.073814
0.36437 -0.182329 0.033496
-0.015097 -0.160487 -0.093438
-0.341144 -0.182329 0.116438
-0.270474 -0.182329 -0.169438
0.034216 -0.160487 -0.059785
-0.120169 -0.182329 0.203169
-0.174794 -0.160487 -0.098706
-0.153747 -0.160487 -0.214448
0.399434 -0.182329 0.065348
-0.279922 -0.182329 -0.054638
-0.18033 -0.182329 0.069299
0.123088 -0.160487 -0.193255
-0.353016 -0.160487 -0.19008
0.379028 -0.160487 -0.03335
-0.153759 -0.182329 -0.184362
-0.304284 -0.182329 0.065715
-0.425985 -0.160487 0.07826
-0.344512 -0.160487 0.026474
-0.128582 -0.160487 0.023263
0.368303 -0.160487 -0.156958
-0.094127 -0.182329 0.029399
-0.256383 -0.182329 0.087297
-0.272015 -0.160487 0.227889
0.426469 -0.160487 0.233584
0.029212 -0.160487 0.144507
-0.39067 -0.160487 0.106048
-0.136887 -0.182329 -0.135039
-0.355325 -0.182329 0.199161
-0.401525 -0.160487 -0.008795
0.354882 -0.160487 0.071778
0.03616 -0.182329 0.171382
0.309835 -0.182329 -0.141681
-0.038016 -0.182329 -0.205291
-0.469315 -0.160487 0.139008
-0.184269 -0.160487 -0.031881
-0.455095 -0.182329 -0.116452
0.331457 -0.160487 0.035821
-0.158189 -0.182329 0.190667
0.34594 -0.182329 -0.204013
0.255823 -0.160487 0.108988
0.325217 -0.160487 -0.214521
0.475723 -0.182329 -0.005065
0.126997 -0.182329 0.179839
0.123577 -0.182329 -0.214212
0.455802 -0.160487 -0.127197
0.024781 -0.182329 -0.210894
-0.016323 -0.182329 0.053093
-0.002976 -0.160487 0.097513
0.230043 -0.182329 0.158082
-0.15036 -0.160487 -0.081454
0.311238 -0.160487 0.158454
-0.109034 -0.160487 0.109951
-0.056809 -0.182329 0.017615
0.280136 -0.160487 0.08588
-0.122739 -0.182329 -0.192755
0.372518 -0.160487 0.103715
-0.429125 -0.182329 -0.069119
0.207066 -0.182329 0.084481
0.266983 -0.182329 -0.210918
0.238577 -0.182329 -0.186231
-0.412223 -0.182329 0.144119
0.133981 -0.182329 0.147572
0.311122 -0.182329 0.03839
0.259783 -0.182329 -0.153707
0.473366 -0.160487 0.072001
0.1994 -0.182329 0.027914
-0.061006 -0.182329 -0.166131
0.399991 -0.182329 0.003025
0.504593 -0.160487 0.210309
0.01555 -0.182329 0.218275
0.100497 -0.160487 0.231032
-0.314148 -0.160487 -0.05923
-0.487404 -0.182329 0.064587
-0.439769 -0.160487 -0.142652
0.070137 -0.182329 -0.066811
-0.387418 -0.182329 -0.15729
0.297314 -0.160487 -0.069471
0.412115 -0.182329 -0.110432
-0.235175 -0.182329 -0.191127
-0.028188 -0.160487 -0.140582
0.280449 -0.160487 -0.03808
-0.487088 -0.160487 -0.096485
0.109949 -0.160487 0.009099
-0.236599 -0.160487 0.145167
0.201876 -0.182329 -0.158409
-0.349537 -0.182329 -0.210321
-0.069506 -0.182329 0.113166
-0.277379 -0.182329 0.005802
-0.121213 -0.160487 0.143719
0.378018 -0.160487 -0.070797
-0.419308 -0.160487 0.031069
0.118476 -0.160487 0.083956
0.163251 -0.160487 -0.035108
-0.357888 -0.160487 0.147706
-0.107076 -0.182329 -0.161968
0.076964 -0.182329 -0.124879
-0.456531 -0.160487 0.060311
0.163694 -0.160487 0.146002
-0.493082 -0.182329 -0.065996
0.454323 -0.160487 -0.215932
0.484098 -0.182329 0.089402
-0.238251 -0.182329 0.024063
-0.054742 -0.182329 0.213168
-0.176863 -0.160487 0.209879
-0.056443 -0.160487 -0.059008
0.325544 -0.160487 0.183887
0.133292 -0.160487 -0.065511
-0.439743 -0.182329 -0.167576
0.340565 -0.182329 -0.018027
-0.051581 -0.160487 0.106977
-0.191801 -0.182329 0.018109
-0.073756 -0.182329 0.055328
-0.009345 -0.160487 0.175706
0.45941 -0.160487 0.150532
-0.197429 -0.182329 0.221611
0.293308 -0.160487 0.028194
-0.484703 -0.182329 -0.035046
0.046578 -0.160487 -0.01779
-0.17111 -0.182329 -0.213502
-0.469316 -0.160487 -0.049494
0.400643 -0.160487 0.223099
-0.181485 -0.182329 -0.142547
0.315292 -0.182329 -0.095853
-0.189464 -0.160487 -0.074225
0.138823 -0.160487 0.057862
-0.417038 -0.182329 -0.192106
-0.190684 -0.182329 0.179639
-0.330421 -0.182329 -0.034784
0.503879 -0.160487 -0.173931
0.453216 -0.160487 -0.16215
0.081196 -0.182329 0.13842
0.347435 -0.160487 0.164676
-0.376471 -0.182329 -0.000196
0.451933 -0.160487 -0.005511
-0.018499 -0.182329 -0.165939
-0.118401 -0.160487 -0.003793
0.102118 -0.160487 -0.16596
0.127323 -0.182329 -0.146435
0.455091 -0.160487 0.198186
-0.063095 -0.160487 -0.149899
-0.26231 -0.182329 -0.202307
0.077774 -0.160487 -0.009293
-0.151485 -0.182329 0.062861
-0.400397 -0.160487 0.1927
-0.063482 -0.182329 -0.116398
-0.284264 -0.182329 0.216354
0.192084 -0.160487 0.078431
-0.121533 -0.160487 0.066578
-0.251187 -0.160487 0.182416
0.376515 -0.182329 -0.012609
0.185295 -0.165581 -0.238052
0.463602 -0.182329 0.109846
0.145778 -0.182329 -0.187431
0.143021 -0.182329 0.119417
-0.385847 -0.182329 0.202522
-0.482469 -0.182329 0.185376
0.492525 -0.160487 0.049708
-0.001913 -0.160487 0.210879
0.494643 -0.17942 0.237009
0.506842 -0.160487 -0.048214
-0.401491 -0.160487 -0.077708
0.270682 -0.160487 -0.195926
0.258453 -0.160487 0.199144
-0.216942 -0.160487 -0.201735
-0.409508 -0.182329 -0.235582
0.420628 -0.160487 -0.055479
-0.475225 -0.160487 0.108746
-0.148731 -0.182329 0.222253
-0.151536 -0.160487 0.000664
-0.224337 -0.160487 -0.023944
-0.077588 -0.160487 0.195606
-0.014801 -0.182329 -0.045602
0.256475 -0.160487 -0.000747
-0.096648 -0.160487 -0.042016
-0.196387 -0.180355 -0.238052
-0.052821 -0.160487 -0.205394
-0.402991 -0.182329 0.173021
0.078517 -0.160487 -0.078926
0.50006 -0.182329 -0.025801
0.208532 -0.182329 -0.093597
-0.336962 -0.182329 0.062834
0.358814 -0.182329 0.10871
0.463036 -0.182329 0.061749
-0.030771 -0.160487 0.02432
0.081129 -0.160487 0.028487
0.498652 -0.182329 0.1905
0.210746 -0.160487 -0.122328
0.502053 -0.182329 0.108576
-0.197256 -0.182329 0.117507
-0.460332 -0.160487 -0.22598
-0.451457 -0.182329 0.124368
-0.124147 -0.160487 -0.029154
0.411047 -0.168187 -0.238052
0.16819 -0.182329 0.005937
-0.103701 -0.182329 0.161084
-0.182835 -0.182329 -0.187596
0.505559 -0.182329 -0.235927
-0.013188 -0.182329 0.08805
-0.025926 -0.180894 0.237009
0.071323 -0.182329 0.066028
0.130305 -0.182329 0.017962
-0.391182 -0.160487 -0.10754
0.361147 -0.160487 -0.095227
0.385934 -0.182329 -0.09414
-0.413931 -0.160487 -0.15506
-0.325488 -0.160487 0.209311
-0.039131 -0.178321 -0.238052
0.005982 -0.160487 -0.048409
0.425034 -0.160487 0.113942
0.261673 -0.160487 0.233537
-0.227288 -0.160487 0.063179
-0.301256 -0.182329 -0.025818
-0.356452 -0.182329 -0.144683
-0.44874 -0.160487 0.190137
0.24708 -0.182329 0.049235
-0.4295 -0.182329 -0.114516
-0.004101 -0.160487 0.058718
-0.478736 -0.182329 0.160081
-0.139365 -0.182329 -0.066379
0.364955 -0.182329 0.167733
-0.308229 -0.182329 0.225438
-0.245112 -0.182329 -0.015315
0.222039 -0.160487 -0.067558
0.097438 -0.160487 0.050935
-0.025946 -0.182329 -0.101748
-0.049687 -0.160487 -0.03453
-0.432982 -0.160487 -0.014047
0.395887 -0.182329 0.114089
0.024356 -0.182329 -0.012066
0.422873 -0.182329 0.173495
-0.094756 -0.182329 0.111365
-0.004858 -0.160487 -0.220657
0.186796 -0.182329 -0.016482
0.468924 -0.160487 -0.052483
0.173135 -0.182329 -0.103567
0.395867 -0.160487 -0.119193
-0.359519 -0.182329 -0.094418
0.086329 -0.182329 -0.208306
-0.28267 -0.160487 0.180235
0.028617 -0.182329 0.072733
0.35422 -0.165451 0.237009
-0.245692 -0.182329 0.153356
0.242618 -0.160487 -0.109969
-0.266423 -0.160487 0.040052
-0.232416 -0.182329 -0.069557
-0.338759 -0.182329 0.179875
-0.458385 -0.160487 -0.073094
-0.311973 -0.182329 0.152716
0.083058 -0.182329 0.219175
-0.053021 -0.182329 -0.046109
0.293898 -0.160487 0.118016
0.16333 -0.160487 0.219728
0.44509 -0.160487 0.129716
0.158753 -0.182329 -0.024425
-0.037836 -0.182329 0.039073
0.286336 -0.182329 -0.07302
0.020159 -0.160487 0.024038
-0.387073 -0.182329 -0.051074
-0.284028 -0.160487 0.12708
-0.178212 -0.160487 0.058215
-0.442648 -0.160487 -0.051458
0.01304 -0.160487 -0.02489
0.252578 -0.160487 0.168997
0.209102 -0.160487 -0.149884
0.092826 -0.182329 0.106017
0.228716 -0.160487 -0.023401
0.101954 -0.182329 0.00136
-0.21228 -0.182329 0.071449
0.02713 -0.182329 -0.186496
-0.303724 -0.160487 0.054716
-0.018982 -0.182329 0.134899
0.445861 -0.182329 0.079074
0.23548 -0.182329 -0.15576
0.220722 -0.182329 0.192737
-0.353245 -0.160487 0.209753
-0.429558 -0.160487 0.150505
-0.008884 -0.182329 0.16344
-0.079175 -0.181617 -0.238052
0.423123 -0.160487 0.080607
-0.1607 -0.160487 0.023093
-0.300066 -0.182329 -0.158208
0.409364 -0.160487 -0.033482
0.248689 -0.160487 -0.14336
0.130391 -0.182329 0.042048
-0.480556 -0.160487 -0.212952
-0.289201 -0.160487 -0.215567
-0.353387 -0.182329 0.03106
-0.227632 -0.160487 0.18707
0.304927 -0.182329 -0.223223
-0.163676 -0.182329 0.143116
0.3199 -0.182329 0.135443
0.282369 -0.182329 -0.172173
0.344684 -0.182329 0.140464
-0.46219 -0.160487 -0.162887
0.136708 -0.160487 0.138186
-0.343147 -0.182329 -0.120382
0.288089 -0.160487 0.152473
0.324787 -0.160487 -0.097875
-0.327646 -0.160487 0.152117
-0.031707 -0.160487 -0.194303
-0.081111 -0.182329 0.006689
-0.102189 -0.160487 0.024839
0.048812 -0.182329 -0.120884
-0.215115 -0.182329 0.205876
-0.03925 -0.160487 -0.079878
-0.202625 -0.160487 -0.094742
-0.297165 -0.182329 -0.102931
0.179697 -0.182329 -0.143826
0.354274 -0.160487 0.118666
0.340177 -0.160487 -0.150177
0.501768 -0.182329 -0.165346
0.514008 -0.179558 0.223602
-0.281141 -0.160487 0.08095
-0.102771 -0.182329 0.227535
0.180309 -0.182329 0.213468
-0.442136 -0.160487 -0.211148
0.167596 -0.160487 0.169124
-0.312286 -0.160487 0.004344
0.514008 -0.179106 -0.070967
0.270099 -0.182329 0.167352
0.067683 -0.160487 -0.225068
-0.357476 -0.182329 -0.178967
-0.021262 -0.160487 -0.118295
0.301995 -0.16444 0.237009
-0.462696 -0.182329 0.092039
0.434687 -0.182329 -0.214211
0.35727 -0.160487 -0.048729
0.146536 -0.182329 -0.2247
0.503396 -0.160487 -0.140926
0.382974 -0.182329 -0.064704
0.38995 -0.182329 -0.1558
0.505533 -0.160487 0.024139
-0.202515 -0.160487 0.000346
-0.155702 -0.182329 -0.161287
0.198181 -0.160487 0.201247
-0.079986 -0.160487 -0.208239
0.173025 -0.160487 0.026057
0.217861 -0.160487 0.102018
-0.01057 -0.182329 -0.068123
-0.049218 -0.182329 -0.096306
0.273205 -0.182329 0.136149
-0.478833 -0.182329 -0.166541
0.315286 -0.182329 -0.043886
-0.221237 -0.160487 -0.125068
-0.098506 -0.160487 0.220277
0.208658 -0.182329 -0.061176
0.286213 -0.182329 0.087572
0.257121 -0.182329 0.115566
0.135783 -0.160487 -0.159788
-0.22688 -0.182329 -0.09209
-0.316781 -0.182329 -0.226927
-0.148007 -0.160487 -0.159787
0.4122 -0.182329 -0.016088
0.140045 -0.160487 0.224132
-0.403389 -0.160487 0.223125
-0.107468 -0.160487 0.197941
0.446356 -0.160487 0.016438
0.253459 -0.182329 -0.038484
0.488045 -0.182329 0.045765
0.322695 -0.182329 -0.117429
-0.050366 -0.160487 0.071998
-0.047372 -0.182329 0.19024
0.385005 -0.160487 -0.007091
0.019776 -0.182329 -0.108042
-0.017761 -0.160487 0.231907
0.138304 -0.182329 -0.071743
0.051182 -0.182329 0.076171
0.405541 -0.160487 -0.170228
0.251339 -0.182329 -0.066352
-0.08562 -0.182329 -0.112332
-0.087671 -0.160487 0.084925
0.344254 -0.160487 0.211333
-0.440465 -0.160487 0.101392
0.405746 -0.182329 0.222538
0.364308 -0.182329 -0.129057
-0.350699 -0.182329 -0.025204
0.45257 -0.182329 -0.157372
-0.48331 -0.182329 -0.093627
-0.401475 -0.182329 -0.033994
-0.296764 -0.160487 -0.015958
-0.391807 -0.160487 -0.152032
-0.052237 -0.160487 -0.012349
-0.403407 -0.182329 -0.069814
-0.484094 -0.182329 0.223972
-0.497412 -0.182329 -0.199264
-0.162968 -0.182329 -0.130196
0.209815 -0.182329 0.10655
-0.26739 -0.182329 0.065839
-0.06079 -0.160487 0.156424
-0.324058 -0.160487 -0.127439
0.331267 -0.182329 -0.187052
0.358869 -0.182329 -0.222031
-0.295631 -0.182329 0.02543
0.231584 -0.182329 -0.016512
-0.109066 -0.160487 -0.102194
-0.162843 -0.182329 0.118245
-0.404396 -0.182329 -0.010338
-0.244009 -0.182329 -0.108485
0.103868 -0.182329 -0.160532
-0.164051 -0.160487 -0.064154
0.480828 -0.182329 -0.075221
-0.009649 -0.182329 -0.230462
0.028901 -0.182329 -0.13943
0.309917 0.154705 0.030456
-0.237548 0.154705 -0.01602
0.024169 0.176547 0.026659
0.214805 0.154705 -0.161637
0.413726 0.154705 -0.135542
-0.355796 0.176547 0.121055
-0.12533 0.154705 0.140334
-0.084784 0.154705 -0.110242
0.173016 0.154705 0.109575
-0.374953 0.176547 -0.088169
0.468707 0.176547 0.018999
-0.229411 0.154705 -0.158096
0.092247 0.154705 -0.091328
0.320349 0.176547 0.173223
0.01999 0.176547 0.174381
-0.436179 0.176547 0.021227
0.193537 0.154705 -0.019081
0.445303 0.154705 0.142249
-0.242557 0.176547 0.157846
0.301465 0.154705 -0.085923
-0.105485 0.176547 0.000463
-0.327829 0.154705 0.228433
0.119217 0.154705 0.196716
-0.447165 0.176547 0.17839
-0.334545 0.176547 0.005364
-0.417787 0.154705 -0.174373
0.007623 0.176547 -0.149212
-0.168139 0.176547 0.219662
-0.180297 0.154705 0.066107
-0.006638 0.154705 -0.061173
0.084519 0.176547 0.10797
0.373631 0.176547 0.095075
-0.27105 0.154705 0.077157
0.388412 0.176547 -0.053985
-0.038233 0.154705 0.084707
-0.28799 0.154705 -0.088063
0.234149 0.176547 0.170285
0.297309 0.176547 -0.168799
0.11135 0.176547 -0.169723
-0.146802 0.176547 -0.179511
-0.335658 0.154705 -0.170524
0.115946 0.176547 -0.004624
0.253202 0.154705 0.089365
-0.200302 0.176547 -0.083598
0.369743 0.176547 -0.200411
-0.444076 0.154705 0.096635
0.17806 0.176547 -0.096017
0.463336 0.176547 -0.063713
-0.054703 0.176547 0.179919
-0.436866 0.154705 -0.055271
0.382531 0.154705 0.203325
0.479628 0.176547 0.217035
0.388167 0.154705 0.011377
0.258748 0.176547 -0.015188
0.128525 0.154705 0.057664
-0.11775 0.176547 0.075642
-0.163692 0.154705 -0.021936
-0.04051 0.176547 0.006499
-0.439783 0.176547 -0.116417
-0.372371 0.176547 0.183887
0.453789 0.176547 0.081936
0.022339 0.154705 0.106831
0.355391 0.176547 -0.121818
0.214882 0.176547 0.036529
0.239925 0.176547 -0.083817
-0.392351 0.176547 0.068048
0.446274 0.176547 -0.19213
-0.085315 0.176547 -0.189926
-0.382004 0.154705 -0.02721
-0.311782 0.154705 0.158147
-0.231042 0.154705 -0.225542
-0.140776 0.154705 -0.086377
-0.183779 0.154705 0.165204
0.281422 0.176547 0.224835
-0.062649 0.176547 -0.057956
-0.332564 0.154705 0.070191
-0.282354 0.176547 -0.187038
0.055565 0.154705 -0.043962
0.061431 0.154705 -0.201209
0.322662 0.176547 -0.02252
0.180108 0.176547 0.190925
0.482615 0.176547 -0.135291
0.315508 0.154705 0.086486
-0.283082 0.176547 0.201277
-0.076369 0.176547 0.123741
-0.376026 0.154705 -0.211793
-0.229851 0.176547 0.034441
0.285923 0.154705 -0.218318
-0.222481 0.176547 0.09439
0.395111 0.176547 0.148857
0.041944 0.176547 -0.093868
-0.325453 0.154705 -0.048223
0.160648 0.154705 -0.167156
0.067575 0.154705 0.161463
0.286347 0.176547 0.13155
-0.17177 0.154705 -0.130095
0.080758 0.176547 0.047108
-0.013677 0.154705 0.209699
-0.011156 0.154705 -0.193646
0.037532 0.154705 0.220283
0.124667 0.176547 -0.055836
0.131351 0.176547 -0.118278
0.432101 0.176547 -0.023565
-0.071442 0.176547 0.046633
-0.100785 0.176547 0.207396
-0.418739 0.176547 0.134513
0.267724 0.176547 -0.128024
0.220724 0.176547 0.220716
0.127173 0.176547 0.152325
0.052631 0.154705 -0.150902
-0.286499 0.176547 -0.008055
-0.483785 0.154705 0.024823
-0.474494 0.176547 -0.179432
-0.216422 0.176547 0.208119
-0.028736 0.176547 -0.099841
-0.311464 0.176547 -0.133485
-0.298083 0.176547 0.111751
-0.020501 0.154705 0.130434
-0.183974 0.154705 -0.202504
-0.260997 0.176547 -0.128165
-0.380209 0.154705 0.02685
-0.240062 0.154705 -0.067623
0.498147 0.154705 0.066689
0.420166 0.154705 0.047071
0.170883 0.176547 0.017511
0.187783 0.154705 -0.209439
0.016688 0.154705 -0.016455
0.262423 0.154705 0.027074
0.492316 0.154705 -0.020636
-0.392789 0.154705 0.223043
-0.374417 0.154705 -0.129847
0.444419 0.154705 0.195395
-0.30366 0.154705 0.032066
0.064142 0.176547 0.003596
-0.474303 0.176547 -0.225562
-0.138975 0.176547 0.178191
0.19443 0.154705 0.149905
-0.059824 0.176547 -0.14057
0.395357 0.154705 -0.094571
0.362983 0.176547 0.051653
0.356156 0.154705 0.147477
-0.122731 0.154705 -0.148882
0.438641 0.176547 -0.105727
-0.164985 0.154705 0.024531
0.086419 0.176547 -0.129134
-0.459423 0.154705 0.142719
-0.477455 0.154705 -0.133694
0.340733 0.176547 -0.081092
-0.489444 0.154705 0.210864
0.328702 0.176547 0.121358
0.214373 0.176547 -0.119261
0.334433 0.154705 -0.170102
0.028818 0.176547 0.070302
-0.323823 0.176547 -0.2056
-0.394744 0.154705 0.106692
0.359172 0.154705 -0.024966
0.109718 0.154705 -0.21268
-0.428976 0.176547 0.217898
0.276703 0.176547 0.182624
0.479871 0.154705 -0.175215
0.47432 0.176547 0.121075
0.191514 0.154705 0.063144
-0.406525 0.154705 0.175691
0.255882 0.154705 -0.165827
-0.14083 0.176547 -0.05138
-0.469255 0.154705 0.064008
-0.089007 0.154705 -0.030337
-0.222986 0.154705 -0.109753
0.493398 0.176547 0.177148
0.40695 0.154705 0.116562
-0.463733 0.176547 -0.025358
-0.483025 0.176547 0.107894
0.074854 0.154705 0.201228
0.196604 0.154705 -0.067558
0.387825 0.154705 -0.166523
-0.009212 0.154705 0.019415
-0.440626 0.176547 -0.201164
-0.095116 0.154705 0.166887
0.147763 0.176547 0.22129
-0.053572 0.154705 0.214189
0.469702 0.154705 -0.216128
0.140692 0.154705 -0.084761
-0.324866 0.176547 -0.081259
-0.216739 0.154705 0.126709
0.036049 0.176547 -0.17917
0.222649 0.154705 0.122488
-0.049704 0.154705 -0.20144
0.338587 0.154705 -0.20917
0.135735 0.154705 0.098347
0.274798 0.176547 0.065456
-0.416366 0.154705 -0.088303
-0.034398 0.176547 -0.169891
-0.156821 0.154705 0.117985
0.337585 0.176547 0.012737
-0.276196 0.176547 -0.058938
-0.026012 0.176547 0.05589
0.346085 0.154705 0.224117
-0.150835 0.176547 0.052253
0.144955 0.154705 -0.032435
-0.405816 0.176547 -0.145811
-0.096716 0.154705 -0.0743
0.156962 0.154705 0.144343
-0.400756 0.173966 -0.235322
-0.475845 0.154705 -0.06528
0.290912 0.176547 -0.057083
-0.183724 0.176547 0.096605
-0.200628 0.176547 -0.04605
0.226476 0.154705 0.008356
-0.41135 0.176547 -0.019172
0.322568 0.154705 -0.134687
0.01998 0.154705 -0.2139
0.256401 0.154705 -0.04499
0.028417 0.154705 -0.120517
0.468374 0.154705 -0.108594
-0.345529 0.176547 0.156561
0.263113 0.154705 0.156308
-0.24795 0.176547 -0.199725
-0.134694 0.154705 0.002267
0.0763 0.176547 -0.064443
0.421713 0.176547 -0.073604
0.422317 0.176547 0.01139
-0.006569 0.176547 0.104635
-0.047598 0.154705 -0.033555
-0.338654 0.176547 0.196007
0.146922 0.176547 -0.215875
0.135811 0.176547 0.030435
-0.008107 0.154705 0.172612
0.052115 0.154705 0.126344
0.438834 0.169542 -0.235322
-0.374691 0.154705 -0.176297
0.286504 0.154705 -0.011518
0.498683 0.176547 -0.075923
-0.201588 0.176547 -0.157962
-0.441348 0.176547 0.056171
0.398122 0.154705 -0.200188
0.496187 0.154705 0.020325
0.401099 0.154705 0.239127
-0.487394 0.176547 0.183547
-0.074835 0.167773 0.242469
0.103395 0.154705 0.127477
0.240314 0.176547 0.060325
0.30056 0.176547 -0.116489
-0.191846 0.173377 -0.235322
-0.121553 0.176547 -0.203318
-0.085767 0.154705 0.02382
-0.213692 0.154705 0.055943
-0.174771 0.154705 -0.054761
0.054041 0.154705 0.047436
-0.353627 0.176547 -0.023376
-0.033307 0.154705 -0.137525
-0.449107 0.154705 -0.002111
-0.292292 0.154705 -0.151742
-0.252866 0.154705 0.106176
0.462055 0.154705 -0.037499
0.082746 0.154705 -0.014916
0.239122 0.154705 -0.110624
0.00908 0.176547 -0.084813
0.414864 0.154705 0.165798
-0.084065 0.154705 0.069293
-0.203109 0.176547 0.013618
-0.261088 0.176547 0.021328
0.087068 0.176547 -0.198125
0.162877 0.155005 0.242469
-0.355627 0.176547 0.034511
-0.327441 0.154705 -0.234172
-0.46196 0.176547 -0.086907
0.103058 0.176547 0.17675
-0.20122 0.176547 -0.123379
0.358119 0.176547 -0.160298
-0.501559 0.154705 -0.203857
0.156421 0.154705 0.181153
0.506207 0.154705 -0.117864
0.04969 0.154705 -0.235262
0.445171 0.176547 0.240731
-0.083595 0.154705 -0.14928
-0.015763 0.165935 -0.235322
0.035316 0.176547 -0.059081
-0.435699 0.154705 -0.146261
0.348746 0.154705 0.072396
-0.214683 0.176547 -0.20127
0.242814 0.154705 -0.211581
0.166322 0.176547 -0.064942
0.181576 0.154705 -0.141364
0.41278 0.176547 -0.16835
-0.098965 0.154705 0.113052
0.355817 0.154705 0.18063
-0.061056 0.176547 0.094534
0.098331 0.154705 0.235202
-0.418465 0.154705 -0.21154
0.503826 0.154705 0.202106
0.151272 0.176547 0.079487
-0.102103 0.176547 -0.12733
0.203164 0.154705 0.183194
-0.257794 0.154705 -0.104176
-0.32373 0.176547 0.045439
0.405981 0.176547 0.09163
0.395087 0.176547 0.182779
0.408171 0.154705 -0.021188
0.466711 0.176547 0.152939
0.340464 0.154705 -0.051371
0.367792 0.176547 0.126839
0.240131 0.154705 0.207413
-0.148281 0.176547 0.145032
-0.252748 0.176547 -0.160027
0.188846 0.176547 0.222635
0.142899 0.176547 0.120511
-0.312764 0.154705 0.200334
0.101502 0.154705 -0.056964
-0.487375 0.176547 -0.004023
-0.197838 0.154705 0.194332
-0.169522 0.176547 0.187027
0.386958 0.176547 -0.116054
-0.416313 0.176547 0.098565
-0.290989 0.176547 0.167867
-0.341854 0.176547 -0.124601
0.289016 0.154705 0.203309
0.155792 0.154705 0.04112
0.288581 0.176547 0.023014
0.320537 0.176547 -0.195642
-0.244046 0.154705 0.180333
-0.366635 0.176547 0.086035
0.340347 0.154705 -0.103507
-0.393437 0.176547 -0.046483
-0.167313 0.154705 -0.170846
-0.293164 0.176547 0.079076
-0.135581 0.154705 -0.220496
-0.031412 0.176547 0.15929
-0.26416 0.154705 -0.040344
-0.129487 0.154705 0.103143
0.443362 0.154705 -0.077788
0.463175 0.154705 -0.149079
-0.406087 0.154705 -0.117563
-0.169672 0.176547 -0.000748
0.400654 0.169934 -0.235322
-0.309014 0.154705 -0.111707
-0.06671 0.176547 -0.009894
-0.490002 0.154705 0.162002
-0.162704 0.176547 -0.206571
0.209386 0.176547 -0.21028
0.440139 0.154705 -0.000832
-0.076625 0.154705 -0.227884
-0.317064 0.154705 0.096548
0.232289 0.176547 -0.149329
-0.058885 0.176547 -0.094964
