0.363518 0.547863 1.1178181550458441
0.010028 0.477189 1.1178181550458441
0.077768 0.549305 1.0837751550458443
0.06255 0.445001 1.0837751550458443
0.021967 0.527051 1.0497321550458443
-0.292672 0.535748 1.0837751550458443
0.148827 0.38342 1.0837751550458443
-0.147187 0.665892 1.1178181550458441
0.142805 0.449647 1.1178181550458441
0.258218 0.467742 1.1169651550458441
0.350134 0.430536 1.1178181550458441
-0.269445 0.684803 1.099929155045844
0.070878 0.376457 1.1094291550458442
0.168008 0.530066 1.0497321550458443
-0.066464 0.489933 1.103306155045844
-0.164756 0.688516 1.0870411550458443
-0.259847 0.555785 1.0837751550458443
0.164897 0.466505 1.0837751550458443
0.137067 0.502326 1.0837751550458443
-0.374568 0.542709 1.1178181550458441
0.333598 0.526275 1.0837751550458443
-0.319199 0.421502 1.0837751550458443
-0.348909 0.433437 1.1178181550458441
0.031405 0.578986 1.1178181550458441
0.237054 0.570456 1.0497321550458443
-0.382153 0.417546 1.0837751550458443
0.360766 0.414692 1.0837751550458443
-0.153645 0.53496 1.0497321550458443
0.011783 0.549769 1.0837751550458443
-0.225247 0.425983 1.1178181550458441
-0.335177 0.508855 1.0837751550458443
0.17037 0.612756 1.1178181550458441
0.071016 0.422724 1.1178181550458441
-0.268067 0.465412 1.1178181550458441
-0.064499 0.412814 1.0837751550458443
0.324425 0.483447 1.0837751550458443
0.089676 0.529693 1.0497321550458443
-0.197535 0.41836 1.0837751550458443
0.188196 0.65315 1.1178181550458441
-0.136922 0.389809 1.1178181550458441
-0.377095 0.376457 1.0905041550458443
-0.10167 0.472084 1.0837751550458443
-0.405616 0.454936 1.0940121550458441
-0.124363 0.66336 1.0837751550458443
-0.310332 0.504415 1.1178181550458441
0.382487 0.484573 1.1178181550458441
-0.023411 0.517942 1.0497321550458443
-0.036074 0.583626 1.0837751550458443
0.039221 0.397104 1.0837751550458443
0.231294 0.625427 1.0837751550458443
0.204741 0.688516 1.1098741550458442
-0.163487 0.48934 1.0837751550458443
-0.217565 0.526013 1.0837751550458443
0.122454 0.480459 1.0497321550458443
-0.335121 0.639885 1.1178181550458441
-0.061388 0.556389 1.0837751550458443
-0.199582 0.685598 1.0837751550458443
0.293398 0.622607 1.0837751550458443
0.175428 0.601707 1.0837751550458443
0.10503 0.592052 1.1178181550458441
-0.269445 0.627669 1.0876061550458442
-0.236202 0.683469 1.1178181550458441
0.203278 0.45589 1.0830291550458442
-0.008994 0.453131 1.0837751550458443
-0.109276 0.522253 1.0837751550458443
-0.351081 0.392816 1.1178181550458441
-0.206016 0.489262 1.1178181550458441
0.036401 0.579896 1.0837751550458443
-0.078475 0.444231 1.0837751550458443
0.266412 0.592062 1.0500171550458441
-0.334333 0.609136 1.0837751550458443
-0.388035 0.573385 1.0837751550458443
-0.297955 0.680751 1.1178181550458441
-0.15364 0.513446 1.1064701550458442
0.212384 0.465287 1.1178181550458441
0.207077 0.494142 1.0497321550458443
0.301559 0.587634 1.0837751550458443
0.269217 0.406747 1.0837751550458443
0.181911 0.567416 1.0837751550458443
0.150453 0.559351 1.0497321550458443
-0.024834 0.622113 1.1178181550458441
0.258218 0.655725 1.1166811550458442
-0.048247 0.579659 1.0497321550458443
-0.229553 0.488637 1.0497321550458443
-0.357665 0.669321 1.1178181550458441
0.021336 0.615376 1.0837751550458443
0.353101 0.451529 1.0837751550458443
-0.34112 0.557547 1.1178181550458441
0.391227 0.583336 1.1178181550458441
0.105713 0.511347 1.0837751550458443
-0.005639 0.518793 1.1064701550458442
0.290035 0.496031 1.1178181550458441
-0.051161 0.530312 1.1064701550458442
0.0155 0.435944 1.1178181550458441
0.030421 0.588173 1.0497321550458443
0.265389 0.554201 1.0837751550458443
0.059635 0.601602 1.0837751550458443
-0.332171 0.540494 1.0837751550458443
-0.391434 0.660166 1.0837751550458443
-0.158821 0.412579 1.1178181550458441
0.052014 0.494496 1.1064701550458442
-0.129153 0.688516 1.1050611550458442
0.388816 0.429038 1.0837751550458443
-0.041491 0.481927 1.0837751550458443
0.258218 0.507464 1.0926741550458443
-0.181206 0.46352 1.0837751550458443
-0.384991 0.478255 1.0837751550458443
-0.306596 0.553059 1.1178181550458441
-0.086029 0.688516 1.095875155045844
0.165373 0.492587 1.0497321550458443
0.378408 0.443276 1.1178181550458441
0.073553 0.479549 1.0837751550458443
-0.046076 0.688516 1.117212155045844
0.241737 0.528625 1.0497321550458443
0.258218 0.620495 1.101422155045844
0.146366 0.484774 1.1178181550458441
-0.312966 0.391575 1.0837751550458443
0.258218 0.39875 1.1111451550458442
0.159609 0.396666 1.1178181550458441
0.004668 0.57504 1.1037461550458443
-0.209688 0.663842 1.1178181550458441
0.170241 0.532551 1.1064701550458442
0.39439 0.544554 1.1124201550458443
0.089758 0.6326 1.1178181550458441
-0.147938 0.470278 1.1178181550458441
0.138162 0.532488 1.0837751550458443
0.036101 0.519646 1.0837751550458443
-0.308208 0.561527 1.0837751550458443
-0.161647 0.573986 1.0837751550458443
0.209081 0.509697 1.0837751550458443
-0.391312 0.433855 1.1178181550458441
-0.077894 0.644089 1.0837751550458443
0.2911 0.467236 1.0837751550458443
-0.295611 0.633096 1.1178181550458441
0.22512 0.669003 1.1178181550458441
-0.158584 0.432771 1.0837751550458443
-0.02428 0.569394 1.1064701550458442
-0.405616 0.4001 1.084177155045844
-0.367495 0.608185 1.1178181550458441
-0.405616 0.620774 1.1121761550458442
0.39439 0.683038 1.101419155045844
0.083025 0.564382 1.0497321550458443
0.253669 0.593635 1.1178181550458441
0.062066 0.688516 1.0867741550458443
-0.314946 0.410792 1.1178181550458441
0.106201 0.586304 1.0497321550458443
0.092035 0.378423 1.0837751550458443
0.10625 0.376457 1.1088261550458443
-0.269445 0.656114 1.088628155045844
-0.107685 0.57504 1.092078155045844
-0.205238 0.567524 1.0837751550458443
-0.209337 0.402591 1.1178181550458441
0.302829 0.376717 1.1178181550458441
0.185822 0.557433 1.0497321550458443
0.348125 0.688516 1.1050801550458442
-0.137317 0.510821 1.0837751550458443
0.049421 0.552706 1.0837751550458443
-0.029266 0.665111 1.1178181550458441
0.171944 0.403845 1.0837751550458443
0.314149 0.412309 1.0837751550458443
-0.394903 0.376457 1.1113881550458442
0.321664 0.565971 1.0837751550458443
-0.222448 0.592062 1.0508921550458443
0.351898 0.598291 1.0837751550458443
-0.405616 0.594122 1.0837841550458442
-0.097955 0.489933 1.103859155045844
0.111506 0.567751 1.1064701550458442
0.252598 0.57504 1.0953281550458442
0.254815 0.42963 1.0837751550458443
-0.284334 0.441978 1.1178181550458441
0.329598 0.413095 1.1178181550458441
-0.253881 0.606038 1.0837751550458443
0.120398 0.613966 1.1178181550458441
0.293271 0.659073 1.1178181550458441
-0.238662 0.489933 1.0949781550458442
0.321898 0.481619 1.1178181550458441
-0.161071 0.560435 1.0497321550458443
-0.050469 0.45589 1.0830321550458442
-0.24191 0.57504 1.0869291550458442
-0.330587 0.448698 1.0837751550458443
-0.153401 0.533545 1.0837751550458443
0.134103 0.424856 1.1178181550458441
0.388782 0.540495 1.0837751550458443
-0.181526 0.509715 1.1064701550458442
-0.286022 0.514095 1.1178181550458441
-0.029259 0.616862 1.0837751550458443
0.319626 0.586869 1.1178181550458441
-0.127188 0.562728 1.0497321550458443
0.240103 0.592062 1.0772531550458442
-0.301786 0.603918 1.1178181550458441
0.269566 0.533361 0.1816421550458442
0.269566 0.561361 0.7920211550458442
0.279877 0.45589 0.6598161550458442
0.269566 0.468326 0.8817131550458441
0.303609 0.572259 0.5126551550458442
0.300027 0.45589 0.35106215504584415
0.269566 0.553551 0.4053611550458442
0.269566 0.548558 0.6114511550458442
0.269566 0.564679 0.9760711550458442
0.302716 0.45589 0.2389281550458442
0.269566 0.576102 0.2883481550458442
0.303609 0.581997 0.8872591550458442
0.303609 0.47713 0.4536741550458442
0.269566 0.474688 0.9876451550458443
0.303609 0.472362 0.7564001550458441
0.303609 0.558318 0.6948271550458442
0.289297 0.45589 0.5458921550458442
0.303609 0.530373 0.8407991550458442
0.303609 0.575493 0.2316491550458442
0.303609 0.500866 0.9375111550458441
0.28474 0.592062 0.3548561550458442
0.303609 0.518058 0.3426891550458442
0.303609 0.470252 0.8239721550458442
0.269566 0.553332 1.039602155045844
0.303609 0.501994 0.5902771550458442
0.303609 0.585408 0.4439381550458442
0.303609 0.589572 0.5829761550458442
0.303609 0.530655 0.2708531550458442
0.303609 0.505198 0.5056621550458442
0.271665 0.592062 0.7377361550458442
0.269566 0.523266 0.7261261550458442
0.285733 0.592062 0.6533531550458442
0.303609 0.503023 0.6471411550458441
0.303609 0.456178 0.2930651550458442
0.276358 0.45589 0.6058741550458442
0.269566 0.541284 0.5383601550458442
0.282364 0.45589 0.41074415504584416
0.269566 0.509572 0.3041661550458442
0.269566 0.513691 0.44289015504584417
0.298787 0.592062 0.8194341550458442
0.303609 0.513081 1.0374901550458442
0.303609 0.588626 1.0313721550458441
0.303609 0.477583 0.7071651550458442
0.269566 0.514522 0.2263921550458442
0.273507 0.592062 0.5448521550458442
0.269566 0.534779 0.48950615504584416
0.303609 0.586904 0.7721781550458442
0.303609 0.507058 0.7880311550458442
0.297065 0.55126 1.0837751550458443
0.303609 0.537998 0.7537331550458441
0.269566 0.497628 0.3847661550458442
0.303609 0.539709 0.43018015504584417
0.303609 0.540551 1.0030021550458441
0.275857 0.592062 0.4768951550458442
0.269566 0.516046 0.9607631550458442
0.303609 0.494991 0.8809151550458442
0.288943 0.45589 1.0278701550458442
0.303609 0.542995 0.9346491550458442
0.303609 0.535009 0.21262115504584417
0.303609 0.503502 0.9810541550458443
0.2934 0.45589 0.9290501550458442
0.269566 0.515168 0.8581151550458441
0.303609 0.544366 0.5603631550458442
0.269566 0.544115 0.6780571550458442
0.303609 0.460836 0.1792141550458442
0.298706 0.592062 0.9821491550458442
0.269566 0.545045 0.3659511550458442
0.303609 0.567023 0.6276451550458442
0.270231 0.45589 0.21595915504584418
0.269566 0.503188 0.5691931550458442
0.269566 0.523913 1.0134111550458442
0.271216 0.45589 0.7421121550458442
0.274896 0.592062 0.4019731550458442
0.303609 0.565438 0.3762311550458442
0.276042 0.592062 0.6095681550458442
0.269566 0.566511 0.8786241550458442
0.269566 0.517648 0.7638641550458442
0.269905 0.45589 0.2720241550458442
0.303609 0.49366 0.24097415504584418
0.269566 0.55052 0.2150781550458442
0.273185 0.45589 0.7888681550458442
0.303609 0.552937 0.8043761550458441
0.303609 0.485939 0.4058231550458442
0.284019 0.592062 0.2587031550458442
0.269566 0.542807 0.2650091550458442
0.269566 0.463924 0.4534591550458442
0.269566 0.554528 0.3175881550458442
0.303609 0.536048 0.8900551550458442
0.303609 0.472659 0.9619991550458442
0.272268 0.592062 0.7025501550458442
0.269566 0.484621 0.24459915504584417
0.269566 0.523022 1.0631911550458442
0.269566 0.559052 0.6442411550458442
0.297011 0.592062 0.3228041550458442
0.269566 0.489256 0.6043571550458442
0.303609 0.462106 0.8893831550458442
0.274207 0.45589 0.3291301550458442
0.303609 0.550436 1.0505651550458441
0.303609 0.471422 0.6181121550458442
0.303609 0.562698 0.2623621550458442
0.303609 0.549091 0.3311471550458442
0.269566 0.574321 0.8224851550458442
0.303609 0.559691 0.4821681550458442
0.303609 0.483747 0.3108211550458442
0.279639 0.487358 0.17596615504584417
0.303609 0.534495 0.6247751550458442
0.269566 0.562494 0.5629181550458442
0.269566 0.583065 0.44639015504584423
0.269566 0.589553 0.9553251550458441
0.303609 0.49586 0.8431561550458442
0.303609 0.567752 0.6643141550458442
0.303467 0.592062 0.7363011550458443
0.271269 0.592062 0.5132211550458442
0.303609 0.531951 0.7116101550458442
0.269566 0.4875 0.4262781550458442
0.295958 0.592062 0.8591381550458441
0.303609 0.586821 0.5524871550458442
0.269566 0.496399 0.8938971550458442
0.303609 0.556458 0.7294091550458441
0.284974 0.45589 0.8590181550458442
0.269566 0.461579 0.5771561550458442
0.269566 0.485724 0.2751431550458442
0.269566 0.558881 0.7621691550458441
0.269566 0.505009 0.4896811550458442
0.303609 0.474261 0.5276331550458442
0.269566 0.50479 0.6553981550458442
0.298197 0.535077 0.17596615504584417
0.303609 0.4853 0.9084531550458441
0.303609 0.550395 0.5888041550458442
0.303609 0.501668 0.2695861550458442
0.303609 0.52538 0.4852531550458442
0.269566 0.514227 0.2721611550458442
0.303609 0.517367 0.8144571550458442
0.303609 0.543056 0.2961751550458442
0.278412 0.592062 0.7830121550458442
0.303609 0.563044 0.8303631550458441
0.269566 0.512581 0.9178041550458442
0.269566 0.461471 0.6945321550458442
0.303609 0.488295 0.4843331550458442
0.269566 0.50285 0.35583115504584417
0.269566 0.470486 0.3882241550458442
0.303609 0.501342 0.5634741550458442
0.303609 0.533469 0.7850301550458442
0.303609 0.47884 0.3369021550458442
0.269566 0.498664 0.1977481550458442
0.303609 0.478703 1.0635551550458442
0.269566 0.483258 0.8600761550458442
0.303609 0.559225 0.5389311550458442
0.303609 0.561956 1.0271741550458442
-0.280793 0.563696 0.40802215504584416
-0.280793 0.459605 0.7825081550458441
-0.280795 0.592062 1.0182081550458442
-0.280793 0.538178 0.6828761550458442
-0.299274 0.45589 0.9149771550458442
-0.303234 0.45589 0.3406311550458442
-0.280793 0.572669 0.28355915504584417
-0.314836 0.54088 0.8541511550458443
-0.314836 0.546383 0.5865501550458442
-0.31009 0.45589 0.6184581550458442
-0.314836 0.555944 0.4942701550458442
-0.301305 0.592062 0.1919471550458442
-0.280793 0.456924 0.2541281550458442
-0.314836 0.544276 0.9507941550458442
-0.314836 0.466605 0.7107191550458442
-0.280793 0.58994 0.7752971550458442
-0.314836 0.484473 0.5454671550458442
-0.314836 0.575279 0.3474151550458442
-0.314836 0.532847 1.044803155045844
-0.314836 0.51603 0.2988591550458442
-0.31062 0.592062 0.6591101550458442
-0.302802 0.45589 0.17951415504584417
-0.314836 0.503541 0.38437415504584416
-0.314836 0.534803 0.7846791550458442
-0.290247 0.592062 0.5484381550458441
-0.280793 0.515609 0.9032711550458442
-0.309835 0.45589 0.8387101550458442
-0.280793 0.53249 0.23360515504584417
-0.314836 0.591396 0.9110991550458443
-0.314836 0.505685 0.4571101550458442
-0.285175 0.592062 0.8345071550458442
-0.314836 0.488604 0.9706091550458442
-0.280793 0.589833 0.7097201550458442
-0.314836 0.497128 0.6605541550458442
-0.280793 0.504169 0.5988281550458442
-0.280793 0.529725 0.7376261550458442
-0.280793 0.520266 0.34214815504584417
-0.280793 0.591604 0.6023321550458441
-0.314836 0.464301 1.0187281550458442
-0.310281 0.45589 0.4183991550458442
-0.314836 0.530788 0.1813861550458442
-0.280793 0.497804 0.8471281550458443
-0.314836 0.495294 0.24086515504584421
-0.309797 0.592062 0.9767671550458442
-0.280793 0.52115 0.9852611550458441
-0.314836 0.577067 0.4507671550458442
-0.301938 0.45589 0.5062371550458442
-0.280793 0.457606 0.9768481550458442
-0.314836 0.554127 0.2563581550458442
-0.314836 0.489576 0.7737521550458442
-0.314836 0.560782 0.7200851550458442
-0.285464 0.45589 0.5657871550458442
-0.280793 0.561089 0.9026551550458441
-0.280793 0.583823 0.4840581550458442
-0.314836 0.546195 0.5377581550458442
-0.314836 0.497403 0.8751711550458442
-0.304146 0.45589 0.6660511550458442
-0.280793 0.544761 1.021969155045844
-0.314836 0.544494 0.6579211550458441
-0.280793 0.528961 0.5642691550458442
-0.280793 0.538527 0.8293631550458442
-0.280793 0.56334 0.9642351550458441
-0.308025 0.45589 1.0590311550458442
-0.314836 0.540124 0.4032531550458442
-0.280793 0.533237 0.4951681550458442
-0.310389 0.592062 0.5124291550458442
-0.280793 0.531454 0.2829571550458442
-0.300844 0.45589 0.30028815504584416
-0.280793 0.478593 0.8855671550458442
-0.312795 0.592062 0.2301781550458442
-0.304074 0.592062 0.7417201550458442
-0.314836 0.50153 0.5101251550458442
-0.280793 0.52373 0.4132261550458442
-0.314836 0.51422 0.9222011550458442
-0.300311 0.592062 0.3104531550458442
-0.280793 0.545677 0.3746011550458442
-0.314836 0.487417 0.5977321550458442
-0.314836 0.489723 0.8230181550458442
-0.280793 0.588195 0.3555301550458442
-0.31418 0.592062 0.3806761550458442
-0.280793 0.514426 1.051713155045844
-0.280793 0.522262 0.6311391550458442
-0.314836 0.528332 0.9974271550458442
-0.304532 0.45589 0.38196915504584417
-0.280793 0.493275 0.6739501550458442
-0.314836 0.497076 0.3484981550458442
-0.314836 0.579563 1.0148601550458443
-0.288247 0.592062 0.43178615504584417
-0.314836 0.578707 0.5715771550458442
-0.314836 0.574876 0.8249591550458442
-0.280793 0.563899 0.7469021550458442
-0.280793 0.504977 0.20770215504584416
-0.314836 0.514398 0.6912131550458442
-0.280793 0.582694 0.8752371550458442
-0.314836 0.585559 0.2795311550458442
-0.314836 0.555797 0.9038951550458442
-0.28087 0.45589 0.6009391550458442
-0.314836 0.539453 0.6198541550458442
-0.30055 0.561161 0.17596615504584417
-0.284258 0.45589 0.7204201550458442
-0.314836 0.492615 1.057718155045844
-0.314836 0.482227 0.3182261550458442
-0.314836 0.544564 0.36102015504584417
-0.314836 0.54529 0.4624241550458442
-0.311197 0.592062 0.6964141550458441
-0.280793 0.47304 0.19979315504584416
-0.314836 0.521139 0.26057315504584416
-0.314836 0.56698 0.8734271550458441
-0.280793 0.529278 0.8739541550458442
-0.280793 0.466213 0.4012591550458442
-0.287373 0.45589 0.8157921550458442
-0.280793 0.581041 0.6578671550458441
-0.280793 0.457669 0.5284941550458442
-0.301044 0.592062 0.9384221550458443
-0.313272 0.45589 0.7392411550458442
-0.280793 0.572365 0.2242741550458442
-0.314836 0.468956 0.9474081550458442
-0.280793 0.563248 0.9945901550458442
-0.314836 0.548153 0.6878961550458442
-0.314836 0.540553 0.8239601550458442
-0.285855 0.592062 1.0541231550458443
-0.297642 0.507025 0.17596615504584417
-0.280793 0.467956 0.6378961550458442
-0.280793 0.531499 0.3121271550458442
-0.281963 0.45589 0.9478511550458442
-0.280793 0.535496 0.8004871550458442
-0.280793 0.518439 0.6599351550458442
-0.314836 0.469397 0.8685251550458442
-0.311594 0.45589 0.5545111550458441
-0.280793 0.457324 1.0509621550458441
-0.280793 0.545157 0.6472891550458442
-0.314836 0.512361 0.5859771550458441
-0.280793 0.484178 0.4680521550458442
-0.314836 0.586906 0.4763851550458442
-0.280793 0.504343 0.9281731550458442
-0.280793 0.570296 0.5350301550458442
-0.280793 0.492303 0.3967161550458442
-0.280793 0.536502 0.9641371550458442
-0.314836 0.477489 0.1877251550458442
-0.314836 0.524265 0.4390411550458442
-0.314836 0.533312 0.3181551550458442
-0.013477 0.589179 0.17596615504584417
0.077936 0.45589 0.20521215504584417
-0.266665 0.510725 0.17596615504584417
0.14166 0.592062 0.1959491550458442
-0.10111 0.473941 0.17596615504584417
-0.13284 0.592062 0.19789815504584418
0.190276 0.457094 0.21000915504584416
-0.197363 0.45589 0.1918621550458442
-0.013591 0.460332 0.17596615504584417
0.055354 0.534537 0.17596615504584417
-0.217104 0.571046 0.21000915504584416
0.13354 0.510125 0.17596615504584417
-0.059184 0.534063 0.21000915504584416
0.213969 0.585263 0.17596615504584417
0.263276 0.458952 0.17596615504584417
-0.160096 0.511215 0.21000915504584416
0.207404 0.511677 0.17596615504584417
0.005673 0.533705 0.21000915504584416
-0.081823 0.578976 0.17596615504584417
-0.11423 0.529238 0.17596615504584417
0.14478 0.45589 0.1779611550458442
0.039027 0.590608 0.17596615504584417
-0.199476 0.512134 0.17596615504584417
0.11229 0.543007 0.21000915504584416
-0.244653 0.45589 0.20760415504584417
-0.183114 0.583684 0.17596615504584417
0.203576 0.545522 0.21000915504584416
-0.019085 0.510544 0.17596615504584417
-0.057388 0.465748 0.21000915504584416
-0.154625 0.455961 0.21000915504584416
-0.051393 0.580195 0.21000915504584416
0.042822 0.464181 0.17596615504584417
0.246781 0.583081 0.21000915504584416
-0.244621 0.547784 0.17596615504584417
0.039984 0.564335 0.21000915504584416
-0.241058 0.509976 0.21000915504584416
-0.257076 0.585201 0.21000915504584416
-0.230433 0.484768 0.17596615504584417
-0.153844 0.488929 0.17596615504584417
-0.232925 0.585423 0.17596615504584417
0.17749 0.58558 0.21000915504584416
-0.138582 0.543329 0.21000915504584416
0.16267 0.534566 0.17596615504584417
0.223637 0.546055 0.17596615504584417
0.073854 0.567702 0.17596615504584417
0.196525 0.472645 0.17596615504584417
-0.081446 0.503695 0.21000915504584416
0.235055 0.526035 0.21000915504584416
0.243896 0.507932 0.17596615504584417
0.013504 0.45589 0.20007115504584416
-0.11358 0.470235 0.21000915504584416
0.156097 0.522795 0.21000915504584416
-0.036327 0.542462 0.17596615504584417
-0.120638 0.512534 0.21000915504584416
-0.073684 0.544626 0.17596615504584417
0.061232 0.501482 0.21000915504584416
0.170385 0.590267 0.17596615504584417
-0.025454 0.509608 0.21000915504584416
-0.197584 0.516086 0.21000915504584416
-0.129513 0.45589 0.18136515504584416
-0.173138 0.533087 0.17596615504584417
0.114886 0.470565 0.17596615504584417
0.153289 0.563953 0.21000915504584416
-0.19343 0.548987 0.21000915504584416
-0.165126 0.592062 0.20045415504584418
0.148283 0.45589 0.20988215504584418
-0.111557 0.588722 0.17596615504584417
-0.022568 0.570024 0.21000915504584416
0.087981 0.45589 0.17635215504584417
0.242488 0.592062 0.1804401550458442
0.10442 0.505671 0.17596615504584417
-0.146739 0.520067 0.17596615504584417
0.101615 0.570274 0.21000915504584416
-0.158156 0.456591 0.17596615504584417
-0.231441 0.537397 0.21000915504584416
-0.231239 0.45589 0.18233615504584416
0.238156 0.554389 0.21000915504584416
-0.007963 0.544534 0.17596615504584417
-0.206653 0.592062 0.1942961550458442
-0.279804 0.535169 0.17596615504584417
0.052359 0.465496 0.21000915504584416
-0.054815 0.582636 0.17596615504584417
-0.246961 0.559514 0.21000915504584416
-0.203121 0.565559 0.17596615504584417
-0.068667 0.558449 0.21000915504584416
-0.0947 0.499301 0.17596615504584417
0.11593 0.592062 0.20846715504584418
0.16481 0.508563 0.17596615504584417
-0.237504 0.487096 0.5651471550458442
0.107978 0.487096 0.7177151550458442
-0.17965 0.487096 0.9258511550458441
0.0215 0.478586 0.4371811550458442
0.173747 0.478586 0.9812671550458442
-0.167545 0.478586 0.29346815504584417
-0.111183 0.487096 0.7200861550458442
0.210871 0.478586 0.5246871550458442
0.006088 0.478586 0.8895711550458442
0.181779 0.487096 0.3359791550458442
-0.073399 0.487096 0.5629921550458442
-0.173809 0.478586 0.4325051550458442
-0.020456 0.478586 0.3050551550458442
0.068737 0.478586 0.5870571550458442
0.130173 0.478586 0.8433621550458441
-0.059477 0.487096 0.9945011550458442
-0.107344 0.478586 0.8333231550458442
-0.013973 0.487096 0.7748741550458442
-0.004289 0.478586 0.6673281550458442
-0.264999 0.487096 1.0320491550458442
0.152598 0.478586 0.4373861550458442
0.215453 0.478586 0.7364341550458442
0.079734 0.487096 0.34497015504584416
0.160639 0.478586 0.6276801550458442
-0.067857 0.478586 0.3974501550458442
0.074802 0.487096 0.9624661550458442
-0.199293 0.487096 0.6799491550458442
-0.186165 0.478586 0.7759171550458441
-0.152279 0.478586 0.5203651550458441
0.093623 0.487096 0.5039491550458441
-0.151842 0.478586 0.6055911550458442
-0.231948 0.487096 0.8587021550458442
0.130751 0.487096 0.2699911550458442
0.210582 0.487096 0.8279371550458442
-0.138959 0.487096 1.0065911550458442
-0.09774 0.487096 0.9123141550458442
0.228506 0.487096 0.3989651550458442
-0.003161 0.487096 0.5296371550458442
-0.097368 0.487096 0.3233501550458442
0.069236 0.478586 0.7967451550458442
-0.246848 0.478586 0.3977501550458442
0.239668 0.478586 0.27550915504584417
-0.070477 0.478586 0.4724921550458442
-0.084391 0.487096 0.6374441550458442
0.042164 0.478586 0.26679715504584417
0.202071 0.478586 0.9137401550458442
-0.242817 0.487096 0.9617081550458442
-0.231994 0.487096 0.3280261550458442
0.229524 0.487096 0.6098121550458442
0.135351 0.478586 0.5599301550458442
-0.108309 0.478586 0.24557415504584418
0.005725 0.478586 0.9711571550458442
-0.03838 0.487096 0.8387121550458442
0.087293 0.487096 0.4205051550458442
0.036008 0.487096 0.7197541550458442
-0.17448 0.478586 0.35860915504584423
-0.254238 0.478586 0.6454851550458441
-0.223153 0.487096 0.24905115504584419
-0.008914 0.487096 0.3709711550458442
0.146872 0.487096 0.7693331550458442
-0.198501 0.478586 1.0410781550458441
-0.028234 0.487096 0.23974815504584418
0.068679 0.487096 0.8858621550458442
-0.20909 0.487096 0.4823601550458442
0.12907 0.478586 0.9046971550458442
0.204468 0.487096 0.6767141550458442
-0.044327 0.487096 0.7129761550458442
-0.171974 0.487096 0.8551071550458442
-0.136867 0.478586 0.6639971550458442
0.071494 0.487096 0.6708411550458442
-0.001274 0.478586 0.5877441550458442
0.253941 0.478586 0.4841701550458442
0.108708 0.487096 1.0109201550458442
-0.10994 0.478586 0.7756911550458442
0.033232 0.487096 0.8410401550458442
-0.04026 0.478586 0.9391661550458441
0.236703 0.478586 0.3371961550458442
0.14394 0.478586 0.3756471550458442
-0.119384 0.478586 0.3785141550458442
-0.204774 0.487096 0.6248991550458441
0.183167 0.478586 0.2614391550458442
0.255097 0.487096 0.7980241550458442
-0.265949 0.487096 0.5044821550458441
0.162053 0.478586 0.4897081550458442
0.029343 0.487096 0.2122031550458442
-0.267052 0.487096 0.7111371550458442
-0.121053 0.487096 0.4793361550458442
0.054113 0.478586 0.5359251550458441
0.107511 0.478586 0.6207411550458442
-0.006973 0.487096 0.47862215504584416
0.261002 0.487096 1.0362421550458443
-0.062234 0.478586 0.7902411550458441
0.159071 0.478586 0.6947211550458442
-0.245983 0.478586 0.9135601550458442
0.031059 0.478586 0.6335721550458442
-0.036701 0.487096 0.6291281550458442
-0.275018 0.487096 0.3058591550458442
0.136405 0.478586 0.3216941550458442
-0.067896 0.487096 0.2851371550458442
0.178737 0.487096 0.5791151550458442
0.261047 0.478586 0.9404881550458442
-0.24626 0.487096 0.8129561550458442
0.08645 0.478586 0.2856821550458442
-0.19837 0.478586 0.5320471550458442
0.23885 0.478586 0.5640931550458442
-0.230247 0.478586 0.7592311550458442
0.048303 0.487096 0.39404815504584423
0.149894 0.487096 0.21329115504584417
0.062957 0.478586 1.0111071550458441
0.184494 0.487096 1.0258701550458442
0.25989 0.487096 0.6960871550458442
0.084192 0.487096 0.24073215504584417
0.190292 0.478586 0.8678701550458442
0.131507 0.487096 0.9492791550458441
-0.159054 0.478586 0.7036611550458441
0.181426 0.478586 0.4010741550458442
-0.048977 0.487096 0.8955691550458442
-0.097768 0.487096 0.9574411550458441
0.051608 0.478586 0.4898801550458442
-0.166271 0.478586 0.5631791550458441
-0.117626 0.487096 0.5692951550458442
-0.044203 0.487096 0.43416415504584416
0.023207 0.478586 0.7986051550458442
0.039926 0.487096 0.9191461550458442
0.222062 0.478586 0.23529015504584416
-0.217818 0.478586 0.4306421550458442
0.185777 0.487096 0.7918941550458442
-0.168066 0.487096 0.9678821550458442
-0.122656 0.487096 0.42097515504584415
0.234488 0.487096 0.8646861550458442
-0.005496 0.487096 0.7325091550458442
-0.213283 0.487096 0.7207701550458442
0.12161 0.478586 0.6741891550458442
0.111187 0.478586 0.8043251550458441
-0.126994 0.487096 0.28391215504584416
-0.226888 0.478586 1.009515155045844
0.208742 0.487096 0.30320315504584416
-0.098018 0.487096 0.6772721550458441
0.039651 0.478586 0.33639915504584417
0.259189 0.478586 0.5254561550458442
-0.277998 0.478586 0.3703121550458442
-0.182254 0.487096 0.2352621550458442
0.041662 0.487096 0.7607211550458441
-0.06663 0.487096 0.7500671550458442
-0.13229 0.478586 0.9374131550458442
-0.062142 0.487096 0.35803115504584415
-0.100632 0.478586 1.0167901550458442
-0.150681 0.478586 0.7569891550458442
-0.23029 0.487096 0.2882121550458442
0.001976 0.487096 0.9309161550458442
-0.172898 0.478586 0.6468821550458442
-0.134218 0.478586 0.8634491550458442
-0.208109 0.487096 0.8213141550458442
0.249092 0.487096 0.6435851550458442
-0.200385 0.487096 0.3865341550458442
0.212625 0.478586 0.9841341550458442
-0.015317 0.487096 1.0190751550458441
0.215335 0.487096 0.43547715504584417
-0.244409 0.478586 0.6080801550458442
0.102989 0.478586 0.7550121550458442
-0.040452 0.478586 0.5917161550458442
0.130848 0.487096 0.4687401550458442
-0.075359 0.487096 0.5245111550458442
0.004772 0.487096 0.2772901550458442
-0.271181 0.487096 0.4262411550458442
0.218776 0.478586 0.7746841550458442
0.100346 0.487096 0.5476581550458441
-0.197816 0.487096 0.5825991550458441
0.165747 0.487096 0.9203401550458442
-0.204607 0.478586 0.9713141550458442
-0.156255 0.478586 0.4690791550458442
0.22201 0.487096 0.9443441550458442
0.08273 0.487096 0.46831015504584417
-0.268019 0.487096 0.5439921550458442
-0.013167 0.487096 0.41396015504584416
0.136548 0.487096 0.9859651550458441
-0.120625 0.487096 0.6311081550458442
0.09811 0.487096 0.9339721550458442
0.004023 0.487096 0.3355731550458442
0.114444 0.478586 0.21035715504584418
0.155425 0.487096 0.5246091550458442
0.017673 0.478586 1.0055441550458442
0.0886 0.478586 0.3791961550458442
-0.233328 0.478586 0.5180001550458442
-0.058978 0.487096 0.6798141550458442
-0.216431 0.478586 0.21263715504584418
-0.090718 0.487096 0.8643281550458441
-0.110531 0.487096 0.5160931550458442
0.075143 0.487096 0.6339881550458442
0.068595 0.487096 0.8475301550458442
-0.245314 0.478586 0.4767061550458442
0.106402 0.478586 0.8775841550458442
0.204303 0.487096 0.3631401550458442
-0.238816 0.478586 0.6917891550458442
-0.141141 0.478586 0.8233561550458441
0.174573 0.478586 0.30195815504584417
0.139442 0.478586 0.7309641550458442
0.183936 0.478586 0.7194091550458441
-0.152934 0.487096 0.2605111550458442
0.155387 0.487096 0.8657701550458442
-0.02673 0.487096 0.9830541550458443
0.250085 0.487096 0.8322261550458442
-0.135194 0.487096 0.3490651550458442
-0.216087 0.478586 0.8965771550458441
-0.16398 0.487096 0.8953261550458442
-0.255471 0.487096 0.26041515504584417
0.242374 0.478586 1.0092021550458443
-0.261256 0.478586 0.22644915504584417
-0.028797 0.478586 0.5093761550458442
-0.03988 0.487096 1.041842155045844
0.009434 0.478586 0.23762215504584416
-0.274788 0.487096 0.7646341550458442
-0.175672 0.487096 1.000168155045844
0.175375 0.478586 0.6632901550458442
0.018709 0.478586 0.5614241550458442
-0.075448 0.478586 0.24220315504584417
-0.168143 0.478586 0.40010315504584415
0.083274 0.487096 1.0354251550458442
-0.006252 0.487096 0.8325801550458442
-0.206843 0.487096 0.3545241550458442
-0.157539 0.478586 0.7954411550458442
-0.129065 0.487096 0.9051271550458442
-0.270838 0.487096 1.0006231550458442
-0.083076 0.478586 0.6067961550458442
0.193052 0.478586 0.9544091550458442
0.182714 0.478586 0.4474641550458442
0.263123 0.478586 0.3098951550458442
-0.171542 0.487096 0.4966661550458442
-0.114281 0.478586 0.6012241550458441
-0.245053 0.487096 0.3566231550458442
-0.034774 0.478586 0.38637815504584416
0.098008 0.487096 0.8372441550458443
-0.058567 0.487096 0.32718715504584417
0.123171 0.487096 0.5129701550458442
0.07623 0.478586 0.9143571550458442
-0.224245 0.478586 0.7935751550458442
0.033425 0.478586 0.8703101550458442
-0.094161 0.487096 0.36371115504584417
0.235846 0.478586 0.9186311550458441
0.038119 0.487096 0.4640061550458442
0.020844 0.487096 0.3769891550458442
0.10723 0.487096 0.9782461550458441
-0.022291 0.478586 0.8792361550458442
0.051362 0.478586 0.2955341550458442
0.035609 0.478586 0.9678381550458441
0.23468 0.487096 0.6697351550458441
0.260502 0.478586 0.36398115504584416
-0.015557 0.487096 0.44340715504584416
-0.135461 0.478586 0.9785661550458442
0.189109 0.478586 0.7496001550458442
-0.099253 0.478586 0.2886351550458442
-0.088285 0.487096 0.9889801550458441
-0.074005 0.478586 0.7034481550458442
0.10705 0.478586 0.5914891550458442
0.145857 0.478586 1.0322811550458442
-0.006064 0.487096 0.6394651550458442
-0.09322 0.487096 1.0461391550458443
-0.011514 0.478586 0.5605361550458442
0.120488 0.487096 0.2971811550458442
0.154799 0.478586 0.2551321550458442
-0.1016 0.487096 0.5450581550458442
-0.031287 0.478586 0.6775781550458442
0.164324 0.478586 0.9539871550458442
-0.043776 0.487096 0.4667551550458442
0.022308 0.487096 0.6611761550458441
0.138686 0.478586 0.6513151550458441
0.006486 0.487096 0.7066591550458442
-0.205644 0.478586 0.3214051550458442
0.242614 0.487096 0.4433631550458442
-0.183411 0.487096 0.4706661550458442
-0.190424 0.487096 0.27936215504584416
-0.259863 0.487096 0.8626411550458442
-0.106219 0.478586 0.8868741550458442
-0.204423 0.487096 0.8641021550458442
0.235489 0.478586 0.5104711550458442
0.210963 0.478586 0.5658251550458442
0.178794 0.478586 0.8932241550458442
0.057214 0.478586 0.6931051550458442
0.218962 0.487096 0.8009821550458442
0.145129 0.478586 0.7955011550458442
-0.031923 0.487096 0.5353101550458442
0.081947 0.478586 0.7195831550458442
-0.119542 0.478586 0.3098411550458442
-0.27233 0.478586 0.8177671550458442
0.186048 0.478586 0.2261851550458442
0.180408 0.478586 0.5179111550458442
-0.216975 0.487096 0.9486521550458442
-0.025004 0.487096 0.3492201550458442
-0.067967 0.478586 0.49940915504584416
-0.08219 0.487096 0.7277341550458442
0.016988 0.487096 0.7474481550458442
0.240935 0.487096 0.7388681550458442
-0.179607 0.478586 0.8108921550458442
-0.263428 0.478586 0.7904341550458442
0.237243 0.487096 0.9776841550458442
-0.180447 0.487096 0.7174281550458442
0.144336 0.487096 0.6081641550458442
0.042815 0.478586 0.5731581550458442
-0.088041 0.487096 0.7886051550458442
0.222262 0.487096 0.6967181550458442
-0.274436 0.478586 0.5746051550458442
0.026652 0.478586 0.4994461550458442
0.017022 0.478586 0.31383215504584416
-0.042867 0.478586 0.2814871550458442
-0.209606 0.487096 0.5093301550458442
-0.263791 0.478586 0.3284461550458442
0.173395 0.487096 0.6059531550458442
-0.155126 0.478586 0.2355441550458442
0.185028 0.478586 0.6389381550458442
-0.243919 0.478586 0.4322561550458442
0.232242 0.487096 0.5402911550458442
-0.06492 0.487096 0.9387101550458442
-0.177661 0.487096 0.6227211550458442
0.163376 0.478586 0.7412341550458442
-0.145649 0.487096 0.5498101550458442
0.020766 0.478586 0.9466041550458442
0.269521 0.535444 0.9024001550458443
0.269521 0.527081 0.8152631550458442
0.041158 0.691896 1.1065491550458442
-0.051266 0.673805 1.1444711550458442
0.023969 0.65845 1.1566381550458442
-0.015342 0.692136 1.0894051550458443
0.031023 0.658458 1.0837751550458443
-0.015751 0.689188 1.1226491550458442
0.037203 0.676274 1.135528155045844
0.009653 0.692125 1.1058901550458442
0.004752 0.671572 1.0801601550458442
0.345837 0.540774 0.466031
0.334815 0.61214 0.483974
0.353168 0.566235 0.500074
0.334815 0.572563 0.476996
-0.368508 0.607791 0.500074
-0.350172 0.583744 0.466031
-0.243913 0.645619 0.382712
-0.274791 0.640289 0.36056
-0.259217 0.640289 0.415238
-0.257078 0.640289 0.332208
-0.319094 0.628941 0.469594
-0.265786 0.628941 0.46773
-0.299303 0.6518 0.500074
0.303609 -0.133393 0.34151114044138847
0.303609 -0.120062 0.30523614044138847
0.303328 0.297024 0.45909927517707877
-0.314836 0.29236 0.4459202751770788
-0.043641 0.290684 0.47905327517707874
0.216416 0.160853 0.46099227517707875
0.152077 0.160853 0.45996227517707877
0.185613 0.164915 0.47905327517707874
-0.013745 0.295237 0.47905327517707874
0.18876 0.160853 0.44963327517707874
0.239027 0.160853 0.4769392751770788
0.226016 0.183548 0.5226002751770787
0.303609 0.458213 0.4868241550458442
-0.280793 0.457152 0.46273515504584417
-0.314836 0.462483 0.4676361550458442
-0.314836 0.48653 0.4306991550458442
0.206368 0.478586 0.4739981550458442
0.269566 -0.271425 0.2648451526551232
0.269566 -0.277247 0.5968681526551232
0.303609 -0.326894 0.3486541526551232
0.303609 -0.552347 0.3934081526551232
0.301682 -0.576742 0.4848341526551232
0.303609 -0.260213 0.39055615265512317
0.301763 -0.259009 0.20332415265512319
0.295853 -0.259009 0.1410071526551232
0.303609 -0.374528 0.37867015265512316
0.303609 -0.290978 0.29228515265512317
0.303609 -0.322488 0.39456915265512316
0.303609 -0.278333 0.3482651526551232
0.303609 -0.323957 0.4452331526551232
0.303609 -0.295064 0.2418791526551232
0.290203 -0.259009 0.6280571526551232
0.303609 -0.294433 0.6099681526551232
0.303608 -0.259009 0.26572715265512314
0.280811 -0.259009 0.17056215265512317
0.273792 -0.259009 0.21850115265512318
0.303609 -0.29977 0.3219361526551232
0.303609 -0.294321 0.4066881526551232
0.303609 -0.285035 0.15433715265512316
0.303609 -0.284091 0.1865671526551232
0.303609 -0.541553 0.36426315265512316
0.303609 -0.570421 0.4161791526551232
0.299295 -0.259009 0.2317471526551232
0.303609 -0.349382 0.3641951526551232
0.303609 -0.313935 0.20504215265512318
0.303609 -0.344879 0.42888115265512317
-0.298181 -0.259009 0.3097021526551232
-0.314836 -0.315072 0.22759515265512317
-0.285939 -0.259009 0.3786841526551232
-0.295698 -0.259009 0.5216171526551232
-0.314836 -0.267248 0.42566315265512317
-0.314836 -0.308617 0.3159141526551232
-0.314836 -0.271162 0.2719031526551232
-0.314836 -0.287335 0.1917521526551232
-0.314605 -0.259009 0.3531531526551232
-0.314836 -0.341296 0.33538915265512315
-0.280793 -0.280146 0.2856971526551232
-0.314836 -0.26664 0.4932181526551232
-0.314836 -0.296336 0.3502981526551232
-0.282972 -0.259009 0.42715115265512316
-0.292968 -0.576742 0.11872315265512318
-0.280793 -0.265264 0.3495441526551232
-0.280793 -0.28591 0.3139511526551232
-0.314836 -0.286794 0.2949881526551232
-0.203885 -0.576742 0.011199152655123168
-0.113946 -0.576742 0.010072152655123179
-0.139073 -0.576742 0.0301031526551232
-0.168487 -0.576742 0.011884152655123159
-0.078739 -0.545536 0.14090415265512318
0.000553 -0.554046 0.14849015265512316
-0.153791 -0.545536 0.1489181526551232
-0.121343 -0.545536 0.10985215265512316
-0.031996 -0.554046 0.11242915265512315
-0.127865 -0.545536 0.1927511526551232
-0.039079 -0.554046 0.16041715265512319
-0.082672 -0.554046 0.10127415265512318
-0.118231 -0.554046 0.1580391526551232
-0.157745 -0.554046 0.11799515265512317
-0.096579 -0.545536 0.060098152655123194
-0.225996 -0.554046 0.13186915265512317
-0.180301 -0.545536 0.13907415265512318
-0.018865 -0.545536 0.13351615265512318
-0.101249 -0.554046 0.1312871526551232
-0.40278 -0.865094 0.322993
-0.40278 -0.853267 -0.253399
-0.40278 -0.751302 0.038182
-0.40278 -0.76448 -0.559568
-0.40278 -0.666791 -0.366714
-0.40278 -0.6757 0.216672
-0.40278 -0.704732 -0.144587
-0.40278 -0.864251 -0.413269
-0.40278 -0.851469 -0.099532
-0.40278 -0.865187 0.132277
-0.40278 -0.786283 0.21373
-0.40278 -0.759642 -0.444165
-0.40278 -0.705631 -0.252688
-0.40278 -0.862863 0.025164
-0.40278 -0.784951 -0.341512
-0.40278 -0.687444 0.115519
-0.40278 -0.695313 -0.04642
-0.40278 -0.856239 -0.555837
-0.40278 -0.672949 0.334316
-0.40278 -0.756372 0.294357
-0.40278 -0.77448 -0.203097
-0.40278 -0.699812 -0.500194
-0.40278 -0.799404 -0.025003
-0.40278 -0.672189 0.037941
-0.40278 -0.765822 0.117088
-0.40278 -0.798567 0.352689
-0.40278 -0.781502 -0.095097
-0.40278 -0.822399 -0.494814
-0.40278 -0.692474 -0.575958
-0.40278 -0.787456 -0.267084
-0.40278 -0.837863 -0.187501
-0.40278 -0.695701 -0.431335
-0.40278 -0.737535 -0.384042
-0.40278 -0.703573 -0.315814
-0.40278 -0.832733 0.269632
-0.40278 -0.841935 -0.313525
-0.40278 -0.682958 0.276137
-0.40278 -0.809251 0.045768
-0.40278 -0.734103 0.194336
-0.40278 -0.841306 0.181952
-0.40278 -0.745731 -0.013979
-0.40278 -0.813877 -0.427649
-0.38918 -0.747313 0.358229
-0.40278 -0.862084 -0.359507
-0.40278 -0.792784 0.164408
-0.40278 -0.718198 0.074677
-0.40278 -0.825037 0.103999
-0.40278 -0.711063 -0.198046
-0.40278 -0.77107 -0.491208
-0.40278 -0.867835 -0.482038
-0.40278 -0.845827 -0.017375
-0.40278 -0.860564 0.070587
-0.40278 -0.753623 -0.30986
-0.40278 -0.834764 0.22607
-0.40278 -0.812708 -0.555123
-0.40278 -0.683568 0.174154
-0.40278 -0.803472 -0.38022
-0.40278 -0.704167 -0.003382
-0.402301 -0.733643 -0.589296
-0.40278 -0.74992 0.235629
-0.40278 -0.82225 -0.069051
-0.40278 -0.747592 -0.248784
-0.40278 -0.840136 -0.145661
-0.40278 -0.714184 0.329151
-0.40278 -0.721821 -0.077602
-0.40278 -0.742791 -0.172681
-0.40278 -0.793824 0.258132
-0.40278 -0.75221 -0.122627
-0.40278 -0.795775 0.301097
-0.40278 -0.669954 -0.524615
-0.40278 -0.795722 -0.521758
-0.40278 -0.719995 0.279982
-0.40278 -0.699085 -0.394657
-0.40278 -0.731375 -0.467688
-0.40278 -0.785188 0.086449
-0.40278 -0.827946 0.148643
-0.40278 -0.793628 0.013836
-0.40278 -0.707375 0.033589
-0.40278 -0.830341 -0.221109
-0.40278 -0.682708 -0.288752
-0.40278 -0.822757 -0.341286
-0.40278 -0.831358 0.014154
-0.40278 -0.813064 -0.288457
-0.40278 -0.868691 0.289861
-0.40278 -0.801193 -0.236513
-0.394562 -0.829787 0.358229
-0.40278 -0.853898 -0.065329
-0.40278 -0.731423 -0.503454
-0.40278 -0.754286 -0.347013
-0.40278 -0.706389 0.211722
-0.40278 -0.854254 -0.285459
-0.40278 -0.759023 0.324684
-0.40278 -0.700992 -0.466056
-0.40278 -0.825481 -0.526965
-0.40278 -0.807622 0.192488
-0.40278 -0.847497 -0.438223
-0.40278 -0.67008 0.147536
-0.40278 -0.801889 -0.45482
-0.40278 -0.758705 0.177783
-0.40278 -0.814789 -0.16032
-0.40278 -0.671834 0.302965
-0.40278 -0.829713 0.298447
-0.40278 -0.783721 -0.401136
-0.40278 -0.671455 -0.40164
-0.40278 -0.703931 -0.116116
-0.40278 -0.753408 -0.416387
-0.40278 -0.763965 -0.374261
-0.39757 -0.714527 0.358229
-0.40278 -0.710384 -0.284951
-0.40278 -0.759473 0.207412
-0.40278 -0.665359 -0.338549
-0.40278 -0.766993 0.008347
-0.40278 -0.685586 -0.168304
-0.40278 -0.868033 0.178462
-0.40278 -0.811542 -0.188001
-0.40278 -0.679882 -0.025253
-0.40278 -0.698724 0.2367
-0.111089 -0.841733 -0.589296
0.125042 -0.74761 -0.589296
-0.241053 -0.623014 -0.589296
-0.037601 -0.67889 -0.589296
-0.274183 -0.850378 -0.589296
0.276072 -0.753705 -0.589296
0.046227 -0.8589 -0.589296
0.188946 -0.865118 -0.589296
0.296759 -0.616538 -0.589296
-0.176855 -0.741169 -0.589296
-0.122123 -0.602274 -0.557734
0.184207 -0.647488 -0.589296
-0.303896 -0.742993 -0.589296
-0.345916 -0.656423 -0.589296
0.008468 -0.761566 -0.589296
0.069141 -0.658021 -0.589296
-0.194492 -0.839385 -0.589296
-0.029083 -0.835423 -0.589296
-0.347814 -0.812672 -0.589296
0.203053 -0.778305 -0.589296
-0.24292 -0.700774 -0.589296
-0.072437 -0.775961 -0.589296
-0.108995 -0.688564 -0.589296
0.127265 -0.819551 -0.589296
0.349934 -0.802532 -0.589296
0.2475 -0.676708 -0.589296
0.011152 -0.619389 -0.589296
0.334468 -0.677483 -0.589296
-0.24521 -0.777825 -0.589296
0.248531 -0.834588 -0.589296
-0.059858 -0.602274 -0.584329
0.063235 -0.794919 -0.589296
0.122497 -0.627712 -0.589296
-0.194111 -0.658764 -0.589296
-0.135068 -0.782773 -0.589296
-0.314755 -0.605803 -0.589296
0.214017 -0.602274 -0.574024
0.017501 -0.687869 -0.589296
-0.179127 -0.605785 -0.589296
-0.289047 -0.673356 -0.589296
0.158381 -0.705952 -0.589296
-0.357175 -0.740612 -0.589296
0.298239 -0.820758 -0.589296
-0.094033 -0.640272 -0.589296
0.057145 -0.602274 -0.579147
-0.074432 -0.724363 -0.589296
0.139649 -0.868586 -0.589296
0.292341 -0.702048 -0.589296
0.176201 -0.818406 -0.589296
0.060878 -0.748663 -0.589296
-0.137591 -0.650514 -0.589296
0.246461 -0.628677 -0.589296
-0.330086 -0.706924 -0.589296
-0.071135 -0.819044 -0.589296
0.194439 -0.729424 -0.589296
0.331009 -0.721855 -0.589296
0.359187 -0.638109 -0.589296
-0.020932 -0.602274 -0.568819
-0.183901 -0.78191 -0.589296
0.197069 -0.68677 -0.589296
0.101567 -0.849697 -0.589296
0.145803 -0.602274 -0.570308
-0.000777 -0.808166 -0.589296
-0.279184 -0.79714 -0.589296
0.107141 -0.664315 -0.589296
-0.372264 -0.775894 -0.589296
-0.236558 -0.660934 -0.589296
0.094293 -0.770163 -0.589296
0.147191 -0.787167 -0.589296
0.241848 -0.769727 -0.589296
-0.250193 -0.82091 -0.589296
0.309085 -0.785271 -0.589296
0.271763 -0.602274 -0.565972
-0.09667 -0.602274 -0.586267
-0.149348 -0.685433 -0.589296
-0.267482 -0.748386 -0.589296
0.037367 -0.71873 -0.589296
-0.342179 -0.602274 -0.562758
-0.116722 -0.723381 -0.589296
-0.07918 -0.857645 -0.589296
0.207799 -0.834746 -0.589296
-0.27979 -0.609659 -0.589296
-0.023297 -0.646941 -0.589296
0.089978 -0.615004 -0.589296
0.335207 -0.612764 -0.589296
-0.149197 -0.814143 -0.589296
-0.14622 -0.61556 -0.589296
-0.038928 -0.713108 -0.589296
-0.005872 -0.860333 -0.589296
-0.209638 -0.707589 -0.589296
-0.21377 -0.812366 -0.589296
-0.068708 -0.661498 -0.589296
-0.22175 -0.857862 -0.589296
0.174583 -0.755138 -0.589296
0.079241 -0.826285 -0.589296
-0.04499 -0.863496 -0.589296
-0.318924 -0.79855 -0.589296
0.001227 -0.730883 -0.589296
-0.360423 -0.701301 -0.589296
-0.271297 -0.712772 -0.589296
0.022367 -0.788603 -0.589296
0.233348 -0.703417 -0.589296
-0.295657 -0.82233 -0.589296
-0.342321 -0.776691 -0.589296
0.116091 -0.792148 -0.589296
0.317436 -0.74733 -0.589296
-0.080252 -0.688851 -0.589296
-0.31766 -0.670747 -0.589296
-0.371765 -0.674942 -0.589296
-0.179464 -0.86357 -0.589296
0.22039 -0.639272 -0.589296
-0.120328 -0.751148 -0.589296
-0.17756 -0.817181 -0.589296
0.255149 -0.807558 -0.589296
-0.217432 -0.776918 -0.589296
0.36174 -0.68096 -0.589296
-0.336487 -0.630825 -0.589296
-0.1153 -0.621571 -0.589296
-0.034133 -0.809476 -0.589296
0.027306 -0.640245 -0.589296
0.158268 -0.645512 -0.589296
0.382919 -0.86526 -0.589296
0.391553 -0.829014 0.138681
0.391553 -0.827312 -0.234232
0.391553 -0.761771 -0.046335
0.391553 -0.681542 -0.526349
0.391553 -0.853987 -0.409536
0.391553 -0.760015 0.274329
0.391553 -0.688304 -0.197983
0.391553 -0.730328 -0.332832
0.391553 -0.703181 0.115727
0.391553 -0.867591 0.320266
0.391553 -0.862725 -0.123655
0.391553 -0.863681 0.00468
0.391553 -0.79037 -0.512991
0.391553 -0.707443 -0.433131
0.391553 -0.666375 0.289029
0.391553 -0.773291 -0.144533
0.391553 -0.703122 0.024199
0.371688 -0.734911 -0.589296
0.391553 -0.840827 0.241443
0.391553 -0.792016 0.042766
0.391553 -0.69109 0.211944
0.391553 -0.751334 -0.254695
0.391553 -0.850873 -0.30893
0.391553 -0.769276 0.185576
0.391553 -0.868176 -0.481544
0.391553 -0.782581 -0.408228
0.391553 -0.695226 -0.105808
0.391553 -0.845502 -0.063113
0.391553 -0.868662 0.066447
0.391553 -0.668129 -0.385502
0.391553 -0.732798 -0.495413
0.391553 -0.791824 0.329996
0.391553 -0.716367 0.332297
0.391553 -0.703145 -0.282319
0.391553 -0.806497 -0.342242
0.391553 -0.824322 -0.163262
0.391553 -0.802868 -0.094598
0.391553 -0.815754 -0.021783
0.391553 -0.835285 -0.536098
0.391553 -0.7739 -0.299448
0.391553 -0.750524 0.101866
0.391553 -0.71035 -0.059591
0.391553 -0.766159 -0.461217
0.391553 -0.723597 -0.379949
0.391553 -0.803366 0.099313
0.391553 -0.735935 -0.172091
0.391553 -0.720116 0.251893
0.376809 -0.829016 0.358229
0.391553 -0.825895 0.199559
0.391553 -0.824248 -0.485648
0.391553 -0.814375 -0.574268
0.391553 -0.816744 -0.434941
0.391553 -0.750225 -0.534745
0.391553 -0.731632 -0.128278
0.391553 -0.761777 -0.097026
0.391553 -0.731404 0.201287
0.391553 -0.835042 0.043056
0.391553 -0.818782 -0.380959
0.391553 -0.828827 0.308405
0.391553 -0.676555 0.164037
0.391553 -0.699471 -0.021091
0.391553 -0.673951 0.246705
0.391553 -0.689083 -0.477298
0.391553 -0.774747 0.22331
0.391553 -0.71817 -0.23621
0.391553 -0.755281 0.340766
0.391553 -0.810736 -0.293645
0.391553 -0.853998 -0.259857
0.391553 -0.806829 -0.058176
0.391553 -0.753901 -0.010561
0.385868 -0.693814 -0.589296
0.391553 -0.742063 -0.428213
0.371593 -0.769434 -0.589296
0.391553 -0.825529 -0.197547
0.391553 -0.836642 0.077898
0.391553 -0.703648 0.281268
0.391553 -0.811246 0.257122
0.391553 -0.761378 0.307756
0.391553 -0.68369 -0.155427
0.391553 -0.857771 0.355182
0.391553 -0.7295 -0.300491
0.391553 -0.864053 -0.549844
0.391553 -0.698449 -0.333331
0.391553 -0.676897 0.319069
0.391553 -0.848908 -0.370976
0.391553 -0.729513 0.041142
0.372451 -0.689626 0.358229
0.391553 -0.767284 0.024433
0.391553 -0.762457 -0.501329
0.391553 -0.786736 0.072351
0.391553 -0.833711 0.004439
0.391553 -0.783646 -0.007026
0.391553 -0.833191 -0.119416
0.391553 -0.793741 -0.471677
0.391553 -0.807814 0.158339
0.391553 -0.704048 0.18634
0.391553 -0.782316 0.250702
0.391553 -0.786838 -0.120185
0.391553 -0.798198 0.208403
0.391553 -0.728438 -0.000651
0.382687 -0.835001 -0.589296
0.391553 -0.765644 -0.325156
0.391553 -0.727188 -0.451515
0.391553 -0.817646 0.226064
0.391553 -0.775941 -0.539862
0.391553 -0.850426 -0.164815
0.391553 -0.726927 -0.196627
0.008396 -0.829997 0.358229
0.280076 -0.830427 0.358229
-0.185865 -0.81527 0.358229
-0.341118 -0.729181 0.358229
0.133725 -0.738453 0.358229
-0.095894 -0.692332 0.358229
0.15728 -0.866336 0.358229
0.284823 -0.71575 0.358229
-0.20865 -0.685 0.358229
-0.302339 -0.843127 0.358229
0.028359 -0.728197 0.358229
-0.092108 -0.853235 0.358229
0.216926 -0.771384 0.358229
0.208651 -0.67688 0.358229
-0.256904 -0.768023 0.358229
0.358512 -0.75336 0.358229
-0.110526 -0.770523 0.358229
-0.33293 -0.645469 0.358229
0.082814 -0.840152 0.358229
0.267295 -0.630883 0.358229
-0.039549 -0.771252 0.358229
0.089373 -0.656064 0.358229
-0.030043 -0.660199 0.358229
0.340294 -0.855852 0.358229
-0.282667 -0.701497 0.358229
0.217228 -0.837176 0.358229
-0.225737 -0.86405 0.358229
0.341879 -0.694842 0.358229
-0.333092 -0.790919 0.358229
-0.365004 -0.843758 0.358229
0.152087 -0.810836 0.358229
-0.033273 -0.864892 0.358229
-0.165903 -0.654959 0.358229
