-0.445179 0.53016 -0.503465
-0.445179 -0.03251 0.214384
-0.445179 0.541651 0.110393
-0.445179 0.496718 -0.327328
-0.445179 -0.211628 -0.241385
-0.423731 -0.393806 0.247602
-0.423731 -0.069179 -0.195773
-0.423731 0.621986 -0.29304
-0.445179 -0.583037 0.326027
-0.423731 0.603589 0.236139
-0.423731 -0.526149 0.361632
-0.423731 0.442154 0.364854
-0.445179 -0.54904 -0.256146
-0.423731 -0.477497 0.158127
-0.423731 0.011721 -0.505366
-0.445179 0.182203 -0.492079
-0.445179 -0.532849 -0.498715
-0.423731 -0.184832 -0.435402
-0.445179 0.62281 0.152082
-0.423731 0.609381 -0.118395
-0.423731 -0.445144 0.192623
-0.445179 0.365371 0.171044
-0.445179 0.498343 0.166483
-0.423731 -0.102402 0.23946
-0.423731 0.117114 0.212697
-0.445179 -0.060197 -0.142026
-0.423731 -0.165056 -0.318962
-0.423731 0.397768 -0.181971
-0.423731 0.304491 -0.262203
-0.423731 0.422342 -0.278913
-0.445179 0.262896 0.287966
-0.445179 -0.355169 -0.15873
-0.445179 0.259203 0.044062
-0.445179 0.420174 -0.042854
-0.423731 -0.081068 -0.033575
-0.423731 0.069311 -0.068856
-0.445179 0.296246 -0.061534
-0.423731 -0.453005 -0.096202
-0.423731 0.545386 -0.076653
-0.445179 -0.200086 0.296131
-0.445179 -0.477232 0.113913
-0.445179 0.38639 0.291107
-0.423731 0.055327 -0.326899
-0.423731 -0.568686 0.360131
-0.423731 0.260778 0.193771
-0.423731 -0.540073 -0.35967
-0.423731 0.072359 -0.216127
-0.445179 0.147468 0.030668
-0.445179 -0.139622 -0.20765
-0.423731 0.334184 0.332308
-0.445179 0.2126 -0.440654
-0.423731 0.144789 0.141211
-0.445179 0.598352 -0.163057
-0.423731 0.206141 0.148005
-0.445179 -0.425941 -0.019901
-0.423731 0.337343 -0.433007
-0.423731 0.550034 -0.318997
-0.445179 0.645174 -0.327574
-0.445179 0.236531 0.252356
-0.423731 0.363339 -0.364669
-0.445179 -0.191617 0.254866
-0.423731 -0.514195 -0.519766
-0.445179 0.162938 -0.442108
-0.423731 0.036696 -0.123506
-0.423731 -0.431754 0.450404
-0.445179 0.648223 0.270858
-0.445179 0.4845 -0.089732
-0.423731 -0.074029 -0.440662
-0.423731 -0.22919 0.195945
-0.445179 -0.554404 -0.430151
-0.445179 -0.02531 -0.533111
-0.423731 -0.434825 0.340065
-0.423731 0.158309 -0.359225
-0.445179 -0.164473 0.222298
-0.423731 -0.585686 0.048429
-0.423731 0.331555 -0.095534
-0.423731 0.223105 0.367815
-0.423731 -0.210753 0.09146
-0.445179 -0.32766 0.025166
-0.423731 0.578472 -0.241238
-0.423731 -0.13788 0.24811
-0.445179 -0.492307 0.380261
-0.445179 -0.374696 0.392538
-0.445179 0.228584 -0.08914
-0.423731 -0.238395 -0.047681
-0.423731 -0.564984 -0.040781
-0.423731 0.084446 0.220583
-0.445179 -0.082303 -0.317506
-0.423731 -0.443638 -0.136088
-0.423731 0.422832 0.236779
-0.445179 0.643162 0.002769
-0.445179 0.648983 0.226855
-0.423731 -0.400014 0.379726
-0.445179 0.235879 -0.38038
-0.423731 -0.283009 -0.054185
-0.423731 -0.457828 -0.364329
-0.423731 -0.365383 0.184501
-0.445179 0.282646 -0.305384
-0.423731 0.13396 -0.196497
-0.445179 -0.003905 -0.241005
-0.445179 -0.097511 -0.054098
-0.445179 0.259251 -0.237929
-0.445179 -0.074089 -0.462002
-0.445179 -0.062309 -0.235233
-0.445179 0.094351 0.119795
-0.445179 0.460517 -0.0055
-0.445179 -0.075201 0.246372
-0.423731 0.341241 0.261544
-0.445179 0.479604 0.241563
-0.423731 0.594104 0.115822
-0.445179 0.422654 -0.085505
-0.445179 -0.053389 -0.389562
-0.445179 -0.125718 0.092257
-0.445179 -0.035411 0.282283
-0.445179 -0.256102 -0.328789
-0.423731 -0.085698 0.096095
-0.423731 -0.466151 -0.50084
-0.445179 0.149334 0.209314
-0.423731 -0.251943 -0.511179
-0.445179 0.428579 0.083101
-0.423731 -0.270866 0.214924
-0.445179 0.140435 -0.082653
-0.445179 0.547986 0.076706
-0.423731 -0.215106 0.372096
-0.423731 0.236432 -0.357971
-0.445179 -0.587093 -0.231411
-0.423731 0.280191 -0.116266
-0.423731 -0.131325 0.381652
-0.423731 -0.444948 0.087243
-0.423731 -0.485249 -0.004683
-0.445179 -0.330964 -0.486431
-0.445179 -0.145975 0.310331
-0.445179 0.607689 -0.061024
-0.445179 0.668072 -0.083249
-0.423731 0.296285 0.325239
-0.445179 0.300453 0.128291
-0.423731 -0.221509 0.444014
-0.423731 -0.213023 0.333286
-0.445179 0.465153 -0.284932
-0.445179 0.236916 0.076868
-0.423731 -0.252815 0.04876
-0.423731 -0.162794 -0.365237
-0.423731 0.461433 0.065172
-0.445179 0.190465 -0.007533
-0.423731 0.04428 -0.267795
-0.445179 -0.480502 0.195228
-0.423731 -0.255697 0.329613
-0.445179 0.146198 -0.138068
-0.445179 -0.272854 0.279104
-0.445179 -0.177421 -0.384148
-0.445179 0.244476 0.349196
-0.445179 -0.435069 -0.11777
-0.445179 -0.400068 0.159118
-0.423731 -0.070256 -0.513515
-0.445179 0.365594 -0.069197
-0.423731 -0.257322 0.367074
-0.423731 -0.369989 -0.197821
-0.445179 -0.179149 0.377299
-0.445179 0.236648 0.308585
-0.445179 -0.111365 0.347846
-0.445179 -0.156511 0.406433
-0.445179 -0.400212 0.442763
-0.423731 0.632005 0.380627
-0.423731 0.093957 -0.305765
-0.423731 0.26962 -0.335697
-0.423731 0.578309 0.160829
-0.423731 -0.358642 -0.436786
-0.445179 -0.281914 -0.359668
-0.423731 -0.043115 -0.122775
-0.423731 -0.590247 -0.370594
-0.423731 0.368456 -0.314713
-0.445179 0.002293 0.193483
-0.423731 0.107187 0.16504
-0.445179 -0.505184 -0.061472
-0.423731 -0.133143 -0.457618
-0.423731 -0.184148 0.10629
-0.445179 0.470581 0.398287
-0.423731 0.494306 -0.239919
-0.423731 -0.532803 -0.111575
-0.423731 0.280114 -0.405045
-0.445179 -0.248261 -0.425725
-0.445179 0.277601 0.066149
-0.445179 -0.604998 0.033773
-0.445179 0.150206 0.254876
-0.423731 -0.35704 -0.01426
-0.423731 -0.378663 -0.469396
-0.423731 0.144906 -0.021223
-0.445179 0.56277 -0.470821
-0.445179 -0.038423 -0.179583
-0.423731 0.642254 -0.5123
-0.423731 -0.539981 0.000971
-0.445179 -0.172799 -0.144684
-0.423731 0.488715 -0.119309
-0.445179 0.555652 0.343559
-0.423731 0.304288 -0.228905
-0.423731 -0.432744 -0.32209
-0.445179 0.194016 -0.268821
-0.445179 0.284634 0.194812
-0.423731 0.524347 0.171931
-0.445179 0.040108 -0.425791
-0.445179 -0.262705 -0.283022
-0.423731 0.564701 0.012634
-0.445179 0.402873 0.111481
-0.423731 0.535381 -0.242257
-0.445179 0.567851 0.122516
-0.423731 0.482922 -0.44858
-0.423731 0.33012 0.032903
-0.423731 -0.135225 -0.518632
-0.445179 0.108846 -0.149935
-0.423731 -0.249612 -0.006311
-0.423731 -0.188006 -0.507875
-0.423731 -0.5096 0.052194
-0.445179 -0.327141 -0.377714
-0.445179 -0.001303 0.257751
-0.423731 -0.036181 0.346726
-0.438674 0.67794 -0.50263
-0.423731 0.560196 0.283961
-0.423731 -0.601156 -0.050037
-0.423731 0.481817 0.341261
-0.423731 -0.477476 0.039335
-0.445179 0.378464 -0.288173
-0.445179 0.503574 0.289984
-0.423731 -0.411993 -0.133458
-0.445179 -0.092667 -0.245052
-0.423731 0.453923 -0.081525
-0.423731 -0.098929 -0.495832
-0.445179 -0.498025 0.344127
-0.445179 0.206659 -0.057342
-0.423731 0.04277 -0.050793
-0.445179 0.438594 -0.467588
-0.445179 -0.030177 0.412575
-0.423731 0.313172 0.384932
-0.423731 -0.406547 0.311129
-0.423731 -0.156874 0.181477
-0.423731 0.408273 0.143052
-0.423731 0.440215 -0.025136
-0.445179 -0.149522 -0.486511
-0.423731 -0.275675 -0.085708
-0.423731 -0.132465 -0.299827
-0.423731 0.313335 0.207241
-0.423731 0.054182 -0.513283
-0.445179 -0.284905 -0.311816
-0.423731 -0.130032 -0.25256
-0.423731 0.338113 -0.292893
-0.445179 0.281383 -0.016404
-0.423731 0.002371 -0.092869
-0.423731 0.184638 0.296555
-0.423731 0.629513 -0.342561
-0.445179 -0.525109 0.186863
-0.445179 0.435401 -0.135894
-0.445179 -0.216481 -0.208826
-0.445179 0.485383 -0.361282
-0.445179 -0.214709 -0.469111
-0.423731 -0.495066 0.121916
-0.445179 -0.148726 -0.053878
-0.423731 0.572467 -0.047527
-0.445179 -0.082741 0.362062
-0.445179 -0.106439 0.171029
-0.423731 -0.189112 0.165247
-0.423731 0.029674 -0.241012
-0.423731 0.028888 0.227746
-0.445179 -0.186575 -0.469256
-0.423731 0.483203 -0.055821
-0.445179 0.592611 0.038193
-0.423731 -0.487221 -0.525053
-0.423731 -0.514366 0.202394
-0.445179 0.131733 0.128089
-0.445179 0.153548 -0.287125
-0.445179 0.657516 -0.434256
-0.445179 0.239602 -0.516028
-0.445179 0.601382 -0.029222
-0.445179 0.172401 0.095712
-0.423731 0.428486 0.164635
-0.445179 0.279083 -0.499866
-0.445179 -0.08121 -0.175182
-0.439776 -0.608899 0.361614
-0.445179 -0.383807 -0.006006
-0.423731 0.078145 0.114881
-0.445179 -0.079896 0.148993
-0.423731 0.085816 -0.447401
-0.445179 -0.349506 -0.073269
-0.423731 0.254227 0.06939
-0.445179 -0.586313 0.223349
-0.423731 0.415747 -0.231079
-0.445179 0.32032 0.272796
-0.423731 -0.506306 -0.160869
-0.423731 0.274878 -0.064842
-0.445179 0.651062 0.364552
-0.423731 0.245018 0.021663
-0.423731 0.126006 0.274619
-0.445179 0.292156 0.034213
-0.445179 -0.360237 0.038857
-0.445179 -0.553466 0.318525
-0.423731 0.282177 -0.45423
-0.445179 -0.571883 0.429564
-0.423731 0.011478 -0.219783
-0.445179 -0.235742 0.411443
-0.423731 -0.143872 -0.398657
-0.423731 -0.262478 -0.472332
-0.445179 -0.11353 -0.371278
-0.423731 0.003124 0.346429
-0.423731 -0.358451 0.371577
-0.445179 -0.438593 0.017014
-0.423731 -0.140627 0.325928
-0.423731 0.241296 0.115869
-0.445179 -0.031623 -0.320248
-0.445179 0.215079 0.268932
-0.445179 -0.466928 0.444004
-0.445179 -0.573026 -0.008362
-0.423731 -0.154486 -0.432927
-0.423731 -0.192682 -0.34369
-0.423731 0.654252 -0.009103
-0.423731 0.425374 -0.511591
-0.423731 0.357181 0.185042
-0.445179 -0.259291 0.453259
-0.423731 0.123958 -0.063727
-0.423731 -0.021132 0.225852
-0.423731 0.453375 -0.153603
-0.423731 0.477886 -0.514251
-0.423731 -0.153481 -0.276773
-0.445179 0.13185 -0.179237
-0.445179 0.497352 -0.063786
-0.445179 -0.012707 0.2965
-0.423731 -0.430952 -0.220736
-0.445179 -0.216929 -0.136066
-0.423731 -0.30108 0.038311
-0.423731 0.186339 0.084446
-0.445179 -0.003104 -0.511393
-0.423731 -0.280527 -0.20312
-0.445179 -0.307949 -0.405915
-0.423731 0.413179 -0.428828
-0.423731 -0.476525 -0.284957
-0.445179 0.586048 0.297506
-0.445179 -0.338472 0.201551
-0.423731 0.456443 -0.047698
-0.423731 0.364721 0.248817
-0.423731 0.398311 -0.540744
-0.445179 -0.09899 -0.342737
-0.445179 -0.482392 -0.25207
-0.445179 0.386721 -0.313987
-0.423731 0.102344 -0.209956
-0.423731 0.373928 0.07616
-0.423731 0.54947 -0.20105
-0.423731 -0.24784 -0.288278
-0.445179 -0.261981 0.394064
-0.423731 0.20204 -0.429018
-0.423731 -0.519084 -0.054149
-0.445179 0.319791 -0.44318
-0.445179 -0.012671 -0.343035
-0.445179 -0.602992 0.408395
-0.445179 -0.273469 0.358895
-0.423731 -0.386832 -0.390952
-0.423731 -0.468107 -0.057443
-0.423731 0.359082 -0.181383
-0.445179 0.664156 0.11914
-0.445179 0.267964 -0.128203
-0.423731 0.163881 -0.517659
-0.423731 0.006097 -0.45895
-0.445179 -0.175015 0.061697
-0.445179 -0.385967 0.289715
-0.445179 0.437062 -0.396928
-0.423731 -0.360509 -0.262479
-0.423731 -0.047288 -0.263906
-0.445179 0.333908 -0.025646
-0.423731 -0.208019 0.249065
-0.445179 0.589043 -0.230388
-0.423731 0.153042 -0.462715
-0.445179 0.532426 -0.098274
-0.423731 0.652857 -0.300744
-0.423731 -0.032175 0.319791
-0.445179 -0.397604 -0.372503
-0.445179 -0.169519 -0.432144
-0.423731 -0.293382 0.233333
-0.423731 -0.231335 -0.141795
-0.423731 0.046967 -0.021795
-0.445179 -0.41871 -0.088816
-0.445179 0.173976 0.025897
-0.445179 0.48467 -0.040925
-0.423731 0.315849 -0.49267
-0.423731 0.19229 -0.165902
-0.445179 -0.294635 0.129774
-0.445179 -0.58128 -0.156261
-0.445179 -0.333181 0.318478
-0.445179 0.387659 0.029718
-0.445179 -0.093553 -0.4014
-0.445179 0.316025 0.044683
-0.445179 -0.340506 -0.331215
-0.427902 0.67794 -0.375076
-0.445179 0.021456 -0.179311
-0.423731 0.362074 -0.522222
-0.423731 -0.303993 -0.459204
-0.445179 -0.403411 -0.538618
-0.423731 -0.565148 -0.120654
-0.443903 0.251122 -0.540979
-0.445179 0.066494 -0.317493
-0.423731 0.473339 0.375888
-0.445179 -0.385615 -0.273878
-0.423731 -0.347961 0.212577
-0.423731 -0.214261 0.217119
-0.445179 -0.177561 0.198223
-0.445179 -0.34286 -0.107174
-0.445179 -0.601117 -0.38017
-0.445179 -0.176352 -0.081599
-0.445179 0.122549 0.25876
-0.423731 -0.104835 -0.528763
-0.445179 0.345928 -0.096683
-0.423731 -0.561997 -0.194016
-0.445179 0.06305 -0.348234
-0.445179 -0.45422 0.261053
-0.445179 0.440838 -0.364873
-0.445179 0.220325 -0.153106
-0.423731 0.161435 0.246055
-0.445179 -0.576987 -0.087679
-0.445179 -0.57456 -0.259509
-0.423731 0.665322 0.40011
-0.423731 -0.324542 -0.024525
-0.445179 0.27484 0.130653
-0.445179 0.03752 -0.281442
-0.423731 0.532657 -0.054314
-0.423731 0.575593 -0.447829
-0.423731 -0.514372 -0.359297
-0.445179 0.639835 -0.154869
-0.423731 -0.124605 0.352846
-0.445179 0.583818 -0.009687
-0.445179 -0.519103 -0.272427
-0.445179 0.592963 -0.457953
-0.423731 0.35722 -0.408748
-0.423731 0.455371 -0.48799
-0.445179 -0.496998 -0.138009
-0.423731 -0.503299 -0.022903
-0.423731 0.389571 0.234879
-0.423731 0.040949 -0.455594
-0.423731 -0.536617 0.13781
-0.423731 -0.420595 0.27323
-0.423731 0.273635 0.243698
-0.423731 -0.207973 -0.061419
-0.423731 0.664517 0.436313
-0.445179 -0.202997 -0.383967
-0.445179 0.458853 0.210694
-0.445179 0.06547 0.25604
-0.445179 0.648177 -0.536837
-0.445179 -0.31737 -0.46287
-0.445179 0.553577 -0.149755
-0.445179 -0.010861 -0.058709
0.434162 0.184238 -0.536129
0.434162 0.669389 -0.156205
0.434162 0.354036 0.183175
0.434162 -0.477521 -0.258681
0.412715 -0.293013 0.238021
0.434162 -0.134369 -0.373131
0.434162 0.529832 -0.515721
0.415797 -0.385214 -0.540979
0.434162 -0.562372 -0.013071
0.434162 0.154963 0.342586
0.434162 0.072275 -0.241659
0.434162 0.469329 -0.296694
0.434162 -0.593913 -0.444222
0.434162 0.056863 0.143692
0.434162 0.515399 0.05434
0.434162 -0.179989 -0.17464
0.434162 -0.214933 0.423878
0.434162 -0.164562 0.07642
0.434162 0.36737 -0.06737
0.434162 0.300137 -0.3799
0.434162 -0.109427 0.270824
0.434162 -0.409738 0.377147
0.434162 0.665153 0.250369
0.412715 0.332307 0.355943
0.434162 0.119688 -0.057647
0.434162 -0.361487 -0.376059
0.434162 0.675502 -0.325879
0.412715 0.51554 -0.123105
0.412715 0.116831 -0.394286
0.434162 0.661911 0.096061
0.434162 -0.60467 0.129477
0.434162 -0.416105 0.016456
0.434162 0.527785 0.21468
0.434162 0.213375 -0.267181
0.434162 0.221526 0.127552
0.434162 0.390276 -0.516737
0.434162 -0.112542 -0.5293
0.434162 0.014659 0.329346
0.434162 -0.429978 0.188294
0.434162 0.230028 -0.136294
0.434162 -0.253862 -0.448652
0.434162 -0.534492 -0.143049
0.412715 0.368482 0.057291
0.434162 -0.559922 0.379619
0.434162 0.384571 -0.192337
0.434162 -0.310564 0.084865
0.434162 -0.122667 -0.062954
0.434162 -0.257071 -0.284112
0.434162 0.640543 -0.445553
0.412715 -0.012241 -0.361998
0.434162 -0.466055 -0.440606
0.434162 -0.038264 0.059602
0.434162 -0.414168 -0.134673
0.434162 0.244579 0.245574
0.434162 -0.07907 0.403429
0.434162 0.264717 0.002204
0.434162 0.460974 -0.419157
0.412715 0.031162 -0.131514
0.434162 0.431969 0.281921
0.434162 -0.23252 -0.02487
0.412715 -0.066365 0.168618
0.412715 -0.193544 0.185294
0.412715 0.144244 0.047291
0.434162 -0.518632 -0.536193
0.434162 -0.106899 -0.268368
0.434162 0.570821 -0.363066
0.434162 -0.499998 0.107079
0.434162 -0.310545 -0.110857
0.434162 0.068322 -0.485855
0.434162 0.614498 -0.019595
0.412715 0.448693 0.147212
0.434162 -0.373063 -0.22775
0.434162 0.278464 -0.498287
0.434162 0.610407 -0.237595
0.434162 -0.466865 0.28161
0.434162 -0.075974 -0.166557
0.412715 -0.229174 0.319755
0.43059 -0.217786 -0.540979
0.434162 0.479546 0.374078
0.434162 0.329231 0.454739
0.434162 0.149383 0.194296
0.434162 0.677604 -0.536007
0.412715 0.041396 0.00944
0.434162 -0.573134 -0.269623
0.434162 0.135165 -0.171591
0.434162 0.015684 0.229167
0.434162 0.570423 0.3247
0.412715 0.20841 -0.413241
0.434162 0.476528 -0.041318
0.434162 0.242013 0.374743
0.434162 0.479344 -0.205027
0.412715 -0.474553 -0.347312
0.434162 -0.055411 -0.45895
0.412715 -0.017105 -0.271987
0.434162 -0.524175 0.192425
0.434162 -0.370233 0.297844
0.412715 0.100109 0.428931
0.412715 -0.392367 0.113143
0.412715 -0.480141 -0.079045
0.434162 -0.340065 -0.024349
0.434162 0.609455 0.16455
0.434162 0.334957 0.272506
0.434162 0.317084 -0.136978
0.412715 0.37828 -0.424269
0.412715 -0.148322 0.359187
0.412715 0.129063 -0.310276
0.412715 0.677196 -0.072628
0.434162 -0.292343 0.390139
0.412715 0.182056 0.441496
0.434162 -0.007308 -0.527476
0.434162 0.082339 0.281938
0.434162 -0.347689 0.180708
0.412715 0.540565 -0.435178
0.412715 -0.180937 -0.301828
0.434162 -0.366219 -0.464441
0.412715 0.312808 0.116902
0.412715 -0.193798 -0.095076
0.412715 -0.285425 -0.359268
0.434162 -0.594021 -0.088441
0.434162 -0.289327 -0.188779
0.412715 -0.151865 -0.448965
0.412715 0.597533 -0.122182
0.434162 0.408513 -0.348994
0.434162 -0.266862 0.151403
0.412715 0.27961 -0.20665
0.412715 -0.408723 -0.2947
0.434162 -0.538122 -0.388787
0.412715 0.171397 0.268779
0.434162 0.212279 -0.056065
0.434162 0.422822 -0.120863
0.434162 0.521905 0.137
0.434162 -0.056748 -0.024711
0.412715 0.588657 0.080584
0.412715 -0.239122 0.070649
0.434162 -0.49075 0.030311
0.434162 0.440464 0.06164
0.412715 0.127016 0.120424
0.434162 0.048011 -0.312757
0.412715 -0.389338 0.454984
0.434162 -0.119015 0.016359
0.412715 -0.595029 0.203933
0.434162 0.02242 -0.059211
0.412715 0.402842 0.378176
0.412715 0.455897 -0.490492
0.434162 -0.010069 -0.20188
0.434162 -0.220837 0.249586
0.412715 0.500968 0.306876
0.416446 0.112629 -0.540979
0.434162 0.53085 -0.25639
0.434162 0.546891 -0.056675
0.412715 0.007249 -0.432033
0.412715 0.003497 0.396484
0.434162 0.246466 -0.332985
0.412715 0.41913 0.215225
0.412715 0.40057 -0.008378
0.434162 0.593027 0.24191
0.412715 -0.134922 0.145998
0.412715 -0.486111 -0.192188
0.412715 -0.46176 0.420372
0.412715 -0.00799 0.127455
0.412715 0.494857 -0.362137
0.41796 0.67794 -0.235917
0.412715 0.215663 0.061892
0.412715 0.302715 -0.055337
0.434162 0.085154 0.365046
0.412715 0.162 -0.46429
0.434162 0.385993 -0.26813
0.412715 -0.065717 -0.095025
0.434162 -0.324486 -0.297727
0.434162 -0.202507 -0.363886
0.412715 -0.147138 0.427689
0.412715 0.265015 0.449262
0.434162 0.67615 0.176277
0.412715 0.260576 0.183546
0.412715 0.065726 0.080385
0.434162 0.162452 -0.109945
0.434162 -0.295892 0.322944
0.434162 -0.557838 0.053826
0.412715 -0.04038 0.297924
0.412715 -0.382274 -0.080118
0.434162 0.555738 -0.171132
0.412715 -0.384285 0.231376
0.412715 0.669776 0.316115
0.434162 -0.168108 -0.240766
0.412715 0.615075 -0.311522
0.434162 -0.327911 0.446188
0.434162 -0.489076 0.343288
0.434162 -0.453129 -0.537095
0.434162 -0.071361 -0.390581
0.412715 0.566921 0.386258
0.412715 -0.309396 -0.42207
0.428486 0.589593 -0.540979
0.412715 -0.442529 0.071678
0.434162 -0.550391 -0.2057
0.434162 -0.230053 -0.215516
0.412715 0.15531 -0.236938
0.412715 0.193257 0.001013
0.412715 -0.429538 -0.392558
0.412715 -0.088691 0.102563
0.412715 -0.282496 -0.057336
0.412715 0.341524 -0.334398
0.434162 -0.597413 -0.515578
0.430083 0.332252 -0.540979
0.412715 -0.600991 -0.380113
0.434162 -0.43166 -0.046453
0.412715 -0.277036 -0.536231
0.434162 -0.253874 -0.138254
0.434162 0.093523 0.22004
0.434162 -0.544305 0.316419
0.412715 -0.176486 0.014071
0.412715 -0.52282 -0.309462
0.434162 0.228245 0.3046
0.434162 -0.064583 -0.329782
0.412715 0.669881 -0.382753
0.412715 -0.365553 0.043014
0.434162 -0.211153 0.126791
0.434162 -0.147268 0.218575
0.412715 -0.360306 -0.152875
0.434162 0.336235 -0.010053
0.412715 0.383023 0.309821
0.412715 0.18265 -0.337658
0.434162 0.086944 -0.126557
0.412715 -0.296887 0.030577
0.434162 0.297945 -0.439687
0.434162 0.376653 0.112329
0.434162 -0.09493 0.345491
0.434162 0.113387 0.001663
0.412715 0.518139 0.419473
0.412715 0.190052 -0.174651
0.412715 -0.416997 -0.189325
0.412715 -0.041428 0.221754
0.412715 0.060852 -0.188368
0.412715 0.523582 0.001112
0.412715 0.476325 0.198836
0.412715 0.291654 0.063091
0.434162 -0.591196 -0.324194
0.434162 0.482223 0.254189
0.412715 -0.119542 -0.21672
0.434162 -0.11995 -0.120165
0.434162 -0.53081 -0.060825
0.412715 0.204598 0.195339
0.412715 0.296722 0.227458
0.412715 0.676267 -0.009075
0.434162 -0.42794 -0.482493
0.434162 0.262534 -0.089975
0.412715 -0.470739 0.150408
0.412715 0.615634 -0.399602
0.412715 -0.290534 -0.240899
0.412715 -0.056986 -0.512085
0.434162 0.57169 0.031577
0.412715 -0.034001 0.355032
0.430166 0.480155 -0.540979
0.434162 0.243968 -0.454502
0.434162 -0.354462 0.351303
0.412715 -0.587488 -0.170217
0.412715 0.143376 0.393982
0.429212 0.058527 -0.540979
0.434162 -0.534345 0.433258
0.434162 0.091876 -0.349723
0.434162 0.353352 0.404968
0.434162 0.62308 0.418841
0.434162 0.037764 -0.370612
0.434162 -0.01445 0.177727
0.418293 -0.608899 0.398164
0.434162 0.52549 -0.322187
0.412715 -0.32827 0.134294
0.412715 -0.436096 0.334309
0.434162 -0.409337 -0.344954
0.412715 -0.016883 0.005628
0.412715 0.071525 -0.044258
0.412715 0.333884 -0.206352
0.412715 -0.128873 -0.317046
0.434162 -0.210304 0.365808
0.412715 -0.492399 -0.02655
0.412715 -0.482097 0.217817
0.434162 0.590055 -0.482124
0.434162 0.498338 -0.466018
0.434162 -0.297983 -0.492049
0.412715 0.28683 0.280484
0.412715 0.571226 0.130923
0.434162 0.615908 0.352314
0.434162 -0.111322 -0.475791
0.412715 -0.465423 -0.129945
0.412715 0.326962 -0.491238
0.434162 -0.510239 -0.469494
0.434162 0.370049 -0.12067
0.434162 0.476608 -0.151418
0.434162 -0.166012 -0.532458
0.412715 0.474717 -0.090033
0.412715 -0.23912 -0.328274
0.412715 0.378456 0.445294
0.412715 -0.188494 0.287284
0.412715 0.433282 0.336022
0.434162 0.575747 -0.282585
0.434162 -0.238679 -0.080507
0.434162 0.540302 0.281044
0.434162 0.166716 -0.381826
0.434162 0.606129 -0.182172
0.412715 0.376227 0.250517
0.412715 0.173541 0.098711
0.434162 -0.027293 -0.150419
0.412715 0.662005 -0.49221
0.434162 0.418324 -0.062575
0.412715 -0.200736 -0.434112
0.412715 -0.267669 0.42938
0.434162 -0.345267 -0.511164
0.434162 -0.250073 0.207921
0.412715 0.467963 0.100191
0.434162 0.020555 0.050496
0.412715 0.059761 -0.440655
0.434162 0.234159 -0.187284
0.434162 0.414999 -0.4516
0.412715 0.569842 0.187415
0.434162 -0.432617 -0.23571
0.412715 -0.135992 0.307711
0.412715 0.235989 -0.523907
0.434162 0.630222 0.294115
0.434162 0.291982 0.37714
0.434162 0.445275 -0.001963
0.434162 0.252754 0.088735
0.434162 0.169985 -0.291762
0.434162 -0.252926 0.021933
0.434162 0.449033 -0.251374
0.434162 -0.269773 -0.40106
0.434162 0.127808 0.259525
0.412715 -0.016338 -0.095861
0.412715 0.226927 0.416528
0.417729 0.429834 -0.540979
0.434162 0.10806 -0.456817
0.434162 0.606856 -0.078878
0.434162 0.020077 -0.476211
0.412715 0.369878 -0.374272
0.412715 -0.423331 0.276132
0.412715 0.662917 -0.282037
0.412715 -0.179386 -0.048587
0.434162 0.282952 -0.296027
0.412715 0.090362 0.038548
0.412715 -0.557956 0.135981
0.434162 -0.210821 -0.270453
0.412715 -0.59933 0.338014
0.434162 -0.582388 0.245522
0.434162 -0.515827 0.244557
0.434162 -0.215476 -0.480222
0.428818 0.67794 0.360589
0.412715 -0.60527 -0.221749
0.434162 0.029673 -0.263682
0.434162 0.432195 0.40921
0.412715 0.252437 -0.04178
0.434162 -0.52561 -0.246402
0.412715 0.618381 0.206085
0.412715 -0.311441 0.281593
0.412715 -0.101864 0.199881
0.434162 0.628727 0.054891
0.412715 -0.366056 -0.314961
0.412715 0.403055 0.159226
0.412715 0.560987 -0.227437
0.412715 -0.118968 -0.169795
0.434162 -0.077327 -0.213413
0.412715 0.151725 -0.020206
0.412715 -0.329031 -0.343216
0.412715 0.232633 -0.371761
0.434162 0.307691 0.185795
0.434162 -0.04794 0.107873
0.434162 -0.548072 -0.438859
0.434162 0.521042 -0.393489
0.412715 -0.455074 0.000509
0.434162 -0.279623 -0.016653
0.412715 -0.546851 -0.103946
0.412715 -0.411769 -0.445252
0.412715 -0.088609 -0.435988
0.412715 0.121405 0.299274
0.412715 0.059084 0.240852
0.412715 0.312997 0.411419
0.412715 0.293781 0.32552
0.434162 0.331556 0.073054
0.412715 -0.335476 0.406839
0.434162 -0.333998 0.224017
0.412715 -0.250298 0.36749
0.434162 0.178987 0.143433
0.434162 0.369718 -0.463306
0.434162 -0.020262 -0.320232
0.434162 -0.566655 0.174931
0.434162 -0.398975 0.064797
0.434162 -0.423974 0.137432
0.412715 -0.522119 0.071258
0.434162 0.651308 -0.197587
0.434162 0.481068 0.433446
0.412715 0.307637 0.017234
0.434162 -0.076295 0.030391
0.420365 0.277475 -0.540979
0.434162 0.639965 -0.352944
0.412715 -0.038159 -0.229188
0.434162 -0.474967 -0.496811
0.412715 0.579182 0.285357
0.434162 0.034084 0.3695
0.412715 0.055976 0.421995
0.434162 0.342703 -0.408363
0.434162 0.269233 -0.157266
0.434162 0.430372 0.109815
0.434162 -0.394296 -0.408259
0.434162 0.12512 -0.260927
0.434162 -0.328867 -0.237811
0.423123 0.67794 0.056567
0.412715 0.563405 -0.017466
0.434162 -0.127467 -0.416483
0.412715 -0.556923 -0.355486
0.412715 0.536082 0.341149
0.412715 0.569303 -0.325078
0.434162 -0.172794 -0.489285
0.412715 0.347012 -0.160302
0.412715 -0.504692 0.308886
0.434162 0.184993 0.308526
0.412715 -0.131723 0.097456
0.412715 0.189766 0.356823
0.434162 -0.568584 0.100148
0.412715 0.543511 -0.478152
0.412715 0.252479 -0.409983
0.434162 -0.491003 -0.380768
0.412715 -0.179393 0.329452
0.434162 -0.056734 0.264467
0.434162 -0.44143 -0.101518
0.434162 0.582199 -0.439941
0.412715 -0.217925 -0.147656
0.434162 0.481977 0.020186
0.412715 0.515684 -0.212347
0.434162 0.437762 -0.194932
0.434162 -0.092971 0.142991
0.412715 0.216368 -0.311446
0.434162 -0.332842 0.02215
0.412715 -0.190161 0.22906
0.412715 -0.099517 -0.347947
0.434162 0.11985 0.074653
0.434162 -0.486273 -0.30803
0.412715 -0.110673 0.378678
0.434162 0.511093 -0.086346
0.434162 0.309205 -0.091288
0.412715 0.080957 -0.09062
0.412715 0.257939 0.128588
0.412715 -0.144488 0.042337
0.434162 0.464885 0.309855
0.412715 -0.011338 0.083798
0.412715 -0.534646 0.026068
0.412715 0.484573 -0.257335
0.434162 0.361663 -0.234028
0.412715 0.508881 0.091246
0.434162 0.031808 -0.209416
0.434162 -0.102764 -0.022038
0.412715 0.201469 -0.483085
0.412715 -0.148793 0.268232
0.434162 -0.507604 -0.101583
0.412715 0.453933 -0.368899
0.434162 -0.227225 0.165015
0.434162 0.038575 0.103015
0.434162 0.160388 0.015977
0.412715 -0.032137 -0.420392
0.434162 -0.004278 -0.026957
0.412715 -0.596595 -0.130251
0.412715 0.41704 -0.410957
0.434162 -0.322806 -0.165148
0.412715 0.588907 0.425972
0.412715 0.179917 0.228705
0.434162 -0.387861 -0.499183
0.434162 -0.38996 0.412939
0.412715 -0.001498 0.443396
0.434162 -0.173367 -0.123243
0.434162 0.089165 0.322238
0.412715 -0.184006 0.447499
0.412715 0.286452 -0.252588
0.412715 0.362453 -0.032799
0.412715 -0.508426 -0.410603
0.434162 0.091964 -0.309066
0.432789 -0.565749 -0.540979
0.434162 -0.016464 0.25965
0.434162 0.19333 -0.231994
0.412715 0.081078 0.119346
0.412715 -0.40025 0.162168
0.434162 -0.272031 0.265077
0.434162 0.179496 0.407414
0.434162 -0.384999 -0.009176
0.412715 -0.548261 0.216597
0.434162 -0.343871 -0.412246
0.412715 0.407044 -0.150969
0.434162 0.345477 0.23387
0.412715 -0.276005 0.183905
0.412715 -0.187541 0.404203
0.434162 0.356104 0.330128
0.412715 -0.526735 0.385562
0.412715 -0.399365 0.318617
0.434162 0.654713 0.135344
0.412715 0.229058 0.338241
0.434162 0.04636 -0.101502
0.412715 -0.031655 0.415329
0.434162 -0.490903 -0.151885
0.430121 0.67794 -0.432318
0.434162 -0.203481 0.067919
0.434162 0.192359 -0.45004
0.412715 -0.277135 -0.112256
0.434162 -0.362112 -0.119616
0.412715 0.149936 0.159678
0.434162 0.477415 0.163949
0.412715 -0.449681 0.116413
0.434162 0.073628 -0.011148
0.412715 -0.174447 -0.381556
0.412715 -0.21978 0.021714
0.412715 0.428774 0.026775
0.434162 -0.167879 -0.34496
0.434162 -0.34098 -0.063798
0.434162 0.3657 0.016057
0.421788 0.67794 -0.119852
0.412715 0.138781 -0.087148
0.412715 0.617158 0.107554
0.412715 -0.328885 0.056891
0.434162 -0.138845 0.180294
0.412715 0.671293 0.423736
0.434162 0.517574 -0.179443
0.434162 0.628485 -0.272198
0.434162 0.651608 0.206521
0.412715 0.560611 0.243554
0.412715 -0.354368 0.269575
0.412715 0.044652 0.31713
0.434162 -0.514673 -0.000286
0.412715 0.402825 0.093049
0.434162 0.434416 -0.313351
0.412715 0.405336 -0.24243
0.434162 0.338482 -0.367594
0.412715 0.601172 -0.347533
0.412715 -0.362092 -0.197595
0.434162 0.057629 0.039791
0.434162 -0.3638 0.127499
0.412715 -0.138757 -0.090573
0.412715 0.092401 -0.16636
0.434162 0.031271 0.268266
0.412715 -0.133589 -0.013942
0.412715 -0.074665 0.315222
0.412715 -0.519646 -0.171093
0.412715 -0.279089 0.088075
0.412715 -0.235239 -0.112771
0.412715 -0.393616 -0.25167
0.434162 0.106772 -0.494927
0.412715 -0.441873 -0.276065
0.412715 0.231064 0.159571
0.412715 0.095888 -0.20421
0.412715 -0.326327 0.330329
0.434162 -0.030904 -0.387139
0.412715 -0.607387 0.098298
0.434162 -0.299522 0.204549
0.412715 -0.18859 0.096461
0.412715 -0.601908 0.160616
0.412715 0.60037 0.019215
0.434162 0.496823 0.34039
0.434162 -0.167151 -0.077717
0.412715 0.540483 -0.356034
0.434162 0.131627 -0.341311
0.412715 -0.258001 0.121608
0.434162 -0.259739 0.312033
0.412715 -0.092147 0.245001
0.412715 0.586594 -0.047229
0.434162 -0.260647 -0.4973
0.434162 0.015644 -0.332024
0.412715 -0.101716 -0.396619
0.434162 -0.308368 0.157855
0.412715 0.575629 -0.393356
0.412715 -0.422468 -0.539188
0.434162 0.286395 -0.02939
0.412715 -0.274866 -0.317278
0.434162 -0.094586 -0.307457
0.412715 0.217214 0.276095
0.434162 0.212895 0.225875
0.412715 0.012579 -0.1815
0.412715 0.208777 -0.114474
0.434162 -0.109848 0.424323
0.434162 0.536846 0.381908
0.434162 0.065535 0.18294
0.434162 0.559106 0.103163
0.412715 -0.181618 0.132791
0.434162 -0.004792 -0.244486
0.434162 0.315802 -0.173924
0.412715 -0.563204 -0.313219
0.434162 0.659104 0.015607
0.412715 0.426976 -0.091185
0.412715 0.116611 -0.130008
0.434162 -0.457432 0.361996
0.434162 0.332406 0.033894
0.434162 0.511225 -0.02604
0.412715 -0.018035 -0.059185
0.434162 0.153898 -0.515516
0.434162 -0.256009 -0.354982
0.412715 -0.498948 -0.281159
0.412715 -0.306888 -0.028349
0.434162 -0.214547 -0.407994
0.434162 -0.493193 0.173138
0.412715 0.641674 -0.030786
0.434162 0.402592 0.063723
0.434162 0.103965 0.138554
0.434162 0.638752 -0.509995
0.412715 0.28013 0.098979
0.434162 -0.439186 -0.324412
0.434162 -0.263278 -0.230419
0.434162 0.027822 -0.411389
0.412715 0.482164 0.066845
0.412715 -0.420373 -0.081402
0.434162 -0.413356 0.230225
0.412715 0.093444 -0.427628
0.434162 -0.570999 -0.472135
0.434162 -0.566467 -0.126304
0.412715 0.223384 0.098612
0.434162 -0.594858 0.369002
0.434162 0.674867 0.287731
0.412715 0.453028 -0.219316
0.412715 -0.029937 -0.472221
0.412715 0.351955 0.097737
0.434162 -0.502988 -0.218672
0.434162 0.522453 0.447729
0.434162 -0.381522 -0.172029
0.434162 -0.185461 -0.013059
0.412715 0.091892 0.254867
0.412715 -0.45956 -0.226482
0.412715 0.237447 0.033708
0.434162 0.439042 -0.159335
0.434162 -0.073179 0.449024
0.412715 -0.016282 0.041645
0.412715 -0.16434 -0.270376
0.434162 -0.595279 0.310021
0.412715 -0.436319 -0.353248
0.434162 0.651828 -0.060271
0.434162 -0.432367 0.306361
0.434162 -0.042369 -0.25706
0.434162 0.4275 0.242133
0.412715 0.586449 -0.155793
0.434162 -0.059747 -0.067558
0.434162 -0.146225 0.455762
0.412715 0.175676 0.0634
0.412715 0.396463 -0.045008
0.434162 0.153193 -0.208994
0.434162 0.642799 -0.13301
0.412715 -0.27453 -0.157134
0.434162 0.542711 -0.116479
0.434162 -0.07841 0.214987
0.434162 -0.376902 0.204508
0.434162 -0.177834 0.041809
0.434162 -0.033409 0.139772
0.412715 -0.228935 -0.29478
0.434162 -0.452444 -0.377082
0.412715 0.355707 -0.274008
0.434162 -0.28861 -0.458457
0.434162 -0.328331 0.2584
0.412715 -0.399493 -0.111538
0.434162 0.044203 -0.032093
0.412715 -0.543658 0.28344
0.412715 -0.241934 -0.473178
0.412715 0.113869 -0.23387
0.434162 -0.216129 0.214799
0.412715 -0.507917 -0.359488
0.434162 -0.433194 -0.419448
0.434162 -0.042118 -0.1889
0.434162 0.643274 -0.387824
0.412715 -0.544823 -0.033668
0.434162 -0.577209 0.409507
0.412715 0.604607 -0.455079
0.434162 0.268305 0.300166
0.412715 -0.076289 0.376051
0.412715 0.514127 0.274523
0.434162 -0.249414 -0.187038
0.412715 -0.474046 0.057917
0.412715 -0.602105 -0.004863
0.412715 -0.315658 -0.455843
0.434162 0.239831 -0.496297
0.434162 0.399893 -0.091508
0.434162 -0.026956 -0.499417
0.412715 0.127177 -0.477726
0.412715 0.007283 0.162312
0.412715 -0.36008 -0.433357
0.412715 -0.145681 -0.506858
0.412715 0.607333 0.307694
0.434162 -0.456335 0.211291
0.412715 0.341589 -0.061229
0.412715 0.409847 -0.279663
0.412715 0.491916 0.124412
0.412715 -0.085106 -0.472226
0.434162 0.341702 -0.444059
0.412715 -0.22873 -0.361218
0.412715 -0.591923 -0.295061
0.434162 0.052732 0.214408
0.412715 -0.58756 0.060624
0.412715 -0.472741 0.388237
0.412715 0.307836 -0.525029
0.434162 -0.129944 0.071237
0.434162 -0.270668 0.350936
0.412715 0.414391 -0.377193
0.416984 -0.039867 -0.540979
0.412715 0.42419 0.452421
0.412715 0.033975 -0.506236
0.41733 0.67794 -0.184189
0.412715 0.448484 0.388874
0.434162 0.149838 -0.410988
0.434162 -0.535145 0.096128
0.434162 -0.584004 -0.206524
0.412715 -0.585594 -0.063967
0.412715 -0.102402 0.296236
0.434162 -0.301527 -0.074843
0.412715 -0.469665 0.183973
0.434162 -0.46433 -0.023559
0.434162 0.2183 0.0071
0.434162 0.101044 0.102403
0.434162 -0.571451 -0.385804
0.412715 0.422705 -0.494712
0.412715 0.362304 -0.30818
0.412715 -0.228121 0.192267
0.421005 -0.338435 -0.540979
0.412715 0.564824 -0.07475
0.434162 0.314128 -0.250076
0.412715 -0.331469 -0.09636
0.412715 0.085222 -0.374224
0.434162 -0.230112 0.392472
0.434162 0.409995 0.325983
0.434162 -0.399066 -0.040291
0.434162 0.208243 -0.513265
0.414369 0.67794 0.202955
0.434162 0.115089 -0.095847
0.434162 0.121775 0.327906
0.412715 -0.36599 0.1634
0.412715 0.309805 0.160713
0.412715 0.534305 -0.540451
0.434162 -0.086939 -0.508433
0.434162 -0.089389 -0.053041
0.412715 0.386278 0.212277
0.434162 0.033982 -0.44632
0.434162 0.566863 -0.203106
0.434162 0.48979 -0.322529
0.412715 0.255286 -0.136641
0.412715 0.250491 0.063862
0.412715 -0.076123 -0.538791
0.412715 -0.20629 -0.329488
0.412715 -0.529178 -0.221866
0.412715 0.540055 0.056768
0.434162 -0.210507 -0.114026
0.412715 0.651296 0.345006
0.412715 -0.453125 -0.46166
0.412715 0.29073 -0.402716
0.412715 0.387577 0.413904
0.432967 0.368505 -0.540979
0.412715 -0.154507 0.391185
0.434162 -0.212549 -0.061073
0.434162 -0.404584 -0.377408
0.412715 0.235663 0.217069
0.412715 -0.602169 -0.491651
0.434162 -0.387294 -0.283094
0.434162 -0.135061 -0.235438
0.434162 0.20962 0.374982
0.434162 -0.261685 0.061692
0.412715 0.408518 -0.196071
0.434162 -0.017759 0.216556
0.434162 0.571086 0.063929
0.412715 0.504065 -0.15333
0.434162 -0.338001 -0.446805
0.434162 -0.29104 0.435145
0.434162 -0.01026 0.308911
0.412715 -0.235055 0.268975
0.434162 0.159828 0.241865
0.434162 0.443061 0.357942
0.434162 -0.487972 -0.526501
0.412715 -0.412368 0.404492
0.412715 0.470052 0.233607
0.434162 0.453738 -0.523191
0.426625 -0.608899 0.429144
0.412715 0.549909 -0.14804
0.434162 -0.195888 0.158349
0.434162 -0.261789 0.399624
0.434162 0.013181 0.193837
0.434162 -0.2335 -0.247296
0.412715 -0.460811 -0.399225
0.412715 -0.239335 -0.047534
0.412715 0.458743 -0.184061
0.412715 0.193153 -0.069916
0.412715 -0.045777 0.385349
0.434162 -0.194643 -0.202965
0.412715 0.171451 0.185995
0.412715 0.039361 -0.334646
0.412715 -0.554749 0.421529
0.412715 0.651116 0.075153
0.412715 -0.208752 -0.009802
0.412715 0.494961 0.391788
0.434162 0.049913 -0.145634
0.412715 -0.516306 0.169071
0.412715 0.586817 -0.513515
0.434162 -0.375495 0.253101
0.434162 -0.436731 0.256914
0.412715 0.483561 -0.447885
0.412715 0.588734 -0.212046
0.412715 0.230448 -0.159622
0.434162 -0.427618 0.051405
0.412715 0.157152 -0.538461
0.434162 0.411417 0.433123
0.434162 0.272564 0.262262
0.412715 -0.382695 -0.385266
0.412715 0.036337 0.13319
0.434162 -0.202345 0.305663
0.412715 -0.02755 -0.125231
0.434162 0.304286 0.088684
0.412715 -0.130721 0.234434
0.434162 -0.181881 -0.459254
0.412715 -0.60412 0.259117
0.412715 -0.089605 -0.003313
0.434162 0.076837 -0.068119
0.412715 -0.325246 0.173275
0.434162 0.152871 0.311311
0.434162 0.456197 -0.076648
0.412715 -0.301119 0.110345
0.434162 0.351769 -0.192175
0.434162 0.243105 -0.301853
0.412715 -0.538261 0.338415
0.412715 0.514527 0.158583
0.434162 -0.047769 0.181725
0.434162 -0.427312 -0.169048
0.412715 0.042043 -0.393653
0.434162 0.453999 -0.118812
0.434162 -0.411037 -0.211249
0.412715 -0.161551 0.180896
0.412715 0.434179 -0.344766
0.412715 -0.276507 0.005733
0.434162 -0.296831 -0.385619
0.434162 -0.132887 -0.152013
0.434162 -0.534473 -0.357707
0.412715 -0.596473 -0.346518
0.434162 -0.076678 0.083491
0.412715 0.376641 -0.171244
0.412715 -0.488614 -0.434523
0.434162 0.213581 0.435588
0.434162 0.087504 -0.531009
0.434162 -0.556147 -0.078744
0.434162 0.254698 -0.36834
0.434162 0.398671 0.181068
0.412715 0.220048 -0.085171
0.434162 0.247546 0.424911
0.412715 -0.351051 0.009441
0.412715 0.031067 -0.231607
0.434162 0.391567 -0.378907
0.412715 0.334873 -0.237186
0.434162 0.110206 -0.151226
0.412715 0.442692 -0.431645
0.434162 0.09812 -0.03563
0.434162 0.330688 0.206839
0.412715 -0.303288 -0.268947
0.434162 0.623905 0.134976
0.412715 -0.075769 0.052456
0.434162 0.400712 0.296634
0.434162 -0.400761 -0.46816
0.412715 0.050648 -0.472751
0.434162 -0.054929 0.365357
0.434162 0.233166 -0.39958
0.412715 0.277418 0.158062
0.434162 -0.29457 -0.136884
0.434162 0.495136 -0.112375
0.434162 -0.054075 0.009482
0.417464 0.644967 -0.540979
0.412715 0.108339 -0.274566
0.412715 0.295493 -0.136427
0.434162 -0.350232 -0.259463
0.434162 -0.101122 0.047966
0.434162 0.20831 0.08319
0.412715 0.541985 -0.404814
0.412715 -0.063325 -0.18513
0.434162 -0.167129 0.419796
0.434162 0.26821 0.226526
0.434162 0.008493 -0.086164
0.412715 -0.305552 0.450917
0.412715 0.378508 0.141472
0.412715 -0.175645 -0.511208
0.412715 0.394287 0.041516
0.412715 -0.294235 0.344185
0.412715 0.268173 -0.178679
0.434162 0.577733 -0.001752
0.434162 -0.159736 -0.300188
0.434162 -0.012983 0.357884
0.434162 -0.291755 0.289463
0.434162 0.088777 0.074858
0.434162 0.576364 -0.137272
0.434162 -0.231463 0.051001
0.434162 -0.48309 -0.409722
0.434162 0.151765 0.130832
0.434162 0.302767 0.434479
0.434162 -0.494917 0.077524
0.434162 -0.226435 -0.508128
0.412715 -0.516902 0.421661
0.412715 0.123086 -0.431993
0.414187 0.67794 -0.042715
0.434162 0.466958 0.407026
0.412715 0.460183 0.261856
0.412715 -0.254918 -0.022024
0.434162 -0.155059 -0.19113
0.434162 -0.486449 0.249755
0.434162 0.506953 -0.231133
0.412715 0.073725 -0.339889
0.434162 0.530516 0.309132
0.434162 0.612905 -0.365269
0.412715 0.536539 -0.304819
0.412715 0.604801 0.048603
0.434162 0.596682 0.105797
0.434162 0.120382 0.432055
0.434162 -0.350379 0.319843
0.434162 0.341201 -0.505861
0.412715 -0.382302 -0.476914
0.412715 0.134221 -0.370376
0.412715 -0.096946 0.02809
0.434162 0.233317 -0.035039
0.434162 -0.231085 0.089228
0.434162 0.525214 -0.453896
0.434162 -0.305146 0.012044
0.434162 0.569675 -0.413261
0.434162 -0.534701 0.364446
0.434162 0.22217 -0.427911
0.434162 -0.151018 -0.003976
0.412715 -0.002591 0.339512
0.434162 0.519125 -0.422741
0.412715 0.316127 0.28025
0.434162 -0.349341 0.421082
0.434162 0.605875 -0.507881
0.412715 0.42836 -0.045433
0.434162 0.313244 0.136743
0.412715 0.490658 -0.188728
0.434162 -0.100786 -0.367701
0.412715 0.151086 -0.344936
0.412715 -0.214346 -0.20122
0.434162 -0.182574 -0.278028
0.412715 -0.52256 0.263144
0.412715 -0.15146 -0.399499
0.434162 0.586635 0.387579
0.412715 0.509894 -0.487637
0.412715 0.112442 -0.345928
0.412715 -0.509238 -0.077969
0.412715 0.07795 0.383345
0.412715 0.444888 0.201689
0.412715 -0.502316 0.36974
0.412715 0.170098 0.321293
0.412715 -0.503007 0.454313
0.412715 -0.352905 0.218902
0.412715 -0.190517 0.375313
0.412715 0.646178 0.245535
0.412715 -0.454106 0.266762
0.412715 -0.40379 -0.510484
0.434162 0.389896 -0.408588
0.434162 -0.017227 0.402209
0.434162 0.302276 0.350048
0.412715 -0.357965 -0.344567
0.412715 -0.36355 -0.244734
0.412715 -0.382385 0.39501
0.412715 0.596766 -0.011606
0.412715 -0.152706 -0.477889
0.434162 0.664043 0.38539
0.412715 0.122241 -0.038439
0.412715 0.03532 0.037964
0.434162 0.019189 -0.010159
0.434162 -0.003037 -0.458939
0.412715 0.101118 0.354239
0.412715 -0.137021 0.202296
0.434162 -0.301246 -0.314707
0.434162 -0.194673 -0.508791
0.412715 0.018646 -0.37182
0.434162 0.151926 0.064829
0.434162 0.278414 0.049269
0.434162 0.530584 0.100073
0.434162 0.186093 -0.044349
0.412715 0.221994 0.242612
0.412715 0.388969 -0.122813
0.412715 0.534102 -0.237326
0.412715 0.022548 0.353169
0.434162 -0.187445 -0.42063
0.434162 -0.11514 0.161069
0.412715 -0.464223 0.33945
0.412715 0.591969 -0.241668
0.434162 0.121286 -0.519519
0.434162 -0.167792 0.104774
0.434162 0.375045 0.386439
0.412715 0.535283 0.027122
0.434162 -0.364383 -0.534484
0.412715 -0.347084 -0.388132
0.434162 -0.190503 -0.391317
0.434162 0.071901 0.434987
0.412715 0.267046 -0.017323
0.412715 -0.403668 -0.010774
0.434162 -0.472563 -0.205111
0.434162 0.356533 -0.345612
0.412715 0.343678 0.316182
0.412715 0.14116 0.241981
0.434162 -0.101853 0.115791
0.412715 0.258469 0.278585
0.412715 0.355748 -0.519897
0.412715 0.28448 -0.369823
0.434162 0.422134 -0.018422
0.412715 0.162255 -0.308653
0.412715 -0.229277 0.122784
0.434162 -0.072516 -0.241366
0.434162 -0.42541 0.34941
0.434162 -0.279015 0.035329
0.412715 0.670744 0.267992
0.434162 -0.064013 -0.485927
0.434162 -0.145942 0.323245
0.434162 0.18371 0.199775
0.412715 0.335845 0.015255
0.412715 -0.207224 0.263989
0.423597 0.508216 -0.540979
0.412715 -0.350557 0.301434
0.412715 -0.432337 0.424482
0.434162 0.606442 0.075928
0.420832 -0.191332 -0.540979
0.434162 0.569235 -0.243754
0.434162 0.269742 0.359846
0.434162 -0.133917 -0.492563
0.434162 -0.572788 0.146537
0.412715 0.161882 0.421916
0.434162 0.553028 0.404895
0.434162 0.581114 -0.311271
0.434162 -0.478336 0.427778
0.412715 0.242946 0.006182
0.412715 -0.369033 -0.017688
0.412715 -0.325554 0.208022
0.42159 -0.599622 -0.540979
0.412715 -0.3123 -0.060454
0.434162 0.233761 0.05733
0.434162 0.287808 0.205448
0.434162 0.605726 -0.326788
0.412715 -0.550461 0.182558
0.434162 0.648287 0.174707
0.434162 0.273786 -0.397102
0.434162 -0.089377 -0.102735
0.434162 -0.003364 -0.383044
0.412715 -0.567256 -0.252901
0.434162 -0.60221 -0.022583
0.434162 0.67686 -0.459821
0.412715 0.665363 -0.5227
0.412715 -0.344655 -0.122397
0.412715 -0.383119 -0.449138
0.422021 -0.13463 -0.540979
0.412715 -0.468739 -0.306108
0.434162 0.554478 0.227016
0.434162 -0.572313 -0.499871
0.434162 0.493354 0.194366
0.434162 -0.485363 -0.124703
0.434162 0.171972 -0.188585
0.434162 -0.547942 -0.281199
0.412715 0.126339 -0.186746
0.434162 0.650164 -0.314695
0.412715 0.49179 0.034705
0.434162 -0.333839 -0.326389
0.434162 0.151911 -0.254207
0.412715 -0.028625 0.109133
0.412715 0.334698 -0.464751
0.434162 0.319779 -0.058425
0.412715 -0.579687 -0.098195
0.412715 0.464257 -0.132769
0.412715 -0.052248 -0.341878
0.412715 -0.049977 0.248575
0.412715 0.383376 -0.287217
0.434162 0.417066 0.040312
0.434162 0.473449 0.116517
0.434162 0.39791 0.129776
0.412715 0.539976 -0.27097
0.434162 0.408956 -0.213254
0.434162 -0.511102 -0.19243
0.434162 0.551218 -0.537578
0.412715 -0.237706 -0.534845
0.434162 0.506925 0.005152
0.434162 -0.44857 -0.132965
0.434162 -0.264435 0.231298
0.434162 -0.530405 0.054191
0.412715 -0.055949 0.428072
0.434162 0.177547 0.380056
0.434162 0.349 0.377856
0.434162 -0.139346 -0.460588
0.434162 0.120672 0.21636
0.412715 -0.219214 -0.084882
0.434162 -0.317895 0.306657
0.412715 -0.046637 -0.038349
0.434162 -0.138608 -0.262549
0.412715 -0.059769 0.345889
0.412715 0.056053 -0.066791
0.412715 0.318776 0.04396
0.412715 0.25313 0.325308
0.434162 -0.282395 -0.255745
0.434162 -0.562797 -0.153378
0.412715 0.45071 0.079016
0.434162 -0.510308 -0.497917
0.434162 0.638099 -0.221479
0.434162 -0.289707 -0.419674
0.412715 -0.50702 0.034679
0.412715 0.485022 -0.302758
0.412715 0.322479 -0.080991
0.434162 0.1488 -0.133515
0.434162 0.05389 -0.343058
0.412715 0.022362 0.10731
0.412715 -0.072646 -0.030299
0.434162 -0.396958 0.292684
0.434162 0.179905 -0.266423
0.412715 0.442896 0.235708
0.412715 -0.478524 0.014228
0.434162 -0.271886 -0.044472
0.434162 -0.082491 0.27433
0.412715 -0.437668 0.361416
0.434162 -0.323734 -0.394063
0.434162 -0.016136 0.02504
0.412715 -0.082193 -0.377795
0.412715 0.173798 -0.217115
0.427989 0.67794 -0.298625
0.412715 0.254384 -0.104386
0.434162 0.478356 -0.361538
0.434162 0.336594 -0.265163
0.412715 0.204688 0.3265
0.412715 0.294239 0.254384
0.412715 -0.280333 -0.385816
0.412715 -0.419271 -0.331847
0.412715 0.538208 0.139116
0.417293 0.67794 -0.408121
0.412715 -0.275329 0.052569
0.412715 -0.575528 0.374174
0.412715 -0.21983 0.147991
0.412715 0.34315 0.196386
0.412715 -0.04213 0.034163
0.412715 -0.533151 0.449459
0.434162 0.102616 -0.218968
0.412715 -0.574803 0.22163
0.412715 -0.21072 0.450171
0.412715 -0.526321 0.232305
0.412715 -0.355502 -0.081893
0.412715 -0.261181 -0.07363
0.412715 -0.554575 -0.453517
0.412715 0.414117 0.410376
0.434162 -0.264324 -0.329331
0.412715 -0.417435 -0.416687
0.412715 -0.277962 0.454075
0.434162 0.470083 0.34126
0.434162 0.525015 -0.352074
0.434162 0.362727 -0.163559
0.434162 -0.021187 -0.431895
0.412715 0.429572 -0.004324
0.412715 0.554356 0.209135
0.412715 0.243205 -0.200298
0.412715 0.441016 0.294934
0.434162 0.071076 -0.200464
0.412715 0.448062 -0.267176
0.434162 -0.346801 0.044859
0.412715 0.491364 -0.046789
0.434162 -0.339443 -0.361098
0.412715 0.608671 0.24404
0.434162 0.40924 -0.537455
0.434162 0.053312 -0.286734
0.434162 -0.052605 0.405625
0.434162 0.06795 0.306311
0.434162 0.046388 -0.234483
0.412715 -0.185687 -0.190216
0.434162 -0.57401 -0.426722
0.412715 -0.214157 -0.255258
0.412715 0.342057 0.061591
0.434162 0.471175 -0.007513
0.412715 -0.070519 0.201604
0.434162 0.329413 0.099445
0.434162 -0.577856 0.19892
0.434162 0.294902 -0.204039
0.434162 0.470416 -0.270255
0.434162 -0.401221 0.177606
0.434162 -0.184232 0.243343
0.412715 -0.141003 -0.359191
0.412715 -0.16139 -0.015396
0.434162 0.468962 0.084798
0.412715 -0.247239 -0.152144
0.434162 0.390385 0.244537
0.434162 -0.39916 0.038425
0.434162 -0.509295 0.294251
0.434162 -0.017802 0.097653
0.434162 0.157831 -0.478962
0.434162 -0.117524 0.226793
0.412715 -0.003378 0.221387
0.412715 0.602167 -0.377061
0.434162 -0.434825 0.161332
0.434162 0.029239 0.024107
0.434162 -0.355359 -0.174065
0.434162 -0.397853 0.134954
0.434162 0.10267 0.195468
0.434162 0.415043 0.369321
0.434162 0.373926 0.26541
0.434162 -0.27305 0.122003
0.434162 -0.207693 -0.035336
0.434162 0.304647 -0.354101
0.412715 -0.415639 -0.149625
0.434162 -0.283385 -0.098633
0.434162 0.26975 -0.458742
0.434162 -0.102515 0.087374
0.412715 0.488295 0.278407
0.434162 -0.374582 -0.067347
0.434162 0.61095 -0.441609
0.434162 0.260638 0.198403
0.412715 -0.384377 0.062074
0.412715 -0.464693 0.085434
0.412715 -0.270099 0.33431
0.434162 0.624606 0.192628
0.412715 0.117977 0.399843
0.434162 -0.316997 0.3986
0.412715 0.184724 0.392962
0.412715 0.34025 -0.393804
0.434162 0.172419 -0.007105
0.412715 0.352975 0.440148
0.412715 -0.32519 0.085627
0.434162 0.449398 0.444112
0.434162 -0.289269 -0.34515
0.434162 -0.535367 -0.015959
0.434162 0.288724 0.012057
0.434162 0.363762 0.071092
0.434162 0.215414 0.343322
0.412715 -0.145532 -0.245502
0.434162 0.127922 -0.201154
0.434162 0.555501 0.189305
0.412715 0.045542 -0.159406
0.412715 -0.529878 -0.527125
0.434162 -0.121574 0.306991
0.434162 0.199344 -0.185665
0.434162 -0.041628 -0.128134
0.412715 0.476669 0.149597
0.412715 0.221191 -0.042729
0.434162 -0.255165 -0.112486
0.412715 -0.240575 0.434804
0.434162 0.24368 -0.072372
0.434162 0.550821 -0.490474
0.412715 -0.088298 0.075131
0.434162 0.267174 0.168024
0.412715 0.013735 0.315104
0.412715 0.535418 0.453686
0.412715 -0.0242 0.16734
0.412715 0.203047 0.426001
0.434162 -0.520798 0.408094
0.412715 0.072884 -0.227565
0.434162 0.196697 0.285689
0.412715 0.309448 -0.233747
0.412715 -0.0189 0.245793
0.434162 0.399996 0.215322
0.434162 -0.520132 0.454619
0.434162 -0.454225 -0.269474
0.434162 -0.157772 0.257505
0.434162 0.447024 -0.284121
0.412715 0.380165 0.007081
0.434162 -0.479362 0.375958
0.412715 0.295611 0.362284
0.434162 0.322538 -0.288465
0.434162 0.562133 -0.036143
0.434162 -0.189827 0.017945
0.412715 0.574459 0.101822
0.126048 -0.298668 -0.492722
-0.156549 0.202336 -0.508808
0.148263 0.339931 -0.492722
-0.155006 -0.12315 -0.508808
-0.145623 0.53855 -0.492722
-0.364726 0.166236 -0.508808
0.353801 -0.001631 -0.508808
-0.253121 0.377535 -0.508808
0.317281 -0.209346 -0.508808
-0.043737 0.374496 -0.492722
-0.248846 -0.290434 -0.492722
0.23937 0.500672 -0.508808
-0.042861 -0.363082 -0.508808
-0.034969 0.071458 -0.508808
-0.278888 0.013928 -0.508808
0.019612 -0.135886 -0.508808
0.0472 0.516396 -0.508808
0.318867 0.301491 -0.508808
0.254604 -0.399075 -0.508808
0.054693 0.206374 -0.508808
0.107595 -0.475849 -0.492722
