-0.255809 -0.234741 0.04226
-0.281241 0.479371 -0.097345
-0.255809 -0.502541 -0.252608
-0.281241 0.047949 -0.50964
-0.255809 0.799295 0.18982
-0.255809 -0.075177 0.213197
-0.281241 0.444797 0.048572
-0.255809 -0.286373 -0.482295
-0.255809 0.320398 0.418466
-0.281241 0.269254 -0.436171
-0.255809 0.611979 0.287153
-0.255809 0.481337 0.122152
-0.255809 0.239477 0.22727
-0.255809 0.828998 -0.145126
-0.255809 -0.280238 0.201684
-0.255809 -0.376514 -0.338366
-0.255809 0.003018 -0.069331
-0.255809 0.113492 -0.437452
-0.281241 0.543928 0.188582
-0.281241 -0.578446 0.447043
-0.255809 0.491442 0.001432
-0.281241 0.645319 0.008213
-0.281241 0.15524 -0.235018
-0.255809 -0.45962 0.340526
-0.281241 -0.08451 -0.044986
-0.255809 0.341185 0.22981
-0.255809 0.543572 -0.261805
-0.255809 -0.600121 0.015954
-0.255809 0.251382 -0.331495
-0.255809 -0.328444 0.091944
-0.281241 -0.182663 0.250895
-0.255809 0.558251 -0.20486
-0.281241 -0.576044 0.383706
-0.281241 0.417835 0.311668
-0.281241 0.687453 0.146041
-0.255809 -0.221553 -0.278748
-0.281241 0.738816 0.44586
-0.255809 -0.35677 -0.108509
-0.255809 -0.28217 -0.040139
-0.281241 -0.124305 0.407614
-0.281241 -0.373643 -0.04142
-0.255809 0.720854 -0.169783
-0.281241 -0.40578 -0.403188
-0.255809 0.705819 -0.331283
-0.255809 -0.437187 -0.175902
-0.255809 0.314201 -0.4389
-0.255809 -0.450322 0.267355
-0.255809 0.779647 0.315415
-0.281241 -0.247949 -0.098569
-0.281241 -0.643645 -0.187577
-0.255809 0.280147 -0.003705
-0.255809 0.372884 -0.458482
-0.255809 -0.258968 0.1356
-0.255809 0.739365 0.2366
-0.281241 0.201171 0.241603
-0.255809 -0.360352 -0.42426
-0.255809 -0.508464 -0.494205
-0.281241 -0.677899 0.009015
-0.281241 0.562132 -0.002661
-0.281241 0.073936 -0.441112
-0.255809 -0.619533 -0.09329
-0.281241 -0.295633 -0.495895
-0.281241 -0.031884 -0.542241
-0.255809 -0.648392 -0.296215
-0.255809 0.043146 -0.304296
-0.281241 -0.536103 0.230163
-0.281241 -0.242537 0.00041
-0.255809 0.560686 -0.471875
-0.255809 0.047859 0.334879
-0.255809 -0.411159 -0.542883
-0.281241 0.111523 -0.457867
-0.281241 -0.331022 0.420439
-0.255809 0.39888 0.468902
-0.255809 -0.555257 -0.552673
-0.255809 0.746613 -0.485375
-0.281241 0.312721 0.122603
-0.281241 0.124954 -0.409085
-0.255809 -0.518961 -0.015646
-0.255809 -0.29537 -0.004571
-0.281241 0.002781 0.031128
-0.281241 -0.120154 -0.234838
-0.281241 -0.29229 0.076078
-0.281241 -0.216781 -0.043889
-0.281241 0.146414 -0.263297
-0.255809 -0.208526 0.157505
-0.281241 -0.439991 0.191409
-0.255809 0.632439 0.380362
-0.255809 0.361955 0.295992
-0.255809 0.682833 -0.536715
-0.255809 0.560491 0.144927
-0.255809 -0.520474 0.225115
-0.255809 -0.389374 0.437165
-0.281241 -0.065767 0.272812
-0.281241 0.444937 -0.423376
-0.281241 0.675013 -0.212284
-0.281241 0.751733 0.333518
-0.255809 -0.050831 0.067931
-0.281241 -0.055229 0.093576
-0.255809 -0.53209 -0.31203
-0.281241 -0.145277 -0.416983
-0.255809 -0.494043 -0.083379
-0.255809 -0.664046 -0.171652
-0.255809 -0.405573 0.195572
-0.281241 0.689838 -0.254643
-0.281241 0.79481 -0.157756
-0.255809 -0.276545 0.259498
-0.255809 0.129491 -0.297467
-0.281241 0.341144 -0.471297
-0.281241 -0.073751 -0.290467
-0.255809 -0.389579 -0.23577
-0.281241 0.175238 -0.527791
-0.281241 0.138166 -0.024513
-0.255809 -0.156805 0.289831
-0.281241 0.720797 0.2959
-0.255809 -0.088285 0.062775
-0.255809 0.017403 0.190849
-0.255809 -0.228152 -0.251949
-0.255809 0.669846 -0.041782
-0.255809 0.203506 -0.239777
-0.255809 0.493424 0.367759
-0.255809 0.585203 0.23434
-0.255809 0.683225 0.345524
-0.255809 -0.270816 -0.454504
-0.281241 0.155344 -0.303873
-0.281241 0.55391 -0.181899
-0.255809 0.748986 -0.433217
-0.255809 0.71736 0.373109
-0.255809 -0.427643 -0.061459
-0.281241 -0.567372 -0.176866
-0.255809 0.140645 0.344122
-0.255809 0.66268 0.216926
-0.281241 -0.111201 0.285624
-0.262986 0.834349 -0.479731
-0.255809 -0.391679 -0.086562
-0.255809 0.679059 -0.157121
-0.281241 0.062376 0.281178
-0.255809 -0.499315 -0.202123
-0.281241 -0.460744 -0.279587
-0.281241 -0.147151 -0.001047
-0.281241 -0.039551 -0.232767
-0.281241 0.341789 0.277079
-0.255809 -0.689738 -0.398815
-0.255809 -0.265545 0.088285
-0.255809 -0.617042 0.417906
-0.255809 0.190314 -0.292211
-0.255809 -0.104278 -0.21644
-0.281241 0.350393 -0.276514
-0.281241 0.444604 -0.339624
-0.281241 -0.07452 0.118938
-0.255809 0.327325 0.163289
-0.255809 -0.561543 0.433512
-0.281241 -0.304788 -0.034043
-0.255809 -0.125409 -0.107012
-0.281241 -0.412195 -0.484424
-0.281241 -0.374668 0.290748
-0.281241 0.132055 -0.185908
-0.281241 0.592834 -0.151682
-0.281241 -0.375668 -0.17693
-0.255809 0.786184 0.263256
-0.255809 0.711117 0.293823
-0.281241 0.225845 -0.029963
-0.281241 0.616333 -0.502864
-0.255809 -0.283913 -0.230452
-0.281241 0.109524 0.314755
-0.281241 -0.393212 0.151702
-0.255809 -0.187832 -0.149
-0.281241 -0.530856 0.369921
-0.255809 0.049872 -0.366248
-0.255809 0.363756 -0.054615
-0.281241 0.553531 0.108327
-0.281241 -0.360418 -0.338633
-0.255809 0.729777 -0.075201
-0.255809 0.270428 0.207049
-0.281241 0.493255 0.243544
-0.281241 0.505699 -0.536941
-0.255809 0.612428 -0.159723
-0.255809 -0.572257 0.051361
-0.281241 -0.020235 0.209362
-0.281241 0.151892 -0.54642
-0.281241 0.401462 -0.096248
-0.255809 -0.471158 0.033209
-0.255809 0.714445 0.124494
-0.255809 0.539665 -0.429422
-0.255809 -0.354744 0.363484
-0.255809 0.665271 -0.088296
-0.255809 -0.462532 -0.44187
-0.255809 -0.120444 -0.452867
-0.255809 -0.519037 0.195562
-0.281241 0.552587 0.308366
-0.281241 0.591492 0.148272
-0.255809 -0.659453 0.211158
-0.255809 0.80986 -0.275248
-0.255809 0.764135 0.375616
-0.281241 0.244841 -0.498601
-0.281241 0.702563 -0.418809
-0.255809 0.663933 -0.371412
-0.255809 0.720503 0.267707
-0.255809 0.384354 0.392055
-0.255809 0.63843 0.272162
-0.281241 0.598946 0.467123
-0.255809 -0.095112 -0.483405
-0.255809 0.540526 -0.516477
-0.281241 0.236104 -0.254976
-0.281241 -0.235418 -0.472712
-0.281241 0.02234 -0.206137
-0.281241 0.648417 0.295956
-0.281241 0.693871 0.091561
-0.281241 -0.592583 -0.291969
-0.281241 0.393665 0.323438
-0.255809 -0.175698 0.355934
-0.257759 -0.629393 -0.560492
-0.255809 0.550047 -0.144702
-0.281241 0.458538 0.349429
-0.255809 0.417119 0.226755
-0.255809 -0.689338 0.413287
-0.255809 0.402039 -0.373842
-0.281241 -0.037707 -0.185629
-0.281241 -0.233216 0.39066
-0.281241 0.524444 0.353884
-0.281241 0.290608 0.03093
-0.281241 0.326283 -0.356801
-0.281241 0.630856 -0.017939
-0.281241 0.71645 -0.528778
-0.281241 -0.103243 -0.465172
-0.281241 -0.240959 -0.207757
-0.281241 -0.365692 -0.219707
-0.255809 -0.584791 0.361473
-0.255809 0.224755 -0.060902
-0.281241 -0.676183 0.240767
-0.281241 -0.250517 -0.368258
-0.281241 -0.457058 0.046375
-0.255809 0.35666 -0.218138
-0.281241 0.527208 0.404592
-0.255809 -0.31639 -0.477123
-0.255809 0.113896 0.291683
-0.255809 0.069933 0.087099
-0.255809 0.802188 0.412888
-0.281241 0.737889 0.274574
-0.255809 -0.219959 -0.406988
-0.281241 0.126969 0.228272
-0.281241 -0.374074 0.119621
-0.255809 0.393519 0.11447
-0.281241 -0.200207 -0.433635
-0.255809 0.270817 -0.242896
-0.281241 0.803918 -0.337017
-0.281241 -0.382451 -0.268018
-0.255809 0.763465 0.201133
-0.255809 0.698078 -0.271112
-0.281241 -0.190244 -0.471924
-0.281241 -0.303073 -0.131395
-0.281241 -0.432349 -0.383601
-0.255809 -0.59424 -0.024351
-0.255809 -0.451886 0.124456
-0.281241 0.086356 0.261121
-0.255809 -0.690268 -0.446071
-0.281241 -0.305934 -0.521709
-0.255809 0.364666 0.190787
-0.255809 0.382778 0.081677
-0.281241 -0.657501 -0.47177
-0.255809 -0.107009 -0.507045
-0.255809 0.437406 -0.270332
-0.255809 -0.072392 -0.329097
-0.281241 0.137421 -0.330897
-0.281241 0.205054 -0.486493
-0.281241 -0.49583 0.453155
-0.281241 -0.59711 -0.152517
-0.281241 -0.661886 -0.296019
-0.281241 0.269757 -0.401046
-0.255809 0.350168 0.049371
-0.255809 -0.615445 -0.401178
-0.255809 0.090762 -0.167002
-0.281241 0.752534 -0.188716
-0.281241 0.232405 0.038301
-0.255809 0.621588 -0.295095
-0.281241 -0.059841 0.329691
-0.281241 -0.564626 0.171233
-0.281241 -0.421799 -0.037254
-0.255809 -0.155365 -0.029617
-0.255809 -0.295423 0.373642
-0.281241 0.728837 0.249828
-0.281241 0.101465 -0.493097
-0.255809 -0.108419 0.317676
-0.255809 0.322043 -0.298756
-0.255809 -0.039486 0.343323
-0.255809 0.651985 -0.263843
-0.281241 -0.681884 0.087622
-0.281241 -0.064288 0.001509
-0.257955 -0.252913 -0.560492
-0.281241 0.781038 -0.209205
-0.255809 0.625747 -0.334075
-0.255809 0.756507 -0.380064
-0.281241 0.520792 -0.00879
-0.255809 0.761795 -0.163151
-0.281241 0.252736 -0.098072
-0.281241 -0.001094 -0.531441
-0.255809 0.018906 -0.452701
-0.281241 -0.688955 -0.222209
-0.281241 -0.39434 0.414058
-0.281241 0.200486 -0.330784
-0.255809 -0.290094 -0.311297
-0.281241 -0.044644 0.380281
-0.255809 0.618961 -0.241474
-0.255809 0.662376 0.107742
-0.255809 0.806294 -0.019887
-0.281241 -0.644819 -0.086012
-0.255809 0.625834 -0.468712
-0.281241 0.627639 -0.45852
-0.255809 -0.190136 0.377715
-0.281241 -0.300298 -0.234462
-0.281241 0.565332 -0.112286
-0.281241 -0.677589 0.287934
-0.255809 0.562365 -0.537529
-0.255809 0.149194 0.463234
-0.255809 -0.468865 0.002686
-0.255809 -0.570112 -0.315368
-0.255809 -0.206164 -0.518407
-0.255809 -0.539711 0.16565
-0.255809 -0.548624 -0.513691
-0.281241 0.239361 0.379605
-0.255809 0.126605 0.158804
-0.281241 -0.386513 -0.070036
-0.255809 -0.590851 0.302443
-0.281241 -0.183593 -0.197894
-0.281241 -0.113841 0.053243
-0.260896 0.707367 -0.560492
-0.255809 -0.244371 0.249018
-0.270438 0.753831 -0.560492
-0.255809 -0.168672 -0.271159
-0.281241 0.697975 -0.362276
-0.281241 0.498504 0.369093
-0.255809 -0.259523 0.169241
-0.255809 0.264199 0.447452
-0.255809 -0.192051 0.180311
-0.255809 0.399773 0.291357
-0.255809 0.639673 0.126738
-0.255809 0.775859 0.139808
-0.281241 -0.012678 0.063421
-0.281241 0.653018 -0.400986
-0.281241 0.69656 0.384942
-0.281241 -0.171123 0.35764
-0.281241 0.820042 0.118131
-0.281241 -0.051024 0.153523
-0.255809 -0.47418 -0.416186
-0.255809 0.041546 0.206648
-0.255809 -0.082159 0.159424
-0.281241 -0.536796 -0.176383
-0.281241 0.158285 -0.477413
-0.255809 0.685499 0.297311
-0.281241 -0.651885 -0.042229
-0.272673 -0.274164 -0.560492
-0.255809 0.025142 -0.164254
-0.281241 0.046782 0.169836
-0.281241 0.654525 0.189539
-0.281241 0.400867 0.253221
-0.255809 0.345515 -0.499069
-0.255809 0.322121 -0.388852
-0.255809 0.625745 0.431403
-0.255809 -0.219122 -0.040292
-0.255809 -0.528205 -0.550187
-0.281241 0.426818 0.19337
-0.281241 -0.191292 0.101348
-0.281241 -0.28764 0.020362
-0.255809 -0.246832 -0.421574
-0.281241 -0.323437 -0.393175
-0.281241 0.006317 -0.124546
-0.281241 -0.339491 -0.354577
-0.255809 0.608721 0.370373
-0.262523 0.834349 -0.057455
-0.255809 0.310916 0.243745
-0.255809 0.53427 -0.359863
-0.255809 -0.059183 0.240765
-0.281241 -0.60072 0.258073
-0.255809 -0.470336 0.193347
-0.281241 -0.116286 0.204798
-0.255809 0.543348 -0.010601
-0.255809 -0.416957 -0.372773
-0.255809 0.371233 -0.419697
-0.255809 0.78136 -0.410815
-0.255809 0.055617 0.136893
-0.281241 0.383144 0.14948
-0.255809 -0.085363 0.444888
-0.281241 0.598062 0.439502
-0.281241 -0.481444 -0.007142
-0.255809 -0.128442 0.0584
-0.255809 0.450118 -0.185715
-0.281241 0.326782 0.051382
-0.281241 -0.513963 0.294636
-0.281241 -0.37151 0.00825
-0.255809 0.24643 0.009724
-0.281241 -0.323035 -0.05621
-0.255809 0.587561 -0.014978
-0.255809 0.046828 -0.419799
-0.281241 0.563445 -0.260233
-0.281241 0.571485 0.382937
-0.281241 0.629115 0.462633
-0.281241 0.568396 0.08699
-0.281241 -0.620135 0.208971
-0.281241 0.252819 0.317162
-0.278863 -0.229042 -0.560492
-0.255809 -0.355491 -0.240928
-0.255809 -0.657368 -0.054637
-0.255809 0.190529 0.063672
-0.281241 0.646941 -0.233576
-0.281241 0.264995 -0.062824
-0.281241 0.209869 -0.53456
-0.281241 0.693525 0.334741
-0.255809 0.762405 -0.280893
-0.281241 -0.065186 -0.499835
-0.281241 0.509492 0.051949
-0.255809 0.486181 -0.507931
-0.255809 0.711618 -0.239369
-0.255809 -0.308052 -0.363313
-0.281241 -0.128306 0.078952
-0.255809 -0.013296 -0.095673
-0.281241 -0.091379 -0.13045
-0.255809 0.486287 -0.134271
-0.281241 0.386793 -0.232571
-0.281241 0.041757 -0.377332
-0.281241 0.726749 -0.2168
-0.281241 0.445256 -0.158872
-0.281241 0.675979 0.446139
-0.255809 0.627862 0.236815
-0.281241 0.259319 0.137644
-0.255809 -0.003938 -0.005032
-0.105175 0.504165 -0.465122
0.083987 -0.381461 -0.522344
0.042734 0.06726 -0.522344
0.076207 0.336461 -0.522344
0.110066 0.601084 -0.490554
-0.076254 0.732621 -0.474224
0.115034 -0.131093 -0.522344
-0.11216 -0.297886 -0.522344
-0.154587 0.043448 -0.465122
-0.07984 -0.472838 -0.522344
0.264869 -0.041263 -0.522344
-0.110738 -0.130413 -0.522344
0.119644 -0.534412 -0.522344
0.154316 0.195067 -0.522344
-0.124077 0.171408 -0.522344
0.057719 -0.249016 -0.465122
0.027128 0.470599 -0.522344
-0.000316 -0.051673 -0.465122
0.149552 0.014078 -0.465122
0.179026 -0.244278 -0.522344
-0.116836 0.619828 -0.522344
-0.217813 0.294609 -0.522344
0.185662 0.504657 -0.490554
-0.035451 -0.37207 -0.465122
-0.007454 0.577858 -0.490554
0.270336 -0.510281 -0.522344
0.155654 -0.650845 -0.50327
0.026774 -0.467646 -0.465122
0.098046 0.732621 -0.472419
-0.041312 -0.213408 -0.490554
-0.184188 -0.052679 -0.50327
-0.063661 0.056725 -0.522344
0.192393 -0.348237 -0.50327
0.204303 0.10489 -0.50327
-0.186694 -0.372397 -0.522344
0.178754 0.356215 -0.522344
-0.20388 0.544957 -0.522344
-0.018657 0.399073 -0.465122
0.182762 -0.452866 -0.522344
0.101515 0.412826 -0.465122
-0.177913 0.672043 -0.465122
0.010292 -0.550224 -0.522344
0.227547 0.62502 -0.50327
0.03758 -0.144668 -0.465122
-0.133737 0.4134 -0.522344
0.077891 0.148577 -0.465122
0.024788 0.664507 -0.465122
-0.153635 -0.216244 -0.490554
-0.214671 0.111019 -0.50327
-0.007684 -0.295854 -0.522344
0.080985 -0.018316 -0.522344
-0.01735 0.113569 -0.465122
-0.005104 0.291328 -0.522344
0.236888 -0.130243 -0.522344
-0.09075 -0.029045 -0.50327
0.231164 0.425543 -0.50327
0.241304 0.181783 -0.522344
-0.098251 -0.38842 -0.522344
-0.227656 0.455761 -0.522344
-0.023101 -0.131563 -0.522344
-0.179513 0.22318 -0.48079
0.142397 -0.290176 -0.465122
-0.213394 -0.598625 -0.522344
0.097829 0.495805 -0.490554
-0.179513 -0.307801 -0.475555
0.204563 0.266078 -0.522344
-0.179513 -0.132903 -0.482513
-0.014218 0.174945 -0.522344
-0.123999 -0.440706 -0.465122
0.128393 0.083484 -0.50327
-0.052942 0.652028 -0.465122
0.255764 0.537981 -0.50327
0.18494 -0.577589 -0.522344
0.082483 -0.29624 -0.522344
-0.064661 -0.098642 -0.465122
0.244992 -0.208345 -0.50327
-0.0062 0.025489 -0.465122
-0.205764 0.371322 -0.522344
0.154546 -0.495771 -0.465122
-0.053891 0.504509 -0.522344
0.012341 -0.418462 -0.522344
0.153728 0.442928 -0.522344
-0.146015 0.574003 -0.465122
-0.12123 0.119412 -0.465122
0.060346 0.204309 -0.522344
0.095409 -0.212173 -0.522344
-0.204863 0.633058 -0.522344
0.245816 0.724144 -0.50327
0.032347 -0.342855 -0.465122
0.163448 0.756253 -0.50327
-0.140461 -0.369294 -0.465122
-0.242594 -0.437688 -0.50327
-0.198499 0.041438 -0.522344
-0.088271 0.41697 -0.465122
0.039199 0.75685 -0.522344
-0.144599 -0.535718 -0.522344
0.039802 0.357483 -0.465122
-0.023696 0.475432 -0.465122
-0.078411 -0.267809 -0.465122
-0.020739 -0.519847 -0.465122
-0.041001 0.433662 -0.522344
0.040859 0.618105 -0.522344
0.070414 0.552364 -0.522344
0.107192 0.670187 -0.50327
-0.234388 0.730741 -0.50327
0.095849 -0.468117 -0.490554
-0.133627 -0.080319 -0.465122
0.067983 0.038581 -0.465122
0.164139 0.144811 -0.465122
0.017301 0.397613 -0.522344
0.043784 0.273967 -0.465122
-0.006091 0.710511 -0.50327
-0.233895 0.183783 -0.50327
-0.05866 0.230056 -0.522344
0.027845 -0.203398 -0.50327
-0.033397 -0.058811 -0.522344
0.241435 -0.392341 -0.50327
0.181079 0.578274 -0.50327
0.042835 -0.071817 -0.522344
-0.149424 0.733018 -0.50327
-0.107019 0.681738 -0.50327
0.159115 0.635663 -0.465122
0.05251 0.584277 -0.465122
-0.126444 0.481704 -0.522344
-0.059547 -0.449341 -0.465122
-0.205384 -0.266855 -0.522344
-0.120209 0.555396 -0.522344
0.18639 -0.170204 -0.522344
-0.043843 0.36803 -0.522344
-0.08509 0.03919 -0.465122
-0.196415 -0.182447 -0.522344
-0.147851 -0.451621 -0.522344
0.007157 -0.484807 -0.522344
-0.131771 0.054862 -0.522344
-0.176668 0.159498 -0.490554
0.041631 0.144579 -0.522344
-0.061055 0.181118 -0.465122
-0.093878 -0.207955 -0.522344
0.123589 -0.343105 -0.490554
0.056658 -0.525796 -0.490554
-0.026351 0.653847 -0.522344
0.133527 0.550592 -0.465122
0.193151 0.675514 -0.50327
0.271307 0.092042 -0.522344
-0.062837 -0.338995 -0.522344
0.014452 -0.357947 -0.522344
0.005971 -0.279966 -0.465122
-0.212355 -0.537696 -0.522344
0.182454 -0.51293 -0.522344
-0.06458 0.597444 -0.50327
0.103737 0.395775 -0.522344
0.009332 0.520575 -0.490554
-0.090777 -0.336417 -0.465122
-0.133995 -0.015796 -0.465122
-0.067987 0.112374 -0.50327
0.047925 0.098262 -0.465122
0.12884 0.540738 -0.522344
0.063891 -0.019426 -0.465122
0.260016 -0.453174 -0.522344
0.118695 0.025749 -0.522344
-0.142824 -0.012749 -0.522344
-0.083364 0.557629 -0.465122
-0.127233 0.178437 -0.465122
0.154401 0.629947 -0.522344
0.078147 -0.383572 -0.465122
-0.22662 -0.105014 -0.50327
0.244792 0.477975 -0.522344
-0.001358 0.231631 -0.522344
-0.050236 -0.015857 -0.465122
0.094424 0.20317 -0.465122
0.076657 0.639658 -0.465122
0.152316 0.381043 -0.465122
0.031888 -0.145823 -0.522344
0.117838 0.151645 -0.522344
0.197856 -0.389839 -0.465122
0.138899 0.466626 -0.465122
-0.037535 -0.389419 -0.522344
-0.177913 0.438363 -0.490554
0.141647 -0.286013 -0.522344
-0.248054 -0.377002 -0.522344
0.02597 0.014067 -0.522344
0.060666 0.700475 -0.50327
-0.175105 0.106704 -0.465122
0.030619 -0.256419 -0.522344
-0.226549 0.241004 -0.522344
-0.12079 0.622085 -0.465122
0.234355 -0.550594 -0.522344
0.169222 0.089706 -0.465122
0.017648 0.343632 -0.522344
0.271493 0.589549 -0.50327
0.073481 -0.300388 -0.465122
-0.076617 0.462564 -0.490554
0.028222 0.424149 -0.465122
-0.110127 -0.074598 -0.522344
-0.036381 -0.608946 -0.522344
0.26664 -0.335586 -0.50327
-0.03806 -0.511953 -0.522344
0.192847 -0.397223 -0.522344
-0.00997 0.167229 -0.465122
0.016141 -0.416412 -0.465122
-0.223914 0.677591 -0.50327
-0.145415 -0.267453 -0.490554
0.064052 -0.425272 -0.50327
-0.243422 0.401039 -0.50327
-0.236361 -0.21464 -0.50327
0.201967 -0.188395 -0.476864
0.032601 -0.630633 -0.522344
0.032779 0.482742 -0.465122
-0.171558 0.594102 -0.522344
0.182658 0.152402 -0.522344
0.142669 0.683977 -0.465122
-0.179513 -0.001034 -0.482821
0.051559 0.254406 -0.522344
0.20058 -0.627308 -0.50327
-0.03202 0.535103 -0.465122
0.080372 0.450357 -0.50327
-0.19213 -0.428331 -0.522344
-0.057378 0.7197 -0.522344
0.056698 -0.480303 -0.522344
-0.010634 -0.019077 -0.50327
-0.006471 -0.100814 -0.465122
-0.122609 -0.489475 -0.50327
-0.152996 -0.507797 -0.465122
-0.132738 -0.353504 -0.522344
0.134371 -0.237371 -0.50327
-0.077184 -0.160545 -0.50327
0.182115 0.040331 -0.490554
0.191384 0.220555 -0.50327
0.008767 0.102097 -0.522344
0.158215 -0.552394 -0.490554
-0.037488 -0.273958 -0.490554
0.228353 -0.267316 -0.522344
-0.005553 0.311513 -0.465122
-0.033124 -0.433578 -0.50327
-0.250489 0.51151 -0.50327
-0.144031 0.527944 -0.490554
-0.011733 -0.175768 -0.50327
-0.16911 -0.579634 -0.522344
-0.111729 0.124918 -0.522344
0.19361 0.469144 -0.522344
0.115645 -0.438634 -0.522344
-0.013763 0.753471 -0.522344
-0.080528 -0.429283 -0.50327
-0.231949 0.336607 -0.50327
0.201967 0.397805 -0.475279
-0.161346 -0.639368 -0.50327
0.081683 0.094235 -0.522344
0.066327 -0.10827 -0.50327
0.062102 -0.339443 -0.522344
0.073553 -0.172919 -0.50327
-0.128528 -0.127335 -0.465122
-0.128636 0.463109 -0.465122
-0.095477 0.755421 -0.522344
-0.072236 0.009977 -0.522344
-0.188025 0.20266 -0.522344
-0.147841 -0.104874 -0.50327
-0.170303 -0.298284 -0.522344
-0.11486 -0.227353 -0.465122
-0.021857 0.071869 -0.50327
0.162688 -0.337418 -0.465122
-0.239708 -0.051859 -0.50327
0.204804 0.745563 -0.522344
-0.00041 -0.238415 -0.490554
0.172817 -0.254776 -0.465122
0.090975 0.733022 -0.522344
-0.107258 0.078438 -0.490554
0.15504 0.730981 -0.465122
0.026914 0.710834 -0.465122
0.087197 0.552612 -0.465122
0.090403 -0.639039 -0.522344
-0.22755 -0.4767 -0.522344
-0.016169 0.541766 -0.522344
-0.254219 0.623765 -0.522344
-0.08179 0.155841 -0.50327
-0.094125 -0.248864 -0.50327
0.050968 0.190988 -0.465122
0.260677 -0.090689 -0.522344
0.114043 0.041856 -0.465122
0.18143 -0.295025 -0.50327
0.205101 0.06243 -0.522344
0.166988 0.401587 -0.50327
-0.069322 -0.506177 -0.490554
-0.012762 0.362132 -0.490554
0.235903 0.294127 -0.50327
0.001849 0.635724 -0.490554
-0.059489 0.679671 -0.50327
-0.134537 0.210078 -0.50327
-0.016498 0.690438 -0.465122
-0.245285 -0.175698 -0.522344
-0.165388 0.505739 -0.522344
-0.00113 0.435508 -0.50327
-0.044561 0.434893 -0.465122
0.097825 0.631451 -0.522344
0.136843 -0.197351 -0.522344
-0.181653 0.408242 -0.522344
-0.033771 -0.331283 -0.490554
-0.1077 -0.400141 -0.465122
0.128721 0.359918 -0.522344
0.266072 -0.160869 -0.50327
0.109622 -0.009536 -0.490554
-0.127085 -0.179598 -0.522344
0.053248 0.505574 -0.522344
-0.142803 0.697853 -0.465122
0.164127 -0.378851 -0.490554
0.230997 -0.319448 -0.522344
0.164259 0.712228 -0.50327
-0.093684 0.526711 -0.50327
-0.167217 -0.174988 -0.490554
-0.037161 0.057888 -0.465122
-0.226128 -0.339568 -0.522344
-0.025883 0.601696 -0.522344
0.004956 -0.092675 -0.522344
-0.054928 0.375607 -0.465122
-0.201 -0.017782 -0.522344
-0.030091 0.244552 -0.465122
0.071045 0.682447 -0.465122
-0.160145 -0.400514 -0.50327
0.232717 0.233514 -0.522344
0.002362 -0.190917 -0.465122
0.231239 0.57492 -0.50327
-0.092024 -0.006592 -0.465122
-0.179513 0.634666 -0.485856
0.024516 -0.316466 -0.50327
0.072615 0.367567 -0.490554
0.087124 0.174354 -0.50327
-0.111956 0.022254 -0.50327
-0.184246 0.246186 -0.522344
-0.039153 0.316946 -0.522344
-0.041902 -0.060781 -0.465122
0.089471 0.107414 -0.465122
-0.156427 0.104405 -0.50327
-0.099434 -0.641368 -0.50327
-0.240741 0.037101 -0.522344
0.093101 -0.424632 -0.465122
0.081704 -0.498651 -0.465122
0.120141 -0.481265 -0.522344
-0.089269 0.680233 -0.465122
0.246726 0.361659 -0.522344
0.264997 -0.611598 -0.50327
-0.174718 0.366588 -0.490554
0.09427 -0.249953 -0.50327
-0.218026 0.149865 -0.522344
-0.147633 0.397265 -0.465122
-0.008554 0.135192 -0.50327
0.040091 -0.027403 -0.522344
-0.066496 -0.407616 -0.465122
0.225529 -0.586681 -0.50327
-0.192882 -0.223987 -0.522344
0.090609 0.068833 -0.490554
0.068627 -0.214584 -0.490554
-0.038759 -0.240124 -0.522344
-0.093786 0.218511 -0.50327
0.024909 0.194569 -0.50327
0.042881 0.659428 -0.522344
-0.026219 0.473845 -0.522344
0.143617 0.42565 -0.465122
0.115368 -0.090189 -0.50327
-0.134914 0.651259 -0.490554
-0.068206 0.096847 -0.465122
-0.045252 0.016002 -0.490554
-0.116012 -0.30414 -0.465122
0.03287 0.310849 -0.50327
0.203393 0.32705 -0.50327
0.069507 0.526099 -0.490554
-0.163236 -0.334515 -0.50327
0.010422 -0.128636 -0.490554
0.152716 0.1329 -0.50327
-0.168601 -0.059898 -0.465122
0.029257 -0.081781 -0.465122
-0.063393 0.610855 -0.465122
-0.041206 0.26655 -0.522344
0.093148 0.454349 -0.465122
0.149265 0.513361 -0.465122
-0.042217 -0.472959 -0.50327
0.220765 0.531702 -0.522344
0.071511 0.026057 -0.50327
0.191919 0.182395 -0.490554
0.259585 0.130501 -0.522344
-0.065528 -0.111237 -0.50327
0.227846 -0.483185 -0.50327
0.201967 -0.230377 -0.480421
-0.203294 0.492547 -0.50327
-0.208417 -0.642668 -0.522344
0.065272 -0.064497 -0.490554
-0.012742 0.208727 -0.490554
0.127338 0.093928 -0.465122
-0.147874 0.365793 -0.522344
0.238279 0.675563 -0.50327
0.030573 -0.388533 -0.50327
-0.161599 -0.250604 -0.522344
0.265657 -0.295863 -0.50327
0.049497 -0.553918 -0.522344
-0.05321 0.180426 -0.522344
0.20275 0.406207 -0.522344
0.015643 0.263822 -0.490554
0.071804 0.40936 -0.490554
0.071945 -0.1021 -0.465122
0.074505 0.12754 -0.50327
-0.202263 0.716797 -0.522344
-0.147623 0.140094 -0.522344
0.126951 0.57965 -0.522344
0.186665 -0.490933 -0.490554
0.180093 0.353374 -0.465122
-0.165851 0.732621 -0.468081
0.183224 0.566046 -0.465122
0.254992 -0.24675 -0.50327
-0.175713 0.702336 -0.490554
0.153446 -0.466706 -0.490554
-0.179513 0.064713 -0.485598
0.149591 -0.506204 -0.50327
-0.144123 -0.14684 -0.50327
-0.003527 -0.588789 -0.522344
0.105231 -0.327296 -0.522344
-0.120172 -0.413668 -0.50327
0.0162 -0.504619 -0.465122
-0.217663 0.602023 -0.50327
-0.050366 -0.302751 -0.522344
0.025666 0.116261 -0.490554
0.129137 0.730529 -0.522344
-0.123777 0.732621 -0.474945
-0.017778 0.732621 -0.474514
-0.048909 0.565157 -0.490554
-0.218172 -0.149022 -0.522344
-0.201231 -0.08414 -0.522344
0.196033 -0.548763 -0.490554
-0.124042 -0.533789 -0.490554
-0.146636 0.485865 -0.490554
-0.021701 -0.4171 -0.465122
0.027437 0.555979 -0.465122
0.041383 0.441293 -0.50327
-0.155279 -0.07326 -0.522344
0.04251 -0.001769 -0.490554
-0.021809 -0.135335 -0.465122
-0.249804 -0.014805 -0.522344
0.277001 -0.561692 -0.522344
0.186976 0.434342 -0.50327
-0.031137 -0.090908 -0.50327
0.277037 0.020287 -0.522344
-0.057438 -0.185761 -0.522344
-0.202357 -0.318124 -0.50327
0.178505 -0.299026 -0.465122
-0.225986 -0.406755 -0.522344
0.00952 0.569288 -0.522344
0.122013 0.504423 -0.522344
-0.165295 -0.099229 -0.465122
0.031231 0.726339 -0.50327
-0.008793 -0.340281 -0.465122
0.269521 0.694881 -0.50327
-0.041915 -0.020814 -0.522344
-0.030521 0.500945 -0.490554
-0.027748 0.297201 -0.490554
0.154436 0.066113 -0.522344
-0.175529 0.190282 -0.465122
-0.081829 -0.380486 -0.490554
-0.0892 0.137201 -0.465122
0.05171 -0.360694 -0.490554
-0.056953 -0.31892 -0.465122
-0.15034 0.64202 -0.522344
-0.051433 0.700729 -0.465122
-0.140745 0.44021 -0.490554
0.255878 -0.364498 -0.522344
0.124703 -0.383341 -0.490554
-0.005004 -0.456554 -0.50327
0.276547 0.749384 -0.522344
-0.114856 -0.191735 -0.490554
-0.035509 -0.248349 -0.465122
-0.1484 0.015605 -0.490554
0.157659 0.602623 -0.490554
0.147731 -0.316281 -0.490554
-0.116919 0.019535 -0.465122
0.033143 -0.283903 -0.490554
0.013493 0.087739 -0.465122
-0.145493 -0.044353 -0.50327
-0.066819 -0.055562 -0.490554
0.089038 -0.51666 -0.50327
0.117541 -0.274249 -0.490554
0.111513 0.380876 -0.490554
-0.245496 0.114095 -0.522344
0.039195 -0.493807 -0.490554
-0.06935 -0.291523 -0.490554
0.271403 0.437861 -0.522344
0.206251 0.190444 -0.522344
-0.109647 0.581915 -0.465122
-0.099348 0.63524 -0.490554
-0.085524 -0.508493 -0.522344
0.097296 -0.326927 -0.465122
-0.112474 -0.47444 -0.465122
-0.150351 -0.325376 -0.465122
0.173718 -0.205147 -0.490554
0.162988 -0.354283 -0.522344
0.109796 0.137918 -0.490554
-0.183493 -0.529783 -0.50327
-0.04202 -0.491478 -0.465122
-0.131468 0.593969 -0.490554
0.076011 0.576794 -0.490554
0.255895 0.323233 -0.50327
-0.161903 -0.39724 -0.465122
-0.215756 0.42261 -0.522344
0.049056 0.166708 -0.490554
-0.237636 -0.647241 -0.50327
-0.208972 0.072058 -0.50327
-0.247443 -0.127539 -0.522344
0.007148 0.333222 -0.490554
-0.00421 -0.260971 -0.522344
0.137416 0.646167 -0.490554
-0.06086 -0.540175 -0.490554
0.243899 0.399065 -0.522344
0.243183 0.106227 -0.50327
-0.140318 0.152655 -0.490554
0.195196 0.704728 -0.522344
-0.16019 0.559447 -0.50327
-0.004317 -0.389437 -0.50327
-0.11293 -0.345313 -0.490554
0.052885 0.640885 -0.490554
-0.074753 0.442131 -0.522344
-0.115183 -0.10774 -0.490554
0.070967 0.384166 -0.522344
-0.170067 0.061389 -0.522344
0.114921 0.468389 -0.50327
0.193777 0.07299 -0.490554
0.016483 -0.381801 -0.465122
0.181224 0.549401 -0.522344
-0.112501 0.39231 -0.465122
0.273538 -0.405134 -0.50327
0.102429 0.552074 -0.50327
0.172369 -0.124098 -0.522344
-0.030119 0.235555 -0.50327
-0.138451 -0.309165 -0.50327
-0.164531 -0.236594 -0.465122
-0.246463 0.586063 -0.522344
-0.031778 0.044023 -0.522344
-0.07599 -0.071506 -0.522344
-0.018729 0.653658 -0.465122
-0.164073 -0.193721 -0.522344
0.116892 0.117438 -0.522344
0.185218 0.657775 -0.465122
0.012778 0.588518 -0.465122
0.033395 -0.111666 -0.522344
-0.128 0.094881 -0.522344
0.176417 0.46423 -0.490554
-0.032915 0.454583 -0.490554
-0.195765 -0.561628 -0.50327
-0.057666 -0.355547 -0.490554
0.230994 0.50423 -0.50327
0.150941 0.015212 -0.522344
0.165416 -0.318025 -0.522344
0.063821 -0.457046 -0.490554
0.099439 -0.148401 -0.490554
-0.042723 -0.16199 -0.50327
-0.193843 -0.479636 -0.522344
-0.042395 -0.403649 -0.490554
-0.153376 0.185049 -0.490554
0.051933 0.074172 -0.490554
-0.12162 0.66909 -0.465122
0.130055 0.428233 -0.50327
0.134099 0.05132 -0.490554
0.138191 -0.074083 -0.522344
-0.05056 0.628084 -0.50327
0.110556 0.623112 -0.465122
0.058365 0.507096 -0.465122
0.065854 0.474404 -0.522344
-0.105647 0.451338 -0.50327
-0.008593 -0.333508 -0.522344
0.029308 0.588581 -0.50327
0.201674 -0.271574 -0.490554
0.038999 -0.438711 -0.522344
0.030606 -0.43255 -0.490554
0.084082 -0.08736 -0.522344
-0.101623 -0.456254 -0.50327
0.176113 0.418202 -0.465122
-0.080681 -0.287019 -0.522344
-0.181984 -0.604461 -0.50327
0.135783 0.575598 -0.490554
-0.2214 0.00846 -0.522344
0.106202 -0.16313 -0.522344
0.065974 0.607635 -0.50327
-0.130844 0.381482 -0.490554
-0.164426 -0.126348 -0.522344
0.18836 0.62907 -0.490554
-0.102229 -0.28719 -0.490554
-0.103616 0.723289 -0.522344
0.12925 0.721169 -0.490554
0.101573 -0.044168 -0.522344
-0.042108 0.193602 -0.490554
-0.050584 0.149846 -0.465122
0.19143 -0.453536 -0.490554
-0.056242 0.467346 -0.465122
0.151135 0.360151 -0.490554
0.065227 0.231397 -0.50327
0.231734 -0.63776 -0.50327
-0.125682 -0.63649 -0.522344
-0.161194 0.183973 -0.522344
0.107774 0.442645 -0.522344
0.268928 -0.224175 -0.522344
-0.11988 -0.037756 -0.522344
-0.038067 0.114868 -0.490554
0.201967 0.708606 -0.487712
0.19951 -0.542653 -0.522344
0.010849 -0.351972 -0.490554
0.009319 -0.078097 -0.490554
0.222151 0.140587 -0.522344
0.0156 0.403979 -0.490554
0.251531 0.215279 -0.50327
0.050171 -0.230574 -0.522344
0.1582 0.59097 -0.522344
0.201259 -0.528533 -0.465122
0.038258 -0.033784 -0.490554
0.248686 0.65167 -0.522344
0.170157 -0.209359 -0.522344
0.106707 0.167202 -0.465122
-0.105514 -0.367953 -0.465122
-0.105599 0.173469 -0.490554
0.093075 -0.357201 -0.50327
0.093949 -0.3953 -0.490554
0.090176 0.376277 -0.465122
-0.09302 -0.135773 -0.490554
0.245967 0.756158 -0.50327
0.216661 -0.374674 -0.522344
-0.057178 0.751704 -0.522344
-0.069033 0.414251 -0.490554
0.233193 -0.185517 -0.522344
0.210018 0.606276 -0.522344
0.107877 0.055797 -0.522344
0.044253 0.36032 -0.50327
-0.180266 0.095107 -0.522344
0.081875 0.484146 -0.465122
-0.043295 0.342544 -0.50327
0.100512 0.022834 -0.490554
-0.115263 -0.272328 -0.465122
-0.143295 0.528599 -0.522344
0.243077 0.26352 -0.522344
0.25084 -0.422171 -0.522344
-0.157503 0.231965 -0.50327
-0.183872 0.013294 -0.522344
-0.089486 0.6019 -0.522344
0.045251 -0.179325 -0.490554
0.270797 -0.535494 -0.50327
-0.017165 -0.060936 -0.490554
0.035776 0.697193 -0.522344
-0.124702 0.048129 -0.490554
-0.128367 0.42632 -0.465122
0.115787 0.197283 -0.522344
-0.207089 0.334054 -0.522344
0.144404 0.687858 -0.50327
-0.083715 0.490412 -0.50327
0.011954 0.677752 -0.490554
0.216007 0.368181 -0.522344
-0.211656 0.756837 -0.50327
0.055393 -0.140174 -0.490554
-0.10775 0.142176 -0.490554
-0.147483 0.622626 -0.490554
0.148805 -0.545455 -0.522344
-0.200942 -0.405398 -0.50327
-0.199534 -0.45278 -0.50327
-0.102541 -0.160575 -0.522344
-0.159594 0.51929 -0.465122
-0.002457 0.428878 -0.465122
-0.089882 -0.328861 -0.50327
-0.005195 -0.630103 -0.50327
0.032498 -0.106859 -0.490554
-0.129819 0.747585 -0.522344
0.039836 -0.210288 -0.465122
-0.179513 -0.032244 -0.480483
-0.049026 0.097073 -0.522344
-0.071636 -0.404175 -0.522344
0.276532 0.565738 -0.522344
0.049858 -0.178351 -0.522344
-0.192896 0.276354 -0.522344
0.200445 -0.32394 -0.522344
-0.235286 0.556977 -0.522344
-0.103148 -0.085234 -0.465122
0.211009 -0.44041 -0.522344
0.174965 0.68686 -0.465122
0.1066 -0.402399 -0.522344
-0.074306 -0.225272 -0.50327
0.054097 0.673222 -0.490554
0.150639 -0.2635 -0.50327
-0.129802 -0.210256 -0.522344
-0.248025 0.138061 -0.50327
-0.000506 -0.442203 -0.465122
-0.143425 -0.464451 -0.465122
0.153007 0.339553 -0.522344
0.052212 0.131811 -0.465122
-0.018321 -0.361361 -0.490554
0.109047 -0.224029 -0.490554
0.018899 -0.547179 -0.490554
-0.071128 -0.621036 -0.522344
-0.038538 0.08945 -0.465122
-0.011183 -0.310676 -0.490554
-0.079708 0.637281 -0.465122
0.051023 0.101934 -0.50327
0.076115 -0.46858 -0.465122
0.018082 0.474537 -0.490554
0.136943 -0.338474 -0.522344
-0.204834 0.169552 -0.50327
-0.021954 0.548317 -0.490554
-0.177341 0.146381 -0.522344
0.000559 0.051413 -0.50327
-0.037203 0.599757 -0.490554
0.085655 -0.44272 -0.522344
0.201967 -0.135035 -0.487152
-0.04986 -0.272493 -0.522344
-0.048977 0.391593 -0.490554
-0.251269 0.769761 -0.50327
-0.012685 0.010625 -0.490554
0.229946 0.345432 -0.50327
-0.169892 -0.08382 -0.490554
-0.002983 0.237562 -0.490554
0.173489 0.60098 -0.465122
0.049419 -0.282518 -0.465122
0.193306 0.533614 -0.490554
0.153315 0.44212 -0.490554
-0.057565 -0.431319 -0.522344
0.1729 -0.423975 -0.522344
0.032501 0.394568 -0.465122
0.233052 0.44845 -0.522344
-0.122117 0.651784 -0.522344
-0.058473 -0.517464 -0.465122
-0.186448 -0.153222 -0.50327
0.06344 -0.428043 -0.465122
0.000574 -0.505094 -0.490554
0.118307 0.609805 -0.522344
-0.024243 -0.567369 -0.522344
0.078836 -0.285825 -0.490554
-0.026326 -0.198933 -0.465122
-0.028641 0.680866 -0.490554
-0.230097 0.521752 -0.522344
-0.213439 -0.508028 -0.522344
0.201967 0.12942 -0.480883
0.134995 0.406092 -0.522344
0.123697 -0.262464 -0.522344
0.123844 0.661131 -0.465122
-0.163197 -0.482927 -0.490554
-0.054955 -0.14295 -0.522344
-0.149049 0.07881 -0.490554
-0.254154 0.174048 -0.522344
-0.234813 -0.536893 -0.50327
-0.237849 0.066352 -0.50327
0.152513 -0.348139 -0.490554
0.127197 0.491818 -0.490554
-0.23608 0.271655 -0.522344
-0.115249 0.506834 -0.50327
0.104186 0.522823 -0.50327
0.181112 -0.463709 -0.465122
0.201967 0.428019 -0.478998
-0.05488 0.163557 -0.490554
-0.05332 0.724896 -0.490554
-0.027953 0.727987 -0.522344
0.094641 0.007452 -0.522344
-0.101634 0.401559 -0.490554
-0.072471 0.649576 -0.490554
0.188619 0.770769 -0.505695
-0.127669 0.452427 -0.522344
0.2064 -0.496359 -0.522344
-0.213359 -0.287347 -0.50327
-0.045905 0.537751 -0.50327
-0.150356 0.711072 -0.522344
0.154496 -0.231803 -0.465122
0.020703 -0.510534 -0.522344
0.037871 0.032483 -0.50327
-0.088837 0.166239 -0.465122
-0.004431 0.62125 -0.522344
-0.208467 0.210302 -0.50327
-0.226931 -0.570124 -0.50327
-0.148736 0.652238 -0.465122
-0.227967 -0.234731 -0.522344
0.008914 0.506755 -0.465122
0.121192 0.182935 -0.490554
-0.118369 -0.520909 -0.522344
0.059167 0.322739 -0.50327
-0.127314 -0.388765 -0.490554
-0.217772 0.580368 -0.522344
-0.066709 -0.464572 -0.490554
0.264443 0.266815 -0.50327
-0.190417 0.436329 -0.522344
0.104206 0.428509 -0.490554
-0.035996 -0.088925 -0.465122
-0.158517 0.404956 -0.490554
0.049498 -0.37381 -0.465122
0.209495 0.636538 -0.522344
-0.120872 -0.004965 -0.50327
-0.111225 -0.236082 -0.522344
-0.105162 0.713273 -0.465122
0.025567 -0.295199 -0.522344
-0.049823 0.48363 -0.50327
0.204277 -0.199054 -0.50327
0.250756 -0.489481 -0.522344
0.174454 -0.32989 -0.490554
0.024569 -0.233172 -0.50327
0.103011 0.09646 -0.50327
-0.078839 0.080597 -0.490554
-0.079095 -0.127458 -0.522344
0.084549 -0.486244 -0.522344
-0.101938 0.083437 -0.522344
-0.056222 -0.366668 -0.522344
-0.07619 0.197115 -0.522344
-0.108047 -0.51026 -0.490554
-0.014812 -0.001789 -0.465122
-0.241688 0.380097 -0.522344
-0.119468 -0.248527 -0.490554
0.052917 0.732064 -0.522344
-0.247234 0.429087 -0.50327
-0.156048 0.225257 -0.465122
-0.124148 -0.072418 -0.490554
0.005378 -0.032404 -0.522344
-0.057938 -0.044062 -0.522344
-0.159755 0.071166 -0.465122
-0.137408 0.547159 -0.465122
-0.155934 0.396092 -0.522344
-0.096261 -0.406125 -0.490554
0.160923 -0.182815 -0.522344
-0.087316 -0.445133 -0.465122
0.123313 -0.2639 -0.465122
0.201967 0.513792 -0.466803
-0.148954 -0.620996 -0.522344
0.060255 0.465023 -0.490554
0.082666 0.077287 -0.465122
0.176051 -0.649805 -0.522344
-0.105027 -0.356912 -0.522344
0.156021 -0.287764 -0.490554
-0.148113 0.675818 -0.490554
-0.073583 -0.087774 -0.490554
0.245238 -0.28949 -0.522344
0.201967 0.476776 -0.474975
0.215879 -0.102593 -0.522344
0.031015 0.499172 -0.490554
-0.019255 0.574678 -0.522344
-0.243975 -0.590722 -0.522344
-0.1112 -0.270112 -0.522344
-0.040851 0.026253 -0.465122
-0.190801 -0.334628 -0.522344
0.201967 0.55925 -0.484579
0.029674 -0.118115 -0.465122
-0.023737 0.327623 -0.490554
0.041417 0.413995 -0.490554
0.250806 -0.514906 -0.50327
0.083655 0.648057 -0.490554
0.119585 0.716093 -0.465122
0.085876 -0.036235 -0.465122
0.183961 0.713029 -0.465122
-0.130825 0.118863 -0.50327
0.146046 0.026418 -0.490554
-0.240372 0.086957 -0.522344
-0.129324 -0.343248 -0.465122
-0.015256 0.09864 -0.50327
-0.086317 0.002238 -0.490554
-0.082474 -0.193032 -0.465122
-0.175666 -0.369997 -0.465122
-0.220574 -0.377468 -0.522344
-0.057954 -0.008352 -0.490554
-0.104179 0.431678 -0.522344
0.143419 0.468324 -0.522344
-0.164338 -0.038671 -0.522344
-0.036939 -0.284119 -0.465122
0.179986 0.620246 -0.522344
0.071284 0.732621 -0.46681
-0.227871 -0.184668 -0.50327
-0.156367 0.009509 -0.465122
0.191686 0.086223 -0.522344
0.022147 -0.172119 -0.465122
-0.214532 -0.202854 -0.522344
-0.004017 0.530784 -0.465122
0.067615 -0.244186 -0.50327
-0.132579 0.094635 -0.465122
-0.180245 -0.630214 -0.522344
0.098621 -0.063332 -0.50327
-0.091879 0.109831 -0.490554
0.182237 0.732614 -0.50327
-0.01314 0.352556 -0.465122
-0.023149 -0.144823 -0.490554
0.201967 0.683957 -0.466094
-0.223824 -0.614928 -0.50327
-0.169361 -0.435109 -0.50327
0.22003 0.733622 -0.50327
0.188723 -0.392658 -0.490554
0.275234 -0.383545 -0.522344
-0.142718 -0.392222 -0.522344
0.067789 -0.308697 -0.50327
-0.113189 -0.518046 -0.465122
0.021469 0.050489 -0.522344
0.224422 0.10214 -0.522344
0.200229 -0.488071 -0.465122
0.015082 0.368436 -0.465122
0.13366 -0.21285 -0.490554
0.132493 -0.340998 -0.465122
0.032798 0.53393 -0.490554
0.016962 0.165421 -0.465122
0.277196 0.217583 -0.522344
0.04411 0.070309 -0.465122
-0.004587 0.137216 -0.465122
0.11944 -0.224165 -0.522344
0.010052 -0.155462 -0.490554
-0.144718 -0.50949 -0.490554
0.001143 0.322544 -0.522344
-0.063908 -0.524284 -0.522344
-0.055315 -0.239191 -0.490554
0.165809 0.54584 -0.465122
0.008926 -0.286793 -0.50327
-0.005283 -0.424518 -0.50327
0.206297 -0.645026 -0.522344
0.041018 0.218971 -0.490554
-0.131736 0.521173 -0.465122
-4e-05 0.478326 -0.522344
-0.198408 -0.298162 -0.522344
0.260148 -0.062965 -0.50327
-0.0517 0.662997 -0.522344
-0.054955 0.560791 -0.465122
-0.179513 -0.422087 -0.468867
0.229141 -0.217591 -0.522344
-0.124119 0.581569 -0.522344
0.140697 0.113051 -0.490554
0.017445 0.013623 -0.465122
-0.054092 0.135907 -0.490554
-0.142056 -0.50915 -0.522344
-0.103266 0.187717 -0.522344
-0.095236 -0.215312 -0.490554
-0.151775 0.16862 -0.465122
0.046984 0.693374 -0.465122
0.171814 0.376495 -0.490554
-0.193434 -0.242111 -0.50327
-0.048454 -0.188094 -0.490554
-0.190549 -0.645546 -0.50327
0.178727 0.137018 -0.490554
-0.150458 0.480464 -0.465122
-0.060973 -0.324121 -0.490554
0.012892 0.604667 -0.490554
0.207821 0.164226 -0.522344
-0.058969 0.038401 -0.490554
-0.042285 -0.219826 -0.465122
-0.005539 -0.107196 -0.490554
-0.130023 -0.107535 -0.522344
0.168724 -0.6281 -0.50327
0.196467 -0.27553 -0.465122
0.066836 -0.040363 -0.522344
0.122242 -0.621965 -0.522344
0.085832 0.678407 -0.490554
-0.121173 0.152968 -0.465122
0.099348 -0.122445 -0.50327
-0.029958 -0.245928 -0.490554
0.159833 0.629675 -0.490554
0.021761 0.124755 -0.522344
-0.055441 0.508687 -0.490554
-0.064366 -0.133979 -0.490554
0.144596 0.397475 -0.490554
-0.100164 0.732621 -0.485906
0.006923 0.637786 -0.465122
-0.230146 -0.281843 -0.522344
0.144238 0.472197 -0.490554
-0.200213 0.293304 -0.50327
0.084574 0.760349 -0.522344
0.047749 -0.329209 -0.50327
5.5e-05 0.710453 -0.465122
0.017707 0.44858 -0.490554
0.16069 0.694533 -0.522344
-0.207136 0.69739 -0.50327
0.033965 0.691494 -0.490554
0.07045 0.730798 -0.50327
0.190747 -0.603307 -0.50327
0.008929 -0.184925 -0.490554
0.064659 0.051055 -0.50327
0.119669 0.632204 -0.50327
0.05295 -0.522535 -0.465122
-0.205067 -0.119351 -0.50327
-0.093109 0.034627 -0.490554
-0.142303 0.199463 -0.465122
0.062917 -0.024003 -0.490554
0.221112 0.199538 -0.50327
0.218329 0.255407 -0.50327
-0.210152 0.189334 -0.522344
-0.026754 0.423669 -0.50327
0.274392 -0.005388 -0.522344
0.265474 -0.628979 -0.522344
0.012701 0.26083 -0.465122
-0.069728 -0.47302 -0.465122
0.091739 0.126155 -0.522344
-0.097966 0.010289 -0.522344
-0.141045 0.670492 -0.522344
0.055691 0.561305 -0.50327
-0.059444 -0.362933 -0.465122
-0.167129 0.123941 -0.490554
-0.156536 -0.037275 -0.465122
-0.134087 0.415497 -0.490554
0.142121 0.038544 -0.465122
0.166811 0.442015 -0.465122
0.029877 -0.517614 -0.490554
0.023041 -0.333398 -0.522344
0.195979 -0.244233 -0.50327
0.064923 0.186897 -0.50327
0.049242 0.164892 -0.465122
-0.120893 -0.132582 -0.490554
-0.028067 0.298611 -0.465122
0.245503 0.139713 -0.50327
0.180505 -0.627991 0.412434
-0.195351 -0.627991 -0.055072
-0.107966 -0.627991 0.428508
0.040014 -0.627991 0.377892
-0.194172 -0.627991 -0.249535
0.204756 -0.627991 -0.040816
-0.209798 -0.627991 -0.355127
0.185558 -0.627991 0.304606
0.238491 -0.627991 0.049909
-0.251829 -0.627991 0.018781
0.264475 -0.627991 0.454094
-0.140548 -0.627991 0.03303
0.082442 -0.627991 0.304655
-0.109332 -0.627991 0.338371
0.226046 -0.627991 -0.410814
0.275399 -0.627991 -0.239239
0.083675 -0.627991 0.441491
-0.064958 -0.627991 -0.482316
0.010125 -0.627991 0.310242
-0.161975 -0.627991 -0.404615
-0.217197 -0.627991 0.094854
0.240451 -0.627991 0.19107
-0.215776 -0.627991 -0.126267
-0.046129 -0.627991 0.408967
-0.189904 -0.627991 0.382563
-0.230482 -0.627991 -0.416049
-0.184865 -0.627991 -0.463653
0.242745 -0.627991 -0.471561
0.249919 -0.627991 -0.166614
0.231844 -0.627991 0.376834
-0.227266 -0.627991 0.452216
0.002525 -0.627991 -0.473288
0.121535 -0.627991 0.395343
0.233698 -0.627991 -0.282393
-0.194196 -0.627991 -0.182612
-0.229447 -0.627991 0.237488
0.22649 -0.627991 -0.35108
0.175626 -0.627991 -0.436096
-0.057291 -0.627991 0.308853
-0.21348 -0.627991 0.333571
-0.029759 -0.627991 0.024563
0.252662 -0.627991 -0.020634
0.011392 -0.627991 0.420284
-0.184761 -0.627991 0.057007
-0.252995 -0.627991 0.29536
-0.218069 -0.627991 0.190599
0.247141 -0.627991 -0.115458
0.203233 -0.627991 0.080338
0.172146 -0.627991 0.367394
0.084392 -0.627991 0.367977
0.036809 -0.627991 0.457877
0.221023 -0.627991 0.441427
-0.245954 -0.627991 -0.029463
-0.231641 -0.627991 -0.464327
-0.209523 -0.627991 -0.29149
-0.170491 -0.627991 -0.001486
-0.009035 -0.627991 0.369404
0.182046 -0.627991 0.025507
0.265946 -0.627991 0.40701
0.231597 -0.627991 0.233133
0.264112 -0.627991 -0.390987
0.262486 -0.627991 0.347073
0.262222 -0.627991 -0.434426
0.236491 -0.627991 0.148756
-0.067687 -0.627991 0.374414
0.269628 -0.627991 0.088245
-0.235218 -0.627991 0.13108
0.141326 -0.627991 0.434852
0.269754 -0.627991 0.019953
-0.213518 -0.627991 0.289334
-0.064031 -0.627991 -0.441647
0.105957 -0.627991 -0.487972
-0.171261 -0.627991 -0.366691
-0.176549 -0.627991 -0.106137
0.23183 -0.627991 0.321272
-0.205886 -0.627991 0.011225
-0.218712 -0.627991 -0.084463
0.156164 -0.627991 -0.00155
0.039855 -0.627991 0.332148
-0.253527 -0.627991 -0.323048
-0.254448 -0.627991 0.092247
0.214847 -0.627991 -0.252296
0.265461 -0.627991 -0.198223
-0.055364 -0.627991 0.444634
0.002627 -0.627991 -0.421028
-0.030299 -0.627991 0.331309
0.20277 -0.627991 0.122332
0.146936 -0.627991 0.296517
-0.124888 -0.627991 -0.401425
-0.195519 -0.627991 -0.397705
0.270502 -0.627991 0.152709
-0.027536 -0.627991 -0.45724
-0.075304 -0.627991 0.338538
-0.142516 -0.627991 0.345758
-0.084463 -0.627991 0.403754
-0.158915 -0.627991 -0.063617
-0.222247 -0.627991 0.373648
0.221329 -0.627991 -0.318047
-0.184507 -0.627991 -0.139055
-0.100669 -0.627991 0.371916
0.140662 -0.627991 0.351517
0.193799 -0.627991 0.261464
-0.01652 -0.627991 0.291017
-0.210364 -0.627991 0.40751
-0.111696 -0.627991 0.059694
-0.192165 -0.627991 0.114187
0.153799 -0.627991 0.393047
0.253382 -0.627991 -0.311896
0.115949 -0.627991 0.29939
0.221211 -0.627991 -0.450203
-0.243409 -0.627991 0.330039
-0.22161 -0.627991 -0.15582
-0.222248 -0.627991 0.158237
0.223412 -0.627991 -0.013829
-0.113655 -0.627991 0.020239
-0.031638 -0.627991 0.462575
0.258921 -0.627991 -0.263793
-0.25561 -0.627991 0.159562
0.107879 -0.627991 0.35039
0.251409 -0.627991 -0.086041
0.200289 -0.627991 0.361724
-0.171012 -0.627991 0.192554
-0.171156 -0.627991 0.361
0.235562 -0.627991 -0.37788
-0.02943 -0.627991 0.431748
0.116189 -0.627991 0.457313
-0.192407 -0.627991 -0.018584
0.168963 -0.627991 0.061177
-0.201485 -0.627991 0.256138
-0.186071 -0.627991 -0.341103
-0.183085 -0.627991 -0.079434
-0.218747 -0.627991 -0.027883
-0.128324 -0.627991 0.410752
0.27594 -0.627991 0.324278
0.212532 -0.627991 0.045836
0.220169 -0.627991 0.345084
-0.228252 -0.627991 -0.328603
0.006304 -0.627991 0.348801
0.000435 -0.627991 -0.447719
-0.072127 -0.627991 0.035057
-0.056326 0.796201 -0.242441
0.081011 0.770769 -0.077473
0.116207 0.770769 -0.335347
-0.11785 0.770769 -0.084899
-0.144933 0.770769 -0.361826
-0.190151 0.796201 -0.232432
0.155979 0.796201 -0.206465
-0.006535 0.770769 -0.380119
-0.020571 0.796201 -0.139004
-0.23471 0.796201 -0.457195
0.189506 0.771363 -0.064568
0.054567 0.796201 -0.209641
0.222475 0.796201 -0.331498
-0.229927 0.777491 -0.064568
0.216936 0.796201 -0.471889
-0.142204 0.796201 -0.461729
0.255756 0.770769 -0.149105
-0.111906 0.770769 -0.176406
0.032237 0.770769 -0.300021
-0.222419 0.770769 -0.151105
0.056481 0.796201 -0.432144
-0.071043 0.796201 -0.324349
0.159707 0.770769 -0.416517
0.133761 0.796201 -0.12993
-0.001192 0.781456 -0.064568
-0.010911 0.770769 -0.466257
-0.238856 0.796201 -0.291249
0.09968 0.770769 -0.263425
0.263267 0.770769 -0.277809
-0.071535 0.770769 -0.409001
0.186256 0.796201 -0.270872
0.050191 0.796201 -0.135677
0.249364 0.770769 -0.40518
-0.120449 0.770769 -0.256105
-0.206362 0.796201 -0.393083
-0.067103 0.796201 -0.501101
-0.161753 0.796201 -0.13282
0.057887 0.796201 -0.357297
0.098401 0.796201 -0.49087
0.223993 0.796201 -0.194642
-0.139635 0.791785 -0.522344
-0.001621 0.770769 -0.237433
0.21907 0.796201 -0.109982
-0.175872 0.796201 -0.289432
0.101186 0.770769 -0.391053
-0.030558 0.770769 -0.287362
0.013371 0.770769 -0.178028
-0.080496 0.796201 -0.119584
-0.17707 0.796201 -0.072113
0.278263 0.784962 -0.355771
0.110332 0.770769 -0.174405
-0.055637 0.770769 -0.176413
0.179182 0.770769 -0.356841
-0.125408 0.796201 -0.407677
-0.209005 0.796201 -0.336385
0.13644 0.770769 -0.067367
0.15739 0.796201 -0.314697
0.22793 0.770769 -0.239413
-0.18465 0.770769 -0.511093
-0.152323 0.796201 -0.191537
-0.013054 0.796201 -0.423344
0.038615 0.796201 -0.258071
-0.247888 0.796201 -0.117205
-0.115506 0.796201 -0.297863
0.075974 0.796201 -0.311917
-0.022911 0.796201 -0.332125
0.045327 0.796201 -0.494498
0.265035 0.770769 -0.087203
-0.242416 0.796201 -0.242949
0.161992 0.796201 -0.476147
-0.189958 0.770769 -0.441286
0.110988 0.796201 -0.444597
0.178755 0.796201 -0.146066
-0.084838 0.770769 -0.362286
-0.208375 0.770769 -0.195335
0.09577 0.770769 -0.128714
0.015952 0.796201 -0.10589
0.138983 0.770769 -0.241044
-0.062237 0.770769 -0.455295
-0.100425 0.796201 -0.211304
-0.233228 0.770769 -0.417014
0.122132 0.770769 -0.517464
0.180852 0.770769 -0.110859
0.204122 0.770769 -0.392186
0.21041 0.796201 -0.42924
0.047567 0.794565 -0.064568
-0.185366 0.770769 -0.107734
-0.073061 0.770769 -0.287669
0.19412 0.796201 -0.225166
-0.214632 0.770769 -0.262578
-0.074698 0.796201 -0.077683
-0.248251 0.770769 -0.208098
0.11583 0.796201 -0.299109
0.018956 0.770769 -0.339455
-0.102437 0.796201 -0.450553
0.267629 0.796201 -0.231144
-0.030298 0.796201 -0.089716
0.115691 0.796201 -0.091782
0.15057 0.770769 -0.167574
-0.168884 0.796201 -0.341555
0.057567 0.770769 -0.179141
0.077095 0.796201 -0.24216
0.14423 0.796201 -0.391468
-0.109859 0.796201 -0.488974
0.233848 0.770769 -0.367753
-0.154595 0.770769 -0.238828
-0.012661 0.796201 -0.188892
0.014843 0.770769 -0.419925
-0.058877 0.796201 -0.372384
-0.201501 0.770769 -0.300282
0.110863 0.796201 -0.362174
-0.039761 0.770769 -0.500694
0.064076 0.796201 -0.101051
0.073323 0.770769 -0.501366
0.071727 0.796201 -0.398295
-0.229221 0.796201 -0.178194
-0.208622 0.796201 -0.091232
0.096153 0.796201 -0.197018
-0.188029 0.770769 -0.164324
0.185013 0.770769 -0.200438
0.154158 0.796201 -0.099681
0.160611 0.770769 -0.276014
