0.115788 0.243251 -0.153434
-0.263834 0.243251 0.207215
-0.109892 0.271062 0.052584
0.122557 0.271062 0.215666
0.465933 0.271062 -0.122351
0.447792 0.271062 0.201437
-0.55597 0.243251 0.080703
0.2453 0.271062 -0.0521
0.050448 0.271062 -0.283399
0.396307 0.271062 -0.22445
0.18332 0.271062 -0.392566
-0.356248 0.243251 -0.17516
0.558741 0.243251 0.116566
0.143642 0.271062 0.290246
0.367262 0.243251 -0.157705
-0.618049 0.271062 0.325648
0.123824 0.271062 -0.006927
0.169213 0.243251 0.344496
0.60944 0.243251 -0.366721
0.54581 0.271062 0.006599
0.18189 0.271062 0.26399
0.053275 0.271062 0.143989
-0.071427 0.271062 0.021633
0.268196 0.271062 0.067566
-0.15927 0.266673 0.393402
0.086057 0.271062 -0.086482
-0.418439 0.266716 0.393402
0.298842 0.243251 -0.354974
-0.076485 0.243251 -0.141396
-0.435773 0.271062 -0.260047
-0.039896 0.271062 0.097006
0.382832 0.243251 0.319555
-0.368431 0.271062 -0.378785
0.333627 0.243251 -0.108403
-0.396188 0.271062 -0.321721
-0.578178 0.271062 0.202484
-0.16441 0.271062 0.125952
-0.237462 0.271062 -0.284096
0.211505 0.271062 0.328707
-0.178755 0.271062 0.260179
-0.059522 0.243251 0.247706
-0.258184 0.243251 0.045665
0.345704 0.271062 -0.027073
-0.213179 0.271062 0.323798
-0.167024 0.243251 0.200166
-0.516454 0.271062 -0.247115
0.614614 0.243251 0.316468
-0.499834 0.243251 -0.326337
0.482666 0.271062 0.382255
-0.321009 0.271062 -0.027345
0.620648 0.243251 -0.264939
-0.437357 0.271062 0.262526
-0.104145 0.271062 0.153357
0.615731 0.243251 0.371291
-0.476607 0.271062 0.048209
0.437654 0.243251 0.341435
0.584019 0.271062 0.386699
-0.278357 0.243251 -0.09231
0.574968 0.271062 0.051439
0.473267 0.243251 -0.39784
0.232808 0.243251 0.227912
-0.524503 0.271062 0.229914
-0.175589 0.271062 0.071628
0.207439 0.243251 -0.094934
-0.056304 0.271062 -0.28903
0.373002 0.271062 -0.31693
-0.575009 0.243251 -0.011982
-0.294428 0.243251 0.078782
-0.608619 0.243251 -0.184668
0.071588 0.271062 0.382283
0.499904 0.243251 0.133177
-0.014559 0.271062 -0.326618
-0.106054 0.271062 -0.233523
0.559133 0.271062 0.207414
0.311895 0.243251 -0.053943
0.417619 0.271062 -0.129265
0.08562 0.243251 0.219019
-0.060259 0.271062 0.341395
0.406354 0.246127 0.393402
-0.477909 0.243251 -0.02899
0.015573 0.243251 0.187015
0.1878 0.243251 0.179406
0.327763 0.243251 0.094972
0.111306 0.243251 -0.305652
0.263991 0.243251 -0.094454
0.154353 0.271062 -0.300268
0.589853 0.243251 -0.042187
0.51067 0.243251 0.258303
-0.490058 0.243251 0.31308
-0.441246 0.243251 0.164953
0.036685 0.271062 -0.405845
-0.433661 0.243251 0.029849
-0.180883 0.243251 -0.253772
-0.279969 0.271062 -0.168269
-0.221429 0.271062 0.257155
0.499604 0.271062 0.055546
-0.225026 0.243251 -0.202243
0.092298 0.243251 -0.351722
0.525786 0.243251 0.340596
-0.275541 0.243251 -0.34967
0.38679 0.271062 -0.040058
0.365081 0.271062 -0.189695
0.462333 0.271062 -0.193655
-0.364325 0.271062 0.128834
-0.444813 0.243251 -0.336612
-0.504855 0.243251 0.147256
-0.5345 0.243251 0.338478
0.018331 0.243251 -0.336842
-0.116063 0.271062 0.345824
0.409522 0.243251 0.015969
-0.598778 0.243251 -0.392246
-0.508715 0.271062 -0.149782
-0.148696 0.271062 -0.281143
0.399448 0.243251 -0.383273
0.275029 0.271062 0.151265
-0.502366 0.271062 0.012676
0.200538 0.243251 0.077561
0.258441 0.243251 -0.364561
0.600013 0.271062 0.261047
-0.036143 0.243251 -0.402941
0.333953 0.271062 0.370148
0.62161 0.243251 0.064093
0.405976 0.271062 0.133479
-0.467852 0.243251 -0.267334
0.50075 0.243251 -0.052304
-0.024817 0.271062 -0.21781
-0.31522 0.243251 -0.324981
0.18387 0.243251 -0.142958
-0.336774 0.243251 0.240909
-0.210721 0.243251 -0.117115
0.245697 0.243251 0.08764
0.575836 0.243251 -0.099311
0.360288 0.243251 0.391871
-0.098418 0.271062 -0.408084
-0.037214 0.243251 0.308981
-0.140132 0.243251 0.084653
0.019668 0.271062 -0.046288
0.06559 0.271062 0.324869
-0.484246 0.243251 -0.126771
0.149801 0.243251 0.392318
0.183431 0.243251 0.034613
-0.590151 0.243251 0.057558
-0.331166 0.271062 -0.13468
0.495435 0.271062 -0.23751
0.355172 0.243251 0.053266
0.572507 0.243251 -0.410123
-0.631164 0.271062 0.149505
0.092805 0.271062 -0.129315
0.437316 0.243251 -0.31398
-0.520773 0.243251 -0.288262
0.194909 0.271062 -0.208719
0.537802 0.243251 0.082282
-0.150218 0.243251 -0.060347
-0.608119 0.243251 -0.090936
-0.300309 0.243251 0.224311
0.514644 0.271062 -0.34766
-0.568296 0.271062 -0.065423
-0.495979 0.243251 -0.182007
-0.173136 0.271062 -0.402556
0.564577 0.243251 0.365753
0.26085 0.271062 0.381605
0.242118 0.271062 0.016656
0.325887 0.271062 -0.220797
-0.044338 0.271062 -0.359097
-0.285918 0.271062 0.051672
-0.408557 0.243251 0.120864
-0.208682 0.271062 -0.358461
-0.397362 0.243251 0.206018
0.1803 0.271062 0.151316
0.474007 0.243251 -0.087175
-0.163271 0.271062 -0.17585
0.275697 0.243251 -0.284558
-0.609454 0.243251 -0.133463
-0.05165 0.243251 0.176979
-0.191426 0.271062 -0.223922
-0.61894 0.243251 -0.011865
0.212151 0.243251 0.141153
-0.18066 0.243251 0.318308
0.582766 0.271062 -0.329879
0.038524 0.243251 0.254358
0.506211 0.271062 -0.188604
0.570067 0.243251 -0.169431
0.158772 0.243251 -0.016079
0.419592 0.243251 -0.416714
0.109722 0.271062 0.177837
-0.153349 0.243251 0.362814
-0.189571 0.271062 0.215559
-0.337246 0.243251 0.393054
-0.230666 0.243251 0.167053
0.262926 0.271062 -0.121635
0.234104 0.271062 -0.299707
-0.325308 0.271062 -0.242648
-0.366142 0.243251 -0.302237
0.451869 0.243251 0.13887
0.060893 0.243251 0.060221
0.38076 0.271062 -0.355172
-7e-06 0.243251 0.142974
0.293914 0.271062 -0.019005
0.272838 0.243251 0.243983
0.301557 0.271062 -0.137361
0.61758 0.271062 -0.232071
-0.449326 0.271062 -0.05676
0.295319 0.271062 0.358046
-0.588207 0.271062 0.102029
-0.529195 0.243251 -0.024214
-0.34422 0.271062 0.009367
-0.533183 0.271062 0.049584
-0.022601 0.243251 0.06903
0.332977 0.271062 -0.308475
-0.008449 0.271062 -0.25868
0.484385 0.243251 -0.309444
-0.495624 0.271062 -0.070883
-0.419858 0.271062 -0.15785
0.538342 0.271062 0.147846
0.314541 0.271062 0.284399
0.076074 0.271062 -0.172841
0.516081 0.271062 -0.019896
0.360493 0.243251 0.144889
-0.457244 0.243251 -0.372736
-0.082901 0.271062 0.112955
0.146117 0.271062 -0.199638
0.213272 0.271062 -0.368986
-0.388954 0.271062 0.007129
0.179659 0.243251 0.238061
0.31964 0.271062 -0.399432
0.524307 0.243251 -0.280145
-0.515101 0.243251 0.256764
-0.137371 0.271062 0.193695
-0.50592 0.243251 0.074783
0.115831 0.243251 -0.235197
0.013816 0.243251 0.224849
0.007683 0.243251 -0.06899
-0.132177 0.243251 0.314523
0.630453 0.271062 0.288968
-0.40286 0.271062 0.060101
-0.616094 0.243251 0.199768
0.092519 0.271062 -0.032015
-0.100832 0.243251 -0.347834
-0.297218 0.271062 -0.117861
-0.558828 0.271062 -0.204712
0.131248 0.243251 0.191254
-0.060692 0.271062 -0.397822
0.434005 0.271062 -0.340255
0.260243 0.271062 0.334516
-0.000983 0.243251 0.023205
-0.608088 0.271062 -0.295025
0.242305 0.243251 0.312324
0.370619 0.243251 0.262295
-0.540946 0.243251 -0.391555
0.301912 0.243251 -0.16824
-0.228573 0.271062 0.117137
0.457049 0.271062 0.314201
0.360895 0.271062 0.094464
-0.432329 0.243251 -0.410114
-0.455166 0.243251 0.279476
-0.538421 0.271062 0.366377
0.610602 0.243251 0.025693
0.223505 0.243251 0.189326
0.194408 0.271062 -0.027296
-0.369094 0.243251 0.344487
-0.463207 0.243251 0.072134
-0.389635 0.271062 0.361411
-0.443439 0.271062 0.345161
0.168644 0.243251 -0.18342
-0.159244 0.243251 -0.116316
-0.123748 0.243251 -0.012795
-0.197547 0.243251 -0.335526
-0.33629 0.271062 -0.207482
0.516026 0.271062 0.223751
0.524442 0.243251 -0.16181
-0.516003 0.243251 -0.083594
-0.568247 0.243251 0.281809
0.215383 0.243251 -0.336675
-0.595722 0.271062 0.140384
-0.506227 0.243251 0.036093
-0.100935 0.243251 0.074445
-0.144033 0.243251 -0.308478
0.462471 0.271062 0.040697
-0.522541 0.271062 -0.415351
0.334418 0.243251 -0.250494
0.059625 0.271062 -0.061588
0.157021 0.271062 -0.366451
-0.305242 0.243251 -0.044514
-0.383336 0.243251 -0.09216
-0.210315 0.246629 0.393402
0.007322 0.243251 0.342234
0.480052 0.271062 -0.332582
0.049399 0.243251 0.345731
0.152972 0.271062 0.103433
-0.256216 0.243251 -0.006923
0.110754 0.271062 0.041267
-0.634128 0.271062 -0.041446
-0.274488 0.271062 0.124656
0.329138 0.243251 -0.374299
-0.580346 0.271062 0.241095
-0.116594 0.271062 0.296839
0.233883 0.243251 -0.269076
0.431042 0.243251 -0.064801
0.303899 0.243251 0.176616
0.025547 0.271062 -0.082569
0.338249 0.271062 0.024552
-0.222877 0.243251 -0.301061
-0.508033 0.271062 0.097427
0.22285 0.271062 0.07739
0.001415 0.271062 0.045387
0.589653 0.271062 0.306397
-0.54958 0.271062 -0.129405
0.107808 0.243251 -0.415722
0.121989 0.243251 0.100614
-0.367089 0.271062 -0.122974
0.221585 0.243251 0.379806
-0.356528 0.271062 -0.322201
0.053983 0.271062 0.085186
0.445312 0.243251 0.223427
0.127668 0.243251 -0.033178
0.554143 0.271062 -0.114083
0.592647 0.271062 -0.020377
-0.240109 0.271062 -0.026544
-0.635691 0.243251 0.31259
0.388337 0.243251 -0.097325
-0.301391 0.243251 0.340652
-0.214636 0.243251 0.348974
-0.301006 0.243251 0.034485
0.149645 0.243251 -0.093815
-0.468385 0.271062 0.116524
0.500621 0.271062 0.322625
-0.322854 0.271062 0.287862
0.618078 0.243251 -0.183629
-0.422486 0.243251 0.306834
0.417927 0.271062 0.053583
-0.328859 0.271062 0.154617
-0.170028 0.271062 0.178931
-0.244865 0.271062 0.150572
0.041653 0.243251 -0.012808
-0.28797 0.271003 0.393402
0.407008 0.243251 -0.242869
-0.364997 0.243251 0.190726
-0.191198 0.243251 0.146648
-0.344698 0.243251 -0.380959
-0.576203 0.271062 0.315363
-0.114633 0.243251 0.031913
-0.609585 0.243251 0.369101
0.075875 0.271062 0.117339
0.407112 0.271062 -0.299175
-0.072049 0.243251 0.296626
-0.446167 0.243251 0.204457
0.264443 0.271062 -0.222163
0.471849 0.271062 -0.376958
-0.461897 0.243251 -0.175036
-0.144109 0.271062 0.04668
0.234353 0.243251 -0.142336
0.00228 0.243251 -0.103194
0.494608 0.271062 -0.413912
0.622961 0.271062 0.225649
0.606118 0.243251 -0.402
-0.196179 0.271062 0.031708
0.358763 0.271062 -0.242942
0.017604 0.271062 0.283321
-0.553504 0.243251 -0.315349
0.138547 0.271062 0.144681
0.056027 0.243251 -0.26368
-0.413946 0.271062 -0.217045
-0.278388 0.271062 0.31624
-0.458685 0.271062 -0.296101
-0.019448 0.243251 0.114477
-0.237912 0.243251 -0.095902
0.113814 0.271062 0.252064
0.30018 0.243251 -0.254121
0.239116 0.271062 0.25527
0.034474 0.243251 -0.15195
-0.556992 0.243251 0.391219
-0.145256 0.243251 0.11991
0.006906 0.271062 0.161814
0.068093 0.271062 0.185468
0.58671 0.243251 -0.299868
-0.533277 0.243251 0.118356
-0.627046 0.243251 -0.235484
0.019306 0.243251 0.107097
-0.265401 0.243251 -0.230211
-0.385695 0.243251 -0.339459
-0.260582 0.243251 -0.164127
-0.546376 0.243251 -0.263355
-0.58541 0.271062 -0.406762
0.446313 0.243251 -0.2608
-0.32692 0.243251 0.307145
0.468601 0.243251 0.003726
-0.094137 0.243251 -0.058155
0.238264 0.243251 -0.072166
0.160301 0.271062 0.234861
0.470416 0.243251 -0.235537
-0.31458 0.243251 -0.091238
0.454377 0.243251 -0.364758
-0.070951 0.271062 -0.197638
0.552776 0.271062 0.350444
0.255907 0.243251 0.16619
-0.335519 0.271062 -0.096128
-0.213604 0.271062 -0.136138
0.268543 0.271062 0.213758
-0.477358 0.243251 -0.300502
-0.530888 0.243251 0.194473
0.596506 0.271062 -0.267809
0.429875 0.243251 -0.143973
0.447818 0.271062 -0.295221
0.574945 0.271062 -0.218196
-0.408329 0.243251 0.17418
-0.063024 0.243251 0.366059
-0.007295 0.243251 -0.225069
-0.330429 0.271062 0.223052
0.591494 0.243251 0.196308
0.339494 0.243251 0.352092
0.46168 0.271062 0.232846
-0.608413 0.271062 0.062348
0.191221 0.271062 -0.061595
0.525799 0.243251 -0.332453
0.485684 0.271062 0.189019
0.511506 0.250258 0.393402
-0.141781 0.243251 -0.407688
0.429286 0.243251 -0.185416
0.261656 0.243251 -0.331231
0.283068 0.271062 -0.26142
-0.591062 0.243251 -0.223748
0.048843 0.271062 -0.21696
-0.117846 0.271062 -0.265006
0.507989 0.243251 0.165597
0.453105 0.243251 0.387054
0.213373 0.243251 -0.213944
0.200445 0.271062 0.027538
-0.071 0.271062 0.233323
0.031504 0.271062 -0.324039
-0.041856 0.243251 0.027133
0.28929 0.243251 -0.116116
0.350169 0.243251 -0.300771
0.298448 0.243251 -0.316871
-0.038221 0.243251 -0.195553
0.447979 0.243251 0.263974
-0.531255 0.271062 0.142973
-0.016012 0.271062 0.197008
0.304982 0.243251 0.230808
-0.582299 0.243251 -0.34681
0.044589 0.271062 -0.354441
0.08532 0.271062 0.004952
0.37362 0.271062 -0.071205
-0.234883 0.271062 0.184189
0.212545 0.271062 0.295855
-0.508266 0.271062 -0.381875
-0.345826 0.243251 -0.143953
0.079665 0.243251 -0.114037
0.456162 0.243251 0.296882
0.395369 0.271062 -0.257205
-0.222013 0.243251 -0.050494
0.050901 0.243251 0.165544
0.594073 0.271062 -0.374627
-0.059609 0.271062 0.192395
-0.086664 0.243251 -0.215882
-0.046556 0.243251 -0.154494
0.545867 0.243251 0.265641
0.474665 0.271062 0.098085
-0.087962 0.271062 -0.370331
-0.128742 0.271062 -0.333171
0.093288 0.271062 -0.426067
0.307398 0.271062 -0.34027
0.079437 0.243251 -0.312394
0.07434 0.243251 0.140667
0.355344 0.271062 0.255025
-0.184697 0.243251 -0.286083
0.149456 0.243251 0.221974
0.126975 0.271062 -0.282766
-0.589901 0.243251 -0.423504
0.577072 0.243251 0.034788
-0.289912 0.243251 0.118066
0.269284 0.271062 0.103801
0.060532 0.271062 -0.12585
0.368776 0.243251 -0.027557
0.39064 0.243251 -0.181161
-0.580235 0.271062 -0.313819
-0.02408 0.243251 -0.003498
-0.228057 0.243251 -0.391066
-0.255814 0.271062 -0.054909
0.624348 0.243251 -0.299305
0.201558 0.243251 0.273469
-0.321882 0.271062 0.366121
0.548392 0.271062 -0.237435
0.074492 0.243251 -0.216606
-0.129381 0.243251 -0.163272
-0.538866 0.271062 -0.37148
0.608186 0.271062 0.05465
0.344587 0.271062 -0.129051
0.165024 0.271062 0.314397
-0.110446 0.271062 -0.078257
-0.556053 0.243251 -0.054643
-0.43415 0.243251 -0.148788
0.037443 0.243251 -0.056626
-0.231278 0.271062 0.297169
0.594899 0.271062 0.138042
-0.211786 0.271062 -0.395443
0.370947 0.243251 -0.367961
-0.425274 0.243251 0.062823
0.131575 0.271062 0.073409
-0.181067 0.271062 -0.133097
-0.183285 0.243251 -0.414956
-0.387119 0.271062 0.261199
0.433991 0.271062 0.164339
0.432169 0.271062 -0.238267
-0.452986 0.271062 -0.221019
0.47292 0.243251 0.053243
0.273653 0.243251 0.372308
-0.500731 0.271062 0.375291
-0.25221 0.243251 0.288281
0.373705 0.271062 -0.143422
-0.423929 0.271062 -0.118993
-0.16548 0.271062 -0.053683
-0.069967 0.243251 -0.281585
0.582409 0.243251 0.083126
-0.545178 0.271062 -0.022258
-0.379747 0.243251 0.305627
0.60263 0.243251 -0.21252
0.139922 0.271062 0.365704
-0.257056 0.271062 -0.312064
-0.588327 0.248236 0.393402
-0.373241 0.271062 0.048597
-0.594477 0.271062 -0.097866
0.270094 0.243251 -0.395064
-0.427381 0.243251 -0.181057
-0.449256 0.271062 0.387228
-0.337322 0.271062 0.256154
-0.61194 0.243251 0.01939
0.312692 0.271062 0.096871
-0.569229 0.271062 0.157756
-0.261787 0.271062 0.27249
0.476828 0.243251 -0.198048
0.328729 0.243251 0.154345
0.601097 0.271062 0.013221
0.269491 0.271062 -0.347258
-0.42772 0.271062 -0.323684
0.073857 0.243251 -0.409148
-0.063087 0.243251 0.093998
0.396474 0.243251 0.241219
0.429164 0.271062 -0.039591
-0.01333 0.271062 0.277143
-0.365165 0.243251 0.143685
0.36781 0.243251 -0.411053
0.57932 0.243251 0.334714
0.605563 0.271062 -0.165905
0.4799 0.243251 -0.118229
-0.390087 0.271062 -0.356067
0.122899 0.271062 -0.314357
0.100795 0.243251 0.25843
-0.078817 0.271062 -0.267213
-0.615554 0.271062 0.291456
-0.158738 0.243251 -0.226516
-0.519428 0.271062 0.314854
0.050809 0.243251 0.198125
0.515405 0.243251 -0.095864
0.593169 0.243251 -0.339959
-0.258331 0.243251 -0.195362
0.391706 0.243251 0.142376
-0.196198 0.243251 0.188801
-0.108296 0.243251 0.285181
-0.381898 0.243251 0.247887
0.199258 0.243251 -0.371819
0.237791 0.243251 -0.032379
-0.494294 0.243251 0.281383
-0.523971 0.243251 -0.122769
-0.432602 0.271062 -0.008103
-0.473694 0.243251 0.009609
-0.286941 0.271062 -0.38377
-0.595157 0.271062 -0.049619
0.235484 0.271062 -0.209534
-0.308528 0.271062 0.102144
0.179118 0.271062 -0.23554
-0.020139 0.243251 0.167158
-0.082669 0.243251 0.178906
-0.146424 0.243251 -0.18924
-0.398079 0.271062 0.232145
-0.579172 0.271062 -0.247009
0.367439 0.243251 -0.126663
-0.445662 0.271062 0.177971
0.612609 0.271062 -0.338292
-0.165261 0.243251 0.257768
-0.519591 0.271062 -0.342912
0.605596 0.271062 -0.419857
-0.304249 0.243251 -0.177406
-0.378348 0.271062 0.194534
0.251613 0.271062 -0.376184
-0.045928 0.271062 -0.240331
-0.192354 0.271062 -0.08906
0.356496 0.271062 0.175792
-0.511673 0.243251 -0.23474
-0.390697 0.243251 -0.005996
0.116379 0.243251 0.336312
0.26439 0.243251 -0.199399
0.083409 0.271062 0.150314
-0.465054 0.271062 -0.120091
0.443379 0.271062 0.128817
-0.292125 0.271062 -0.044344
-0.098655 0.243251 -0.24419
0.152734 0.243251 0.318225
0.437572 0.271062 -0.087788
-0.181469 0.243251 -0.027981
-0.007127 0.243251 -0.35388
0.555095 0.271062 -0.39796
0.375811 0.243251 -0.329408
0.371171 0.271062 0.324729
-0.618258 0.271062 -0.34036
-0.152835 0.243251 0.228156
0.573164 0.271062 0.17403
0.242483 0.243251 0.137386
-0.210321 0.271062 -0.29983
0.557036 0.271062 -0.14923
0.012521 0.243251 -0.387861
-0.188006 0.243251 0.070466
0.103925 0.271062 0.321315
0.538387 0.243251 0.16571
0.300041 0.271062 0.257699
-0.323548 0.243251 0.089533
-0.372707 0.271062 0.330477
-0.394706 0.271062 0.135466
-0.569907 0.243251 -0.199602
-0.097077 0.243251 0.210486
-0.189333 0.243251 0.227746
-0.460132 0.243251 0.141201
0.097841 0.271062 -0.362505
-0.63087 0.243251 0.229994
0.294286 0.271062 0.183907
0.271925 0.243251 0.33151
0.182395 0.243251 -0.344599
-0.295851 0.243251 0.001142
0.376684 0.271062 0.125739
-0.636689 0.243251 -0.160051
0.412172 0.243251 0.191138
0.571623 0.271062 0.238908
0.414011 0.271062 0.357954
0.0429 0.243251 -0.319239
-0.040021 0.243251 0.275333
-0.625677 0.271062 0.179207
-0.538077 0.243251 0.281109
0.189489 0.271062 -0.422058
0.029114 0.243251 0.022269
0.100985 0.243251 0.12671
0.121594 0.243251 -0.385444
0.378583 0.271062 0.215088
0.237134 0.271062 0.217436
-0.039112 0.271062 0.127018
-0.285501 0.271062 -0.210665
0.289631 0.243251 0.031201
-0.576075 0.243251 -0.168763
-0.276093 0.243251 0.361279
-0.093471 0.243251 -0.398134
0.088099 0.271062 0.277987
0.058435 0.271062 0.281744
0.162801 0.271062 -0.03488
0.248973 0.271062 -0.260941
-0.482659 0.271062 0.305213
-0.001238 0.271062 -0.011839
0.086402 0.243251 0.079002
-0.616761 0.243251 0.33626
-0.581324 0.243251 0.110125
0.219527 0.271062 -0.011351
-0.550867 0.271062 0.019703
-0.25737 0.271062 0.012138
-0.570968 0.243251 0.195007
-0.520328 0.271062 -0.277925
-0.029639 0.271062 0.061478
-0.587004 0.271062 0.354031
0.435477 0.243251 0.088911
0.150989 0.271062 -0.265481
0.552336 0.243251 -0.01342
-0.207584 0.271062 0.096308
0.185835 0.243251 0.368887
0.628517 0.271062 -0.368302
-0.413508 0.243251 0.230698
0.555738 0.271062 -0.050142
0.016922 0.271062 0.07328
0.490184 0.271062 0.132252
-0.192755 0.271062 -0.160147
0.292623 0.243251 0.149398
-0.631613 0.243251 -0.365442
0.391601 0.243251 0.055528
-0.485255 0.243251 0.169215
-0.218482 0.271062 -0.209307
0.367841 0.271062 -0.283172
-0.11078 0.271062 -0.121483
0.124625 0.271062 -0.344578
0.132832 0.243251 -0.002283
0.087283 0.243251 -0.008963
-0.313238 0.271062 -0.276864
0.544357 0.243251 -0.258681
0.325033 0.271062 -0.00327
-0.218245 0.271062 -0.107146
-0.225969 0.243251 0.265383
-0.193733 0.271062 0.126612
0.096203 0.271062 0.349597
0.456781 0.271062 -0.012724
0.463481 0.243251 0.198556
-0.07201 0.271062 -0.149469
0.187369 0.243251 -0.072233
0.394024 0.271062 0.384217
0.245201 0.243251 0.008021
0.415279 0.271062 0.264242
-0.122266 0.243251 -0.050061
-0.423554 0.271062 -0.290743
-0.498957 0.271062 0.215683
-0.448632 0.271062 -0.370072
0.483584 0.271062 -0.276351
0.615536 0.262517 0.393402
0.460295 0.271062 -0.153754
-0.32269 0.271062 0.323959
-0.268176 0.243251 -0.124069
0.527137 0.271062 0.065181
-0.023297 0.271062 -0.120936
-0.391579 0.243251 -0.171668
-0.17815 0.271062 0.349111
-0.247141 0.243251 -0.369083
-0.500345 0.271062 -0.317792
-0.027696 0.271062 -0.401807
0.131453 0.243251 0.366459
-0.189489 0.243251 -0.096914
0.502896 0.243251 0.358467
0.272095 0.271062 -0.063276
-0.316862 0.243251 -0.358561
-0.546677 0.243251 -0.143381
-0.600663 0.271062 -0.015114
-0.179841 0.271062 -0.343574
0.550589 0.271062 0.117038
0.512687 0.271062 0.34897
0.631664 0.243251 -0.423324
-0.438478 0.243251 -0.267631
0.190422 0.271062 -0.304562
0.225674 0.243251 0.108494
-0.088034 0.243251 0.04795
-0.159861 0.271062 -0.210988
0.501229 0.243251 0.047456
-0.039959 0.243251 -0.035598
0.172765 0.243251 -0.293136
0.333941 0.243251 -0.156603
-0.03431 0.243251 -0.299186
0.563693 0.243251 0.213482
-0.200214 0.271062 0.290642
-0.576691 0.243251 0.139304
0.482149 0.243251 0.262429
0.605031 0.243251 -0.082421
-0.374983 0.271062 -0.409405
-0.259207 0.243251 -0.069104
-0.324514 0.243251 -0.227516
0.120568 0.271062 -0.100522
0.362758 0.243251 0.000481
-0.391471 0.271062 0.086406
-0.154076 0.243251 -0.276808
-0.224183 0.271062 0.210767
0.395148 0.243251 -0.151161
0.524456 0.271062 -0.374553
-0.466183 0.271062 -0.180279
-0.353544 0.271062 -0.18119
-0.191631 0.271062 -0.040845
-0.266669 0.271062 0.369506
0.510919 0.243251 -0.015865
0.097263 0.243251 -0.036481
-0.604204 0.243251 0.31061
-0.346041 0.271062 0.199141
0.307887 0.271062 0.332297
0.423583 0.243251 0.314434
-0.178584 0.271062 -0.284413
-0.173772 0.243251 0.109782
0.551811 0.243251 -0.225143
-0.53548 0.243251 0.30999
0.447567 0.243251 -0.410156
-0.166305 0.243251 0.291337
0.576757 0.243251 -0.267965
-0.142495 0.243251 0.0261
-0.103458 0.243251 -0.151544
0.403201 0.271062 -0.327353
-0.525434 0.243251 -0.052778
0.036695 0.243251 -0.416045
0.086322 0.243251 -0.080781
0.118242 0.243251 0.219293
0.400751 0.271062 -0.388707
0.325272 0.257373 0.393402
0.386696 0.243251 0.373222
0.352959 0.271062 0.057998
-0.070879 0.271062 0.301705
-0.060749 0.271062 0.057755
-0.118551 0.271062 -0.30679
-0.338889 0.271062 0.037974
-0.439858 0.243251 0.255733
-0.46997 0.271062 0.357059
0.347536 0.271062 -0.332698
-0.078739 0.243251 -0.17107
-0.148876 0.271062 -0.416995
-0.156666 0.243251 -0.144429
-0.295491 0.271062 0.223982
0.556572 0.243251 -0.362788
0.535211 0.243251 0.013412
-0.407234 0.243251 -0.107045
-0.404903 0.243251 0.385739
0.550423 0.271062 0.03767
0.117764 0.271062 -0.157262
-0.55693 0.271062 0.272167
-0.154072 0.243251 0.334009
-0.019492 0.243251 -0.076032
0.533894 0.243251 -0.424098
-0.505754 0.243251 -0.262169
-0.560748 0.271062 0.054706
-0.007102 0.271062 -0.154107
0.298524 0.243251 0.358971
-0.413394 0.271062 0.156501
0.21482 0.243251 0.328771
-0.2713 0.243251 0.180229
-0.099018 0.271062 -0.049484
0.537523 0.243251 0.380117
-0.191026 0.243251 -0.226942
-0.064037 0.243251 -0.089419
-0.515596 0.243251 0.009835
-0.606031 0.271062 -0.261931
-0.364553 0.271062 0.100963
0.082976 0.271062 -0.2805
0.431317 0.243251 0.120066
-0.489369 0.271062 -0.240627
-0.290605 0.271062 -0.350834
-0.069549 0.271062 -0.34731
0.440883 0.243251 0.010947
-0.318424 0.243251 0.172477
0.320966 0.243251 0.300956
0.584412 0.271062 -0.401874
-0.351312 0.243251 -0.421664
0.02698 0.243251 0.297173
-0.152156 0.243251 -0.37135
0.463336 0.271062 0.362336
-0.510642 0.243251 -0.363003
0.588532 0.271062 -0.051993
-0.099685 0.267428 0.393402
-0.508906 0.243251 -0.157489
0.052818 0.243251 0.230715
0.145533 0.243251 0.038634
0.473396 0.243251 -0.056045
0.168553 0.271062 -0.129677
0.250791 0.271062 0.178933
0.239327 0.271062 0.316586
-0.413152 0.243251 -0.337596
0.021693 0.271062 0.318382
-0.208467 0.243251 0.322287
0.112242 0.243251 -0.208089
0.548243 0.271062 -0.340911
0.317743 0.271062 -0.187543
-0.333969 0.271062 -0.337524
0.606614 0.271062 0.369128
-0.09808 0.271062 0.016214
0.527435 0.271062 -0.322747
0.266907 0.271062 -0.022046
0.298234 0.271062 0.122753
0.38483 0.271062 0.245165
-0.076371 0.271062 -0.423897
-0.531534 0.243251 -0.196419
-0.433309 0.243251 -0.015354
-0.479028 0.243251 -0.100162
0.141258 0.243251 -0.225787
0.492572 0.271062 -0.127201
-0.312116 0.271062 0.044883
-0.399676 0.243251 0.071438
0.3443 0.243251 0.116293
-0.357122 0.271062 0.370547
0.357669 0.271062 -0.416294
0.290427 0.243251 -0.08924
-0.182563 0.253237 0.393402
0.437674 0.271062 -0.182934
0.586892 0.243251 -0.381352
-0.237857 0.271062 0.374249
0.019612 0.271062 0.185461
0.614461 0.243251 0.274351
-0.395785 0.243251 -0.198151
-0.287216 0.271062 -0.283285
0.212097 0.264269 0.393402
-0.530588 0.243251 0.089167
-0.161796 0.243251 0.162013
0.038986 0.271062 -0.027832
0.176881 0.271062 0.040072
0.622557 0.271062 0.094679
-0.083116 0.243251 0.140481
0.321021 0.243251 -0.227496
0.494291 0.243251 -0.414116
-0.463735 0.243251 0.304603
-0.07715 0.271062 -0.22343
-0.299696 0.271062 -0.188265
0.636326 0.243251 0.354282
0.393211 0.243251 0.169799
0.416439 0.271062 -0.360058
0.075975 0.243251 0.369504
0.621042 0.271062 0.124935
0.173759 0.271062 0.356638
-0.286845 0.243251 0.144313
-0.345613 0.243251 0.325814
0.392136 0.271062 0.277983
-0.405875 0.271062 0.190467
-0.255323 0.271062 0.038442
-0.173118 0.271062 0.101088
-0.138604 0.271062 -0.062612
-0.005738 0.243251 0.365867
0.362408 0.243251 0.201042
-0.639095 0.243251 -0.294416
-0.045291 0.271062 0.001517
-0.031092 0.271062 -0.053293
0.1907 0.243251 0.101889
-0.267247 0.271062 -0.425029
-0.033242 0.271062 0.36941
-0.294069 0.243251 -0.068219
0.513313 0.271062 -0.045928
-0.181749 0.243251 -0.314651
0.291888 0.243251 -0.029457
0.177121 0.271062 -0.189584
0.470091 0.271062 0.336837
-0.187439 0.271062 0.0071
-0.090836 0.243251 0.359107
0.092932 0.271062 -0.335738
-0.277437 0.243251 -0.323676
-0.351198 0.271062 0.278183
-0.54279 0.243251 0.05019
-0.519186 0.271062 -0.021635
-0.017789 0.243251 -0.330176
0.300942 0.271062 0.152744
-0.033051 0.243251 -0.354031
0.353147 0.243251 0.243162
0.298836 0.243251 0.124276
0.534543 0.243251 0.316279
-0.165485 0.271062 0.153496
-0.398241 0.271062 -0.121762
-0.00074 0.271062 -0.179146
-0.542633 0.243251 0.369039
-0.144366 0.271062 -0.019348
0.244777 0.271062 -0.139981
0.524962 0.271062 -0.102638
0.569964 0.243251 -0.12613
-0.247707 0.243251 0.376565
0.017873 0.271062 -0.367401
0.274399 0.271062 -0.098247
-0.506366 0.271062 0.149353
0.157963 0.271062 0.384449
-0.55652 0.243251 0.325356
-0.397997 0.271062 -0.296172
0.070567 0.243251 0.010437
-0.365564 0.243251 -0.198995
0.316744 0.243251 0.208084
0.15245 0.271062 -0.341297
0.33393 0.271062 0.196278
0.143907 0.243251 0.08763
0.630063 0.243251 -0.240736
-0.114373 0.243251 -0.11974
-0.152965 0.271062 0.305161
-0.319258 0.243251 -0.125962
-0.429764 0.243251 0.106876
0.442332 0.243251 -0.285841
0.484827 0.271062 0.222507
0.096326 0.271062 0.376823
0.615596 0.243251 -0.045337
0.63479 0.271062 -0.29642
0.170165 0.243251 0.056134
0.207642 0.243251 0.22557
-0.631161 0.271062 -0.230811
0.614467 0.271062 0.331038
-0.332464 0.271062 -0.383267
0.251389 0.271062 0.142358
-0.440437 0.243251 0.361849
-0.583987 0.271062 -0.347778
0.215522 0.271062 -0.329413
0.035861 0.271062 0.382928
-0.333645 0.271062 -0.066797
-0.256579 0.271062 -0.177652
0.567456 0.271062 -0.020201
-0.204383 0.243251 -0.359705
0.167043 0.243251 -0.416192
-0.562532 0.243251 -0.241932
-0.129093 0.271062 0.068722
0.621391 0.271062 -0.264682
-0.446419 0.271062 0.095518
-0.348149 0.243251 -0.319694
0.437778 0.271062 0.225315
0.571982 0.271062 -0.307281
0.51934 0.243251 0.187897
0.096186 0.271062 0.091465
0.567138 0.243251 0.05772
-0.159537 0.271062 0.027022
-0.592971 0.243251 -0.029302
-0.410906 0.271062 -0.020403
-0.16223 0.243251 -0.339525
-0.557923 0.271062 -0.229615
-0.095126 0.271062 -0.206179
0.511637 0.271062 0.144896
-0.142292 0.271062 -0.366213
0.108136 0.271062 -0.263939
-0.486905 0.271062 -0.166541
0.067287 0.243251 -0.169538
-0.441781 0.243251 -0.201304
0.199394 0.243251 -0.118414
0.462657 0.243251 0.095007
0.216915 0.243251 0.253988
0.068165 0.271062 -0.305835
0.103875 0.243251 -0.175172
0.55966 0.271062 0.391264
-0.574234 0.271062 -0.126893
0.41509 0.243251 0.351639
-0.489469 0.271062 -0.124216
-0.270268 0.243251 0.073385
-0.559649 0.243251 0.258621
0.110084 0.243251 0.178505
0.021465 0.271062 0.223742
0.384155 0.243251 0.012805
0.460677 0.269698 0.393402
0.224475 0.271062 -0.276992
0.293315 0.271062 0.081618
0.5053 0.271062 0.298426
-0.303028 0.271062 0.309115
0.01827 0.271062 0.139956
-0.071707 0.243251 -0.306134
0.092187 0.243251 0.321395
0.416898 0.243251 0.055588
-0.230415 0.243251 0.088869
0.502719 0.271062 0.261602
-0.173164 0.243251 -0.0764
-0.535068 0.271062 -0.210883
0.527832 0.243251 -0.368165
0.03385 0.271062 0.034519
0.008445 0.243251 -0.263671
-0.59853 0.271062 0.039887
-0.607198 0.271062 -0.152868
0.387515 0.271062 0.031435
0.114246 0.271062 -0.049847
0.44227 0.271062 -0.115981
-0.341317 0.243251 -0.202355
0.137483 0.243251 -0.318514
-0.463552 0.271062 0.02751
0.635355 0.243251 0.119628
0.16751 0.271062 -0.067531
-0.615036 0.243251 0.161686
0.053218 0.243251 -0.353137
0.160054 0.271062 0.133132
0.598401 0.243251 -0.112326
0.395204 0.271062 -0.119624
-0.567585 0.243251 0.361491
-0.41689 0.271062 0.040152
-0.627933 0.243251 -0.416066
0.351341 0.271062 0.343491
0.21841 0.271062 0.053425
0.005097 0.271062 0.344037
0.50953 0.243251 0.084705
-0.428853 0.271062 -0.081172
-0.154854 0.271062 0.264565
-0.050605 0.258527 0.393402
-0.623735 0.271062 -0.184233
-0.545877 0.271062 -0.408808
-0.508945 0.243251 0.174329
-0.023342 0.243251 0.044813
0.357671 0.271062 0.140732
-0.235023 0.243251 0.038613
0.336297 0.271062 -0.260483
0.395064 0.271062 -0.199966
0.315233 0.271062 0.032015
0.179272 0.271062 0.206721
0.637256 0.243251 -0.358712
0.251906 0.243251 0.060548
-0.29846 0.243251 -0.37681
0.183196 0.271062 -0.159635
-0.008065 0.243251 0.192016
-0.078544 0.271062 0.136719
0.474073 0.271062 0.296549
-0.232877 0.243251 0.00263
0.135749 0.268601 0.393402
-0.444421 0.243251 0.008361
-0.217369 0.271062 -0.336063
-0.237833 0.271062 0.073864
-0.558967 0.271062 -0.302718
0.558951 0.271062 -0.423815
-0.618275 0.243251 -0.327311
0.384184 0.243251 -0.053798
0.20776 0.271062 0.177759
0.19506 0.271062 0.108167
0.17478 0.271062 0.091918
0.385637 0.243251 -0.253466
-0.5775 0.271062 -0.183738
0.026095 0.243251 -0.035654
0.637395 0.271062 -0.245268
0.617124 0.243251 -0.132459
0.260338 0.271062 0.034751
-0.07645 0.271062 -0.174512
-0.472603 0.271062 -0.076714
-0.021566 0.243251 -0.384193
-0.136745 0.243251 -0.108741
-0.130056 0.271062 -0.22461
-0.562783 0.243251 0.034327
-0.463774 0.271062 0.332992
0.054175 0.243251 -0.228799
-0.305515 0.243251 -0.303397
0.202231 0.243251 0.04896
0.652057 0.152615 -0.468722
0.638486 -0.233562 -0.072487
0.656335 0.623328 -0.159753
0.638486 0.29472 0.248216
0.657026 0.131058 -0.123512
0.657026 -0.318088 0.257234
0.657026 -0.336828 -0.358418
0.657026 -0.013808 0.142211
0.638486 -0.07306 -0.305882
0.657026 0.364696 -0.259772
0.657026 0.398471 0.001894
0.657026 0.494084 0.232936
0.657026 0.196698 0.075463
0.657026 -0.402039 -0.172209
0.656758 -0.175253 -0.468722
0.638486 -0.193201 0.109628
0.638486 -0.049723 -0.119001
0.657026 0.190487 -0.292835
0.657026 0.096756 0.287467
0.657026 -0.485416 0.272678
0.657026 0.58639 0.00027
0.657026 -0.224735 -0.240899
0.638486 -0.345964 0.041211
0.657026 0.000859 -0.45888
0.657026 0.465613 -0.146576
0.657026 0.043075 -0.001879
0.657026 0.512205 -0.307086
0.652055 0.372841 -0.468722
0.64485 0.623328 0.187984
0.657026 0.622416 -0.390985
0.657026 0.325926 0.116734
0.657026 0.057776 -0.333385
0.638486 -0.119821 -0.007621
0.638486 0.469714 0.109116
0.638486 0.513441 0.350476
0.638486 -0.384669 0.153944
0.657026 0.044124 -0.215292
0.638486 0.173372 0.190034
0.657026 -0.019828 0.260198
0.657026 -0.193953 -0.353297
0.656884 -0.302578 -0.468722
0.643026 0.623328 -0.277824
0.638486 0.410075 0.304422
0.657026 0.355239 -0.125316
0.657026 -0.211901 0.23188
0.638486 0.622358 0.299314
0.657026 0.407836 -0.365805
0.638486 0.088302 0.092995
0.638486 -0.343318 -0.070718
0.638486 -0.110719 0.177852
0.657026 0.156404 -0.021773
0.638486 -0.347024 -0.257365
0.657026 -0.286421 -0.160069
0.657026 0.573777 0.100912
0.638486 0.195262 0.296321
0.638486 -0.30234 0.355465
0.638486 0.075457 0.193679
0.638486 -0.402952 0.326551
0.638486 -0.039771 0.047014
0.65526 -0.489091 0.375825
0.657026 0.389004 0.213323
0.657026 -0.457384 -0.377503
0.638486 0.493566 -0.00362
0.657026 -0.146433 -0.104524
0.638486 0.526768 -0.216006
0.638486 0.137891 -0.217349
0.657026 -0.222325 0.018339
0.657026 0.041142 -0.109206
0.657026 0.185846 -0.383971
0.657026 -0.443226 -0.273362
0.638486 -0.296676 0.139263
0.638486 0.043195 0.358335
0.657026 0.209329 -0.162788
0.638486 -0.487154 0.186718
0.638486 -0.021502 -0.376023
0.657026 -0.407828 0.234915
0.657026 -0.205129 0.325395
0.657026 -0.450324 0.014922
0.657026 0.444726 -0.22843
0.657026 0.149765 0.361976
0.657026 -0.117942 0.073137
0.657026 0.422487 -0.075522
0.657026 -0.062738 0.328959
0.657026 -0.038017 -0.235374
0.657026 0.542452 -0.392945
0.638486 -0.269709 -0.397776
0.657026 -0.155004 -0.283712
0.657026 0.247885 0.168512
0.638486 0.339916 -0.048761
0.657026 -0.281833 -0.298005
0.638486 -0.046759 -0.036706
0.657026 0.075705 -0.408516
0.657026 0.333236 -0.346104
0.657026 0.532235 0.16595
0.647444 0.294336 -0.468722
0.638486 -0.208312 -0.1457
0.657026 -0.079178 -0.466559
0.638486 0.330775 0.335539
0.657026 0.511492 -0.085637
0.657026 -0.286809 -0.021651
0.657026 0.324801 -0.196487
0.657026 0.218924 -0.071652
0.657026 0.252192 -0.240777
0.657026 0.38533 0.073986
0.657026 0.571518 0.237843
0.638486 0.443087 -0.305443
0.638486 0.22066 -0.452323
0.638486 0.09937 -0.058592
0.657026 0.022931 0.075664
0.657026 -0.397557 0.084231
0.657026 0.249618 0.339008
0.638486 0.089833 -0.275253
0.657026 -0.087103 0.245741
0.657026 0.448161 0.178804
0.657026 0.326693 0.18507
0.657026 -0.23375 0.167127
0.638486 0.009762 -0.280542
0.657026 0.575895 0.370426
0.657026 0.267895 -0.129803
0.638486 0.533118 0.050872
0.657026 -0.420866 -0.090701
0.657026 0.131884 -0.344947
0.638486 -0.262513 0.297669
0.657026 -0.282838 0.044795
0.657026 0.150598 0.249008
0.638486 -0.348905 -0.139254
0.657026 -0.390816 -0.321956
0.638486 0.545922 0.2943
0.638486 0.530814 -0.14429
0.638486 0.479874 -0.378345
0.638486 -0.010904 -0.170289
0.638486 0.394511 0.148668
0.657026 0.397709 -0.184925
0.638486 0.330298 0.038649
0.657026 -0.287387 -0.228128
0.657026 -0.372939 -0.017627
0.648468 -0.239986 -0.468722
0.638486 0.074704 -0.159053
0.638486 -0.20199 -0.412636
0.657026 0.128859 0.034308
0.657026 0.251928 0.104123
0.638486 -0.172755 0.173528
0.638486 -0.278903 0.212902
0.657026 -0.150161 0.236136
0.638486 -0.168758 0.043032
0.657026 0.278704 -0.045322
0.657026 -0.462246 -0.155473
0.657026 -0.000805 0.318643
0.657026 -0.1247 0.332609
0.657026 -0.098454 -0.246282
0.638486 0.147383 0.109413
0.652574 0.623328 -0.048468
0.657026 0.584595 -0.207796
0.648898 0.081343 -0.468722
0.638486 0.363039 0.265302
0.638486 0.043498 0.26431
0.638486 0.479898 0.299877
0.657026 -0.448852 0.142765
0.638486 -0.012696 0.203302
0.657026 -0.067744 0.105878
0.638486 0.202885 0.01014
0.657026 -0.102128 -0.142892
0.654765 -0.36108 -0.468722
0.657026 0.253743 -0.349546
0.657026 -0.290871 -0.087567
0.638486 0.197355 -0.236292
0.638486 0.040062 0.132134
0.657026 0.455115 -0.459895
0.638486 -0.207673 -0.298689
0.638486 -0.096667 -0.081737
0.657026 0.449603 0.344809
0.638486 0.129532 -0.411906
0.657026 -0.185807 -0.194666
0.657026 0.444889 0.034596
0.657026 0.435724 0.257342
0.657026 -0.350223 -0.203934
0.638486 0.007789 -0.051602
0.657026 -0.344222 0.115167
0.657026 0.390087 -0.310866
0.638486 0.314048 -0.276025
0.638486 0.203584 0.128078
0.638486 0.240607 0.262721
0.657026 0.365805 -0.402753
0.638486 0.56895 -0.290086
0.638486 -0.355717 0.294174
0.657026 0.381243 0.350709
0.638486 -0.251393 0.107581
0.638486 -0.341906 0.211057
0.638486 -0.07251 -0.19188
0.657026 0.586977 -0.349143
0.638486 -0.185889 -0.018075
0.638486 -0.123102 0.124561
0.638486 0.098642 0.360835
0.657026 -0.119078 -0.414306
0.638486 -0.173052 0.281604
0.638486 0.62294 0.11368
0.657026 -0.239138 -0.186547
0.638486 -0.009573 0.002121
0.657026 -0.047694 -0.419078
0.657026 -0.404874 -0.225741
0.657026 -0.352359 0.351737
0.638486 -0.481398 -0.329315
0.638486 -0.483586 0.325655
0.638486 -0.483235 -0.243657
0.638486 -0.334695 -0.308771
0.638486 -0.074334 -0.376908
0.657026 -0.405941 -0.395557
0.650469 0.623328 0.244182
0.638486 0.186798 -0.119177
0.657026 -0.027728 0.369659
0.657026 0.207375 0.225231
0.638486 0.206222 0.361597
0.657026 0.58616 0.151611
0.646622 0.623328 0.351512
0.657026 -0.182744 0.378048
0.638486 0.540872 -0.038194
0.657026 0.548053 -0.468609
0.657026 -0.028945 -0.325442
0.657026 0.296828 0.296353
0.657026 -0.065039 0.199087
0.657026 -0.254916 0.347236
0.657026 0.032701 -0.378158
0.657026 0.614401 -0.098754
0.657026 0.312711 -0.408592
0.638486 0.140677 -0.279688
0.638486 0.092217 0.145558
0.638486 -0.462603 0.231014
0.657026 0.078303 0.035729
0.657026 -0.422453 0.36935
0.657026 0.255791 -0.182397
0.657026 0.41225 -0.433597
0.638486 -0.405958 0.029432
0.638486 0.287489 0.38226
0.657026 -0.420891 0.18679
0.657026 0.118813 0.210588
0.638486 -0.248739 -0.330059
0.657026 0.524384 0.102535
0.657026 -0.409023 -0.449869
0.638486 0.142273 0.316916
0.657026 0.238891 0.04309
0.638486 0.110803 -0.011014
0.638486 -0.251626 -0.117876
0.638486 -0.142075 -0.059662
0.657026 -0.440512 -0.046312
0.657026 -0.162813 -0.150083
0.657026 0.170614 -0.070112
0.638486 0.579988 -0.42277
0.657026 0.294865 -0.31713
0.638486 0.484404 -0.186755
0.657026 -0.193306 -0.094504
0.657026 0.484991 -0.254217
0.657026 -0.328868 0.16889
0.657026 0.059398 0.316599
0.657026 -0.239344 0.063541
0.657026 -0.154545 -0.230201
0.638486 0.414454 -0.11815
0.638486 -0.293718 -0.35396
0.657026 0.431341 0.084144
0.638486 0.301444 -0.102459
0.657026 0.492283 0.064818
0.638486 0.29073 0.15711
0.657026 0.231077 -0.394925
0.638486 0.619994 -0.23157
0.657026 -0.48736 0.042702
0.657026 -0.232563 -0.030105
0.657026 -0.319714 0.316445
0.657026 -0.099165 0.29421
0.657026 0.47137 -0.039501
0.657026 0.489581 0.146308
0.638486 -0.397186 -0.052004
0.638486 0.233994 -0.032529
0.638486 -0.310224 0.076478
0.638486 0.093138 -0.105871
0.657026 -0.074954 0.154458
0.657026 -0.385759 -0.276519
0.657026 -0.230932 -0.382262
0.638486 -0.079241 0.024055
0.657026 -0.399241 0.285153
0.657026 0.53022 -0.25816
0.657026 0.380648 -0.055858
0.657026 0.421256 -0.26701
0.638486 0.516664 -0.347968
0.638486 -0.164346 -0.385697
0.657026 0.266243 -0.435018
0.657026 0.539727 0.002503
0.638486 0.486567 0.192981
0.657026 0.585763 0.281951
0.638486 0.146576 -0.173681
0.638486 0.368964 -0.213116
0.638486 0.321931 -0.008393
0.638486 -0.00787 0.102714
0.638486 -0.034236 -0.282015
0.657026 0.037421 -0.434413
0.641638 0.623328 -0.437529
0.638486 0.206711 -0.32897
0.657026 0.2338 -0.298714
0.657026 0.356906 0.304253
0.638486 0.029644 0.193615
0.657026 0.568438 -0.10052
0.638486 -0.335145 -0.027349
0.638486 -0.417757 0.119243
0.638486 0.620582 -0.329383
0.638486 0.083111 -0.363007
0.657026 0.580423 -0.164336
0.638486 -0.042062 0.29217
0.657026 0.438822 0.387932
0.638486 0.292244 0.097269
0.657026 0.26589 0.22238
0.638486 0.183699 -0.195761
0.638486 0.163564 0.051017
0.638486 0.501773 -0.414931
0.638486 0.16456 -0.323308
0.657026 0.355665 0.147119
0.657026 0.079355 0.231671
0.657026 -0.056836 -0.157109
0.638486 0.288175 -0.162078
0.657026 0.556611 0.332681
0.653765 -0.121344 -0.468722
0.638486 0.013403 0.037521
0.638486 0.051303 -0.072714
0.638486 0.333393 -0.444424
0.638486 -0.156224 -0.329021
0.657026 0.621423 0.029653
0.657026 0.475634 -0.327857
0.657026 -0.004352 -0.210328
0.657026 -0.313813 0.016701
0.638486 -0.263853 0.256021
0.657026 -0.444974 -0.321646
0.657026 -0.034651 -0.071888
0.638486 -0.23209 0.37658
0.657026 0.314307 -0.23892
0.638486 -0.372981 0.247642
0.638486 0.454341 0.225269
0.657026 -0.389859 -0.132724
0.638486 -0.304992 -0.191855
0.638486 0.234691 -0.11411
0.638486 0.212399 0.176167
0.638486 0.408795 -0.228699
0.657026 -0.045786 -0.000822
0.638486 0.383331 -0.152089
0.638486 0.098873 -0.227451
0.638486 -0.405211 -0.354716
0.657026 0.320781 0.075751
0.657026 -0.316203 -0.277084
0.657026 0.039657 -0.152621
0.657026 0.545628 -0.185829
0.638486 -0.108083 0.364762
0.638486 -0.258821 -0.250674
0.657026 -0.10652 -0.332381
0.657026 -0.440327 0.258528
0.657026 -0.471064 -0.21042
0.638486 0.574819 -0.250578
0.638486 -0.119144 -0.27515
0.657026 -0.383041 0.37663
0.657026 -0.074804 0.05855
0.638486 0.139552 -0.054539
0.657026 0.333349 0.377419
0.657026 -0.273048 0.168364
0.657026 -0.488518 0.14042
0.657026 -0.01603 -0.111636
0.638486 -0.196219 -0.260296
0.638486 0.454181 -0.009772
0.657026 -0.35962 0.072625
0.657026 -0.071181 0.375218
0.657026 0.196944 -0.427856
0.657026 0.35922 -0.178651
0.657026 0.019196 -0.330337
0.657026 0.062159 0.070831
0.638486 0.007741 0.285874
0.657026 0.254001 0.387157
0.657026 -0.460086 -0.417414
0.657026 -0.435921 -0.127289
0.657026 0.58329 0.063419
0.657026 -0.340325 -0.104164
0.657026 0.565252 0.185424
0.657026 -0.13834 0.272559
0.638486 0.430889 -0.180325
0.638486 -0.051022 0.248836
0.657026 0.350882 0.01269
0.657026 -0.471801 -0.06755
0.657026 0.436018 -0.340658
0.638486 0.101007 -0.329748
0.638486 0.48138 -0.117806
0.638486 0.30924 0.213451
0.657026 0.268696 -0.284564
0.657026 -0.032657 0.177327
0.638486 0.593285 -0.125811
0.657026 0.290122 0.349789
0.638486 0.546069 0.217516
0.657026 0.3318 0.274481
0.657026 -0.23977 0.20691
0.638486 0.359167 0.093198
0.657026 -0.20258 0.268136
0.657026 0.466304 -0.407638
0.638486 0.190433 -0.024929
0.638486 0.137902 0.178791
0.638486 -0.261973 0.02025
0.657026 0.598807 -0.305716
0.657026 -0.31388 -0.403705
0.657026 0.376132 -0.094649
0.657026 0.54026 0.380209
0.657026 0.399442 0.039839
0.638486 0.570472 -0.376456
0.638486 0.411695 -0.027139
0.657026 0.288861 0.188996
0.657026 0.14085 -0.382199
0.638486 0.550692 -0.07365
0.638486 0.34169 -0.300275
0.638486 0.543317 0.254857
0.657026 -0.137762 0.036705
0.638486 0.24124 0.199329
0.657026 -0.142746 0.183119
0.657026 0.032362 -0.258687
0.638486 0.332666 -0.147184
0.657026 0.281269 0.127149
0.638486 0.040527 -0.035627
0.638486 0.057682 -0.302052
0.638486 0.217803 -0.366686
0.638486 0.538291 -0.108788
0.657026 0.162595 0.159754
0.638486 -0.214854 -0.206091
0.657026 -0.303866 -0.053653
0.638486 -0.152176 -0.443592
0.638486 -0.383833 -0.197491
0.638486 0.458562 0.149017
0.657026 -0.043686 -0.459382
0.638486 0.293898 -0.348219
0.638486 0.47897 -0.223769
0.657026 0.104448 -0.150213
0.657026 -0.155016 -0.021087
0.657026 0.158288 -0.254272
0.657026 0.232222 -0.001726
0.638486 0.22126 0.093933
0.657026 0.359169 0.049176
0.638486 -0.181185 0.344477
0.657026 0.473005 0.261789
0.638486 -0.379397 0.108756
0.657026 0.546515 -0.35424
0.657026 -0.220893 0.093993
0.638486 0.373227 -0.373317
0.657026 0.56238 -0.319721
0.638486 -0.079742 -0.049978
0.657026 0.390426 0.252299
0.657026 0.35361 0.210759
0.657026 -0.30899 0.209744
0.657026 -0.385949 0.192933
0.657026 0.140618 0.283032
0.638486 0.107088 0.321172
0.638486 -0.146614 0.353085
0.638486 -0.375828 -0.237086
0.638486 0.04907 0.041841
0.638486 -0.0334 -0.203416
0.657026 -0.008706 -0.40291
0.638486 -0.274496 -0.048751
0.657026 0.336398 -0.382835
0.638486 -0.086683 -0.41727
0.657026 -0.16369 -0.415328
0.657026 -0.285447 0.09255
0.657026 0.131335 -0.307695
0.638486 -0.437864 -0.172119
0.638486 -0.294889 -0.25673
0.638486 0.496639 -0.154159
0.657026 0.479018 -0.288487
0.657026 0.471352 0.375654
0.657026 -0.100187 -0.201664
0.638486 0.181809 0.101095
0.657026 0.172663 0.33599
0.657026 -0.174938 0.144382
0.657026 -0.337126 -0.165993
0.638486 -0.422487 -0.303002
0.657026 -0.063177 -0.259113
0.657026 0.061879 0.167846
0.657026 -0.040656 0.07617
0.657026 0.283379 -0.07954
0.638486 0.56044 0.13796
0.657026 -0.365819 0.019959
0.638486 -0.29268 0.281026
0.638486 0.361404 -0.021876
0.657026 0.28123 -0.380155
0.657026 -0.009342 -0.028306
0.638486 0.206337 0.260803
0.638486 -0.242402 -0.157909
0.638486 -0.433628 -0.246227
0.638486 0.078745 -0.022924
0.657026 0.12878 -0.444743
0.638486 0.044477 0.224388
0.657026 0.273021 0.043997
0.657026 -0.458843 0.182217
0.657026 0.110558 0.063076
0.638486 0.011834 0.345001
0.638486 -0.285559 -0.117989
0.657026 -0.464789 0.34696
0.638486 -0.168696 0.207188
0.638486 0.331035 -0.086013
0.638486 -0.351743 -0.40819
0.638486 0.435428 0.112156
0.638486 0.017113 -0.124132
0.638486 -0.232832 -0.272261
0.657026 0.421308 0.139766
0.657026 0.258188 0.306371
0.657026 -0.074836 -0.106241
0.657026 -0.031328 0.228514
0.657026 0.284538 -0.254688
0.657026 -0.237428 0.28513
0.638486 -0.447722 0.381495
0.638486 0.27114 -0.018424
0.657026 0.161444 0.217287
0.657026 0.617031 -0.192628
0.638486 -0.371842 -0.352482
0.657026 -0.432204 0.3205
0.657026 0.080843 -0.079284
0.657026 0.507415 0.296191
0.638486 -0.475093 -0.123464
0.657026 0.472419 0.014278
0.638486 0.447746 -0.117089
0.638486 0.123107 0.133104
0.657026 0.188625 0.033807
0.638486 0.237466 -0.2174
0.657026 0.31475 -0.035045
0.657026 -0.473589 0.072802
0.638486 0.245364 -0.078916
0.638486 0.413641 0.20144
0.657026 0.092346 -0.303866
0.638486 0.337603 -0.25295
0.657026 0.514082 -0.034045
0.638486 -0.174586 -0.07491
0.657026 0.001195 0.180041
0.638486 0.609871 -0.366977
0.657026 -0.385766 -0.076504
0.657026 0.401089 0.37676
0.638486 0.257365 0.139361
0.638486 0.27726 0.326243
0.657026 -0.13612 -0.311297
0.657026 0.12658 -0.077938
0.657026 0.544319 0.075118
0.638486 0.407146 -0.289657
0.657026 0.180111 0.2657
0.638486 0.08887 0.262
0.657026 0.316118 0.149049
0.657026 -0.096776 0.120716
0.657026 -0.136635 0.151277
0.657026 0.605893 0.212439
0.638486 -0.317144 -0.132862
0.657026 0.054103 -0.184515
0.657026 -0.416773 -0.024354
0.657026 0.418473 -0.144281
0.638486 -0.044898 0.153904
0.657026 0.21887 0.308133
0.638486 0.269232 0.07272
0.638486 0.403718 0.117489
0.657026 -0.194704 -0.387462
0.638486 -0.263993 0.379968
0.638486 -0.227201 -0.35383
0.657026 -0.257403 -0.443183
0.638486 -0.148471 -0.258379
0.638486 -0.47172 0.120369
0.657026 -0.018598 -0.26088
0.638486 0.366387 0.17088
0.657026 -0.366796 -0.048994
0.657026 0.541272 -0.431331
0.657026 -0.069418 -0.02217
0.638486 0.368971 0.327939
0.657026 0.00222 -0.36576
0.638486 0.263035 -0.460643
0.657026 -0.356249 0.320206
0.649147 0.049584 -0.468722
0.657026 -0.195123 0.186337
0.657026 0.09734 -0.440391
0.638486 0.123504 0.235916
0.638486 0.441747 0.306007
0.638486 -0.155443 -0.179434
0.657026 0.599514 -0.257739
0.657026 -0.192772 0.006984
0.657026 -0.314318 0.051157
0.638486 0.519 0.187872
0.644403 0.403481 -0.468722
0.638486 0.072065 0.294074
0.657026 0.011083 0.212621
0.638486 0.150221 -0.140351
0.657026 0.151023 -0.099112
0.657026 0.072358 0.384697
0.657026 -0.268992 -0.359506
0.638486 -0.361931 0.185016
0.657026 -0.2458 0.316645
0.657026 -0.250922 -0.302907
0.638486 -0.366632 -0.164934
0.638486 -0.043495 0.112316
0.657026 0.564669 -0.13742
0.657026 0.615319 -0.011359
0.657026 0.118703 -0.034802
0.657026 0.563742 -0.02795
0.657026 -0.227609 -0.110791
0.638486 -0.262944 -0.082779
0.638486 0.184897 -0.157489
0.638486 0.172008 0.006236
0.638486 -0.053218 0.357867
0.638486 0.589053 0.120663
0.638486 0.509167 0.023261
0.657026 -0.20902 0.36149
0.638486 0.101437 0.176702
0.657026 0.420597 0.333807
0.638486 -0.416329 0.162362
0.638486 0.09258 -0.18437
0.657026 0.037968 0.107494
0.638486 -0.122722 -0.111521
0.638486 -0.295267 0.325393
0.638486 -0.012676 -0.236897
0.657026 0.305449 -0.441634
0.638486 -0.113365 -0.226757
0.638486 -0.34889 -0.44564
0.657026 0.418054 0.22558
0.638486 -0.413964 0.211201
0.657026 0.345209 0.246867
0.638486 0.036675 0.326972
0.657026 -0.360288 0.152347
0.657026 0.309976 0.025097
0.651732 0.183231 -0.468722
0.657026 0.026562 0.386853
0.657026 0.397304 0.172638
0.657026 -0.118719 -0.383881
0.657026 0.202216 0.152148
0.638486 0.400959 -0.086211
0.657026 0.505347 -0.205155
0.638486 0.105005 0.036217
0.638486 0.461505 -0.258619
0.638486 0.069297 0.1244
0.657026 0.324989 0.307166
0.638486 -0.072179 0.270317
0.638486 0.180234 0.376855
0.638486 -0.380389 -0.398875
0.657026 0.110301 -0.365892
0.638486 0.418022 0.025192
0.638486 0.027844 -0.305656
0.638486 -0.015843 0.06519
0.657026 -0.108812 -0.172896
0.638486 -0.478178 -0.439606
0.657026 -0.302744 -0.332134
0.657026 0.12132 0.352647
0.638486 -0.220518 0.307652
