-0.255472 0.296793 -0.330335
0.432454 -0.335043 -0.31597
-0.69188 0.579375 -0.330335
0.545509 -0.373608 -0.330335
0.163929 -0.461031 -0.330335
-0.688638 0.310764 -0.31597
-0.435416 -0.001986 -0.330335
0.672736 0.476766 -0.330335
-0.163816 0.086248 -0.31597
0.405309 0.539284 -0.31597
0.655964 0.154845 -0.31597
0.16922 0.325628 -0.330335
0.434166 0.559352 -0.31597
-0.078029 0.063922 -0.330335
0.22615 0.060301 -0.330335
-0.528857 0.283944 -0.31597
0.341611 0.589398 -0.31597
-0.578072 -0.238042 -0.330335
-0.203751 0.294606 -0.31597
0.307994 0.553989 -0.330335
-0.250561 0.331866 -0.31597
-0.518752 0.531578 -0.330335
0.365235 -0.085666 -0.31597
-0.097851 -0.167964 -0.31597
0.104601 -0.220146 -0.31597
0.056906 0.087361 -0.330335
-0.60734 0.049286 -0.330335
0.588918 -0.024572 -0.31597
-0.301671 0.53221 -0.330335
-0.591637 -0.00973 -0.330335
0.476866 -0.028826 -0.31597
-0.12425 0.371023 -0.31597
-0.343394 0.290016 -0.31597
0.517775 -0.433815 -0.31597
0.335806 -0.251235 -0.31597
-0.052699 -0.182144 -0.31597
-0.181053 0.009313 -0.330335
-0.329169 -0.032415 -0.31597
-0.68325 -0.108157 -0.330335
-0.252256 0.595151 -0.330335
0.200585 0.583092 -0.31597
-0.610762 -0.427073 -0.31597
-0.292775 0.101433 -0.31597
0.163644 0.025265 -0.31597
0.074574 0.478384 -0.31597
-0.357808 0.33336 -0.31597
-0.040882 0.147979 -0.31597
-0.065157 -0.077456 -0.31597
-0.654727 -0.45543 -0.330335
0.382104 -0.318953 -0.31597
-0.489683 -0.026313 -0.330335
0.120073 -0.076968 -0.31597
-0.693573 -0.296729 -0.330335
0.055163 0.350023 -0.31597
-0.519878 0.025848 -0.330335
-0.383504 -0.263836 -0.330335
-0.261753 0.484609 -0.330335
0.219947 0.127611 -0.31597
-0.625314 0.414243 -0.330335
0.662768 0.297826 -0.330335
-0.43821 -0.040996 -0.330335
0.522582 -0.069846 -0.31597
-0.144789 0.282778 -0.31597
0.603893 -0.408236 -0.31597
0.264411 -0.098182 -0.330335
0.712095 -0.276309 -0.330335
0.10434 0.445145 -0.31597
-0.059541 -0.243275 -0.330335
-0.05961 -0.026377 -0.330335
0.327015 0.066824 -0.330335
-0.157458 -0.046135 -0.330335
-0.591713 0.15868 -0.330335
0.56105 0.293173 -0.31597
-0.239378 0.202683 -0.31597
0.414706 -0.091885 -0.31597
0.416049 -0.204045 -0.330335
-0.545056 -0.066363 -0.31597
0.621013 0.113943 -0.330335
-0.422011 -0.26959 -0.330335
0.71127 -0.042241 -0.330335
-0.245243 0.003891 -0.31597
0.62544 -0.152151 -0.330335
0.593951 0.514536 -0.330335
0.21951 -0.066992 -0.330335
0.561968 0.599289 -0.330335
0.690771 -0.43164 -0.330335
0.428123 0.337633 -0.330335
-0.115229 0.561448 -0.330335
-0.059037 -0.356891 -0.31597
0.540316 0.474767 -0.330335
0.550061 0.438691 -0.330335
-0.383412 0.224767 -0.31597
-0.641715 0.593736 -0.330335
-0.053106 0.026449 -0.31597
-0.143536 -0.217396 -0.31597
0.505962 -0.383433 -0.330335
-0.550858 0.152337 -0.330335
-0.225606 -0.047105 -0.31597
0.276134 -0.233433 -0.31597
-0.163758 0.325437 -0.330335
-0.3102 0.247782 -0.330335
0.531564 0.368651 -0.31597
0.076021 -0.407859 -0.330335
0.668545 0.409794 -0.330335
0.301027 -0.154688 -0.31597
0.068268 -0.335813 -0.330335
0.07997 0.44855 -0.330335
0.478806 0.584442 -0.330335
0.281778 -0.305939 -0.31597
-0.552767 0.285617 -0.330335
0.496507 0.393741 -0.31597
-0.405458 0.047182 -0.330335
0.547089 0.062381 -0.330335
-0.291742 -0.376687 -0.330335
0.526321 -0.113431 -0.330335
0.70036 -0.328317 -0.330335
0.658605 -0.184515 -0.330335
-0.082638 -0.032695 -0.31597
0.003717 0.328433 -0.330335
-0.239959 -0.340515 -0.330335
-0.385314 0.590536 -0.31597
0.641305 0.361002 -0.330335
0.134346 0.01066 -0.31597
-0.314292 -0.312607 -0.330335
-0.358757 0.560312 -0.31597
-0.131848 -0.136223 -0.330335
-0.028698 0.030824 -0.330335
0.094284 0.104534 -0.31597
-0.352201 0.266984 -0.330335
-0.322746 0.04609 -0.31597
0.640493 0.509686 -0.330335
-0.03841 -0.057104 -0.330335
0.24906 0.556867 -0.330335
-0.566433 -0.005484 -0.31597
-0.615017 -0.311422 -0.330335
-0.638041 0.143014 -0.330335
0.612208 -0.2901 -0.330335
-0.488447 -0.251197 -0.330335
0.336551 0.453792 -0.31597
-0.216113 -0.249142 -0.31597
-0.197466 -0.280933 -0.330335
-0.158108 0.13744 -0.330335
-0.448062 -0.413944 -0.330335
0.358139 0.059609 -0.31597
0.237745 -0.257989 -0.330335
0.524129 0.427029 -0.330335
0.368622 -0.2627 -0.31597
0.572523 -0.117604 -0.31597
-0.246511 0.535193 -0.330335
-0.376211 0.495458 -0.31597
0.204983 0.238005 -0.330335
0.11784 0.32103 -0.330335
-0.467872 -0.110907 -0.31597
0.008681 -0.383748 -0.330335
0.065365 -0.100864 -0.330335
0.589581 0.454793 -0.31597
0.158668 -0.030402 -0.31597
-0.472999 0.05517 -0.330335
-0.126549 0.001932 -0.330335
0.540446 -0.161648 -0.330335
0.300707 -0.379295 -0.330335
-0.175205 0.468134 -0.330335
-0.299158 0.469317 -0.31597
-0.073591 0.3851 -0.330335
-0.690813 0.219225 -0.31597
0.135224 0.416363 -0.31597
0.028336 0.526012 -0.31597
-0.476608 0.289369 -0.330335
-0.446017 -0.34611 -0.31597
0.624569 0.415786 -0.330335
-0.4557 0.276842 -0.31597
0.311129 -0.342007 -0.31597
0.355031 0.529984 -0.31597
-0.603635 -0.042824 -0.330335
-0.473119 -0.282552 -0.330335
-0.378223 0.371586 -0.31597
-0.069437 0.359892 -0.31597
-0.098374 0.13357 -0.330335
-0.191159 -0.15855 -0.31597
-0.678488 -0.185058 -0.31597
0.726949 -0.22292 -0.330335
-0.547172 0.375871 -0.31597
0.187169 0.464826 -0.330335
-0.284924 -0.12882 -0.330335
-0.262379 -0.381008 -0.31597
0.564587 0.08311 -0.31597
-0.167045 0.512235 -0.330335
-0.447383 0.418473 -0.330335
0.336273 -0.150251 -0.330335
-0.341477 0.179705 -0.31597
0.568364 -0.346645 -0.31597
0.442035 0.314036 -0.330335
-0.244059 0.467407 -0.31597
0.439175 0.244408 -0.31597
0.341433 0.207039 -0.31597
-0.545307 -0.412232 -0.31597
0.655057 -0.012155 -0.330335
-0.53401 0.233891 -0.31597
0.728488 0.148712 -0.330335
-0.6605 0.078775 -0.31597
0.196498 0.209746 -0.31597
-0.358838 0.082168 -0.31597
-0.335527 -0.29212 -0.330335
0.161583 -0.220511 -0.330335
0.286271 0.481101 -0.330335
-0.46489 0.569849 -0.330335
0.596754 0.05243 -0.31597
0.164464 0.443442 -0.31597
-0.161562 -0.317093 -0.31597
-0.29849 -0.200633 -0.31597
0.535481 -0.136892 -0.31597
-0.638787 0.396242 -0.31597
0.441454 -0.300432 -0.330335
-0.313093 0.346772 -0.330335
0.346664 -0.009919 -0.31597
0.379611 -0.345497 -0.31597
-0.343717 -0.344353 -0.31597
0.134532 -0.413884 -0.31597
-0.626633 0.061505 -0.31597
0.206381 -0.315378 -0.330335
-0.422842 -0.457043 -0.31597
-0.652616 0.237827 -0.31597
-0.035299 0.596346 -0.31597
-0.275378 0.186453 -0.330335
-0.267653 -0.103684 -0.330335
-0.091844 -0.379067 -0.31597
-0.09683 0.525167 -0.31597
-0.494786 -0.30265 -0.330335
-0.380223 0.149883 -0.330335
-0.356085 -0.085705 -0.31597
0.089423 0.246899 -0.31597
0.658816 0.319688 -0.31597
-0.380221 0.104661 -0.330335
-0.181217 -0.437406 -0.31597
0.575289 0.028583 -0.31597
-0.677691 0.461803 -0.330335
0.097324 -0.291454 -0.31597
-0.513027 -0.378994 -0.330335
0.421742 0.224118 -0.31597
0.143418 0.045973 -0.31597
-0.26875 0.138717 -0.31597
0.263752 -0.029041 -0.330335
-0.57459 0.20886 -0.330335
0.734961 0.48473 -0.31597
-0.269046 0.071362 -0.330335
0.216508 -0.110777 -0.31597
-0.434236 -0.20698 -0.31597
-0.045541 -0.41711 -0.31597
0.1138 0.282483 -0.330335
-0.129442 0.063711 -0.330335
0.700971 0.283214 -0.31597
-0.081968 0.16858 -0.330335
0.590773 0.010456 -0.330335
-0.160644 -0.143301 -0.330335
-0.651375 -0.248148 -0.31597
0.14228 0.374721 -0.31597
0.019446 0.346153 -0.31597
0.313993 -0.063311 -0.330335
0.706879 -0.183765 -0.31597
0.509154 0.5841 -0.330335
-0.159062 0.05015 -0.330335
-0.262966 0.249497 -0.31597
0.415003 0.577494 -0.330335
-0.089331 -0.112839 -0.31597
-0.098644 -0.054945 -0.330335
0.205613 0.10561 -0.330335
0.550081 -0.461382 -0.330335
0.121829 -0.26871 -0.31597
0.682921 -0.123597 -0.31597
-0.103018 0.301424 -0.31597
-0.388996 0.281352 -0.330335
0.149157 0.523628 -0.31597
-0.621207 -0.081202 -0.330335
0.598225 0.130635 -0.330335
-0.072041 0.466938 -0.31597
-0.03172 0.356688 -0.31597
-0.344932 -0.169213 -0.330335
-0.505379 0.475193 -0.330335
0.42152 -0.40594 -0.330335
0.695925 0.363264 -0.330335
0.639911 0.074635 -0.31597
-0.201618 0.192802 -0.31597
0.428219 0.033792 -0.330335
0.650834 0.20105 -0.31597
0.427722 -0.228225 -0.31597
0.379461 0.188314 -0.330335
-0.19279 0.171608 -0.330335
-0.484712 -0.224183 -0.31597
0.650425 -0.343651 -0.330335
-0.645608 0.016204 -0.330335
0.204179 0.42722 -0.31597
0.282195 0.153083 -0.330335
-0.401405 0.411274 -0.330335
0.519276 -0.166641 -0.31597
0.128182 0.465055 -0.330335
-0.692081 0.609561 -0.324618
0.472314 -0.066274 -0.31597
-0.463237 -0.38942 -0.31597
-0.146052 0.422636 -0.330335
-0.009153 0.140569 -0.330335
-0.335616 0.357837 -0.31597
0.415968 0.088943 -0.330335
0.369649 0.343318 -0.330335
-0.205762 -0.110723 -0.31597
0.198201 -0.047887 -0.330335
-0.206612 -0.217485 -0.31597
0.02657 -0.290642 -0.31597
-0.597906 -0.078085 -0.31597
-0.56046 0.171435 -0.31597
0.029777 0.369736 -0.31597
0.583965 -0.22469 -0.330335
-0.608233 0.512709 -0.330335
-0.618129 0.354836 -0.31597
-0.324511 0.071725 -0.31597
0.394465 0.001612 -0.330335
0.353642 0.034332 -0.31597
-0.536059 -0.254438 -0.330335
-0.233507 0.414278 -0.31597
0.294555 0.224978 -0.31597
0.367337 0.576472 -0.330335
-0.084509 -0.449459 -0.330335
0.687243 -0.360422 -0.31597
-0.363553 0.452797 -0.330335
0.594408 0.224613 -0.330335
-0.34877 0.13222 -0.330335
0.73472 0.272719 -0.330335
0.627734 -0.050669 -0.330335
0.208184 -0.389671 -0.31597
0.642893 0.448561 -0.330335
0.587916 0.303554 -0.330335
-0.085008 0.586653 -0.330335
-0.231098 0.287158 -0.31597
-0.173054 -0.176616 -0.31597
-0.453904 -0.170561 -0.31597
-0.333765 0.562311 -0.330335
0.493398 0.245456 -0.31597
-0.32129 0.014502 -0.330335
0.487227 -0.17598 -0.330335
0.452261 0.541351 -0.31597
-0.629084 -0.444819 -0.330335
0.452952 0.13251 -0.31597
0.33864 -0.354045 -0.31597
-0.539194 0.402228 -0.330335
-0.060047 0.074841 -0.31597
0.632622 0.59181 -0.31597
0.470866 -0.095831 -0.330335
0.097738 0.302226 -0.330335
-0.552166 -0.046603 -0.330335
0.587611 -0.177389 -0.330335
0.250185 -0.3598 -0.31597
0.194887 -0.009446 -0.31597
-0.461047 0.469947 -0.31597
0.113311 0.500047 -0.31597
-0.134105 -0.103286 -0.31597
-0.099528 0.464361 -0.31597
0.556492 -0.083456 -0.330335
0.699664 -0.240375 -0.31597
0.450958 0.16169 -0.31597
-0.136876 -0.261009 -0.31597
0.734215 0.004356 -0.31597
0.390797 -0.037737 -0.330335
0.456866 -0.262384 -0.31597
-0.102821 0.012627 -0.31597
0.249063 -0.149659 -0.31597
0.504074 -0.079023 -0.330335
-0.317689 0.419418 -0.330335
0.15543 -0.295294 -0.330335
-0.585982 0.603601 -0.31597
-0.569868 0.334514 -0.330335
-0.197735 0.376345 -0.31597
0.094626 -0.370318 -0.330335
0.121465 -0.31543 -0.330335
-0.527406 -0.436067 -0.31597
-0.155041 0.584196 -0.330335
-0.141626 -0.32446 -0.330335
0.510056 0.014435 -0.330335
-0.604916 0.478373 -0.31597
0.721652 0.584163 -0.330335
-0.482147 -0.345848 -0.330335
-0.491618 0.355413 -0.330335
-0.014107 0.009462 -0.31597
0.282106 0.374161 -0.330335
0.005339 0.408192 -0.330335
-0.253872 0.05158 -0.31597
-0.168282 -0.080461 -0.330335
-0.292064 0.205019 -0.330335
-0.102917 -0.007777 -0.330335
0.663967 0.504723 -0.31597
-0.161654 0.003039 -0.31597
0.137118 0.591465 -0.31597
0.028918 0.601904 -0.31597
0.343411 -0.270131 -0.330335
0.675342 -0.0139 -0.31597
0.479559 -0.411866 -0.31597
0.307684 -0.018503 -0.31597
-0.392905 -0.134189 -0.330335
0.441536 0.204824 -0.31597
-0.615145 0.45456 -0.330335
0.047636 -0.164891 -0.330335
0.653282 -0.404699 -0.330335
0.401999 0.130299 -0.31597
-0.567312 -0.451962 -0.330335
-0.557918 0.546249 -0.330335
-0.091692 0.109646 -0.330335
-0.47967 0.151719 -0.330335
-0.351919 -0.126247 -0.31597
-0.652321 -0.055765 -0.31597
0.660474 0.044839 -0.330335
0.052805 -0.446657 -0.31597
-0.521641 -0.292009 -0.330335
-0.120889 -0.386651 -0.330335
-0.438092 0.260911 -0.330335
-0.486902 -0.069265 -0.330335
-0.463311 -0.440441 -0.31597
-0.621551 -0.165912 -0.330335
-0.14391 0.100912 -0.31597
0.691227 0.497455 -0.330335
-0.642099 -0.210129 -0.330335
0.472006 -0.228396 -0.330335
0.03179 0.147415 -0.330335
-0.014335 0.486145 -0.330335
0.620507 -0.266861 -0.330335
-0.155987 0.361534 -0.330335
0.308661 0.326263 -0.31597
0.684673 0.19419 -0.330335
-0.215736 -0.188987 -0.330335
0.454382 0.367394 -0.31597
0.068851 -0.359128 -0.31597
0.296188 0.053512 -0.330335
-0.440014 0.562718 -0.330335
0.272405 0.584342 -0.31597
0.130179 -0.221775 -0.31597
0.004902 0.158638 -0.31597
-0.333557 -0.24719 -0.31597
-0.632532 -0.294601 -0.31597
0.079607 0.502386 -0.31597
-0.070687 -0.128751 -0.31597
0.598945 0.395632 -0.330335
0.685387 0.022022 -0.330335
0.728322 0.242624 -0.330335
0.626221 0.48982 -0.31597
0.309638 0.264397 -0.31597
-0.56118 0.462442 -0.31597
-0.008831 -0.013235 -0.330335
0.672057 0.598861 -0.330335
0.235268 0.192332 -0.330335
0.191853 -0.279902 -0.31597
0.042093 -0.371251 -0.330335
-0.36041 0.005352 -0.31597
0.471324 0.452159 -0.330335
0.50625 0.196947 -0.330335
0.735784 -0.122173 -0.330335
0.655483 -0.272046 -0.330335
-0.49337 0.088972 -0.31597
0.120532 -0.368021 -0.31597
0.274739 0.27443 -0.31597
0.160179 -0.138116 -0.31597
0.695014 -0.094046 -0.31597
0.082703 -0.443195 -0.31597
0.24958 -0.057253 -0.330335
0.142655 -0.192692 -0.330335
-0.104072 0.57756 -0.31597
0.352973 -0.042107 -0.31597
-0.640645 0.431732 -0.31597
0.549477 0.188003 -0.31597
0.423676 0.125631 -0.330335
-0.660797 -0.39924 -0.31597
0.659606 0.254014 -0.330335
-0.439163 0.514984 -0.31597
-0.447831 0.139804 -0.330335
0.153358 0.161539 -0.330335
-0.132316 -0.305109 -0.31597
-0.651255 -0.337176 -0.330335
0.508449 0.260273 -0.330335
-0.475755 0.110595 -0.330335
-0.607746 0.147595 -0.31597
0.056932 0.277516 -0.330335
-0.418711 -0.093957 -0.31597
-0.640642 0.28737 -0.330335
-0.214669 0.322951 -0.31597
-0.632934 -0.380432 -0.31597
0.200964 -0.23325 -0.330335
-0.216506 0.511626 -0.330335
0.245647 0.361714 -0.330335
0.250264 0.09607 -0.330335
-0.114212 0.497893 -0.31597
-0.313967 -0.115441 -0.31597
-0.37863 0.205985 -0.330335
-0.556667 -0.288443 -0.330335
-0.571766 -0.153432 -0.31597
0.177944 -0.170902 -0.31597
-0.254067 -0.118257 -0.31597
0.249892 0.310047 -0.330335
0.424927 0.266969 -0.330335
-0.446475 -0.02353 -0.31597
-0.341914 0.412727 -0.31597
0.737555 0.365744 -0.330335
-0.364034 -0.166575 -0.31597
-0.106789 -0.436882 -0.31597
0.395123 -0.115376 -0.330335
-0.450935 -0.120109 -0.330335
0.064546 0.333203 -0.330335
-0.530573 0.50411 -0.31597
0.206132 0.040452 -0.330335
0.209641 -0.438893 -0.31597
0.426298 -0.356521 -0.330335
-0.209117 0.049793 -0.330335
0.122158 -0.050803 -0.31597
0.507175 0.512289 -0.330335
0.365594 -0.107754 -0.330335
0.128777 0.144994 -0.31597
-0.661489 0.292916 -0.31597
0.737597 -0.097985 -0.330335
-0.246347 0.394076 -0.31597
-0.122924 0.451013 -0.330335
0.087146 -0.191793 -0.31597
-0.056268 -0.29376 -0.330335
-0.691825 0.20012 -0.330335
0.479469 0.081618 -0.330335
-0.428818 -0.178796 -0.330335
0.204106 0.550315 -0.31597
0.470419 0.028037 -0.330335
-0.139986 0.047808 -0.31597
-0.128551 0.329074 -0.330335
0.024958 0.243039 -0.31597
0.689211 0.068652 -0.31597
0.496056 -0.310746 -0.31597
-0.609647 0.18995 -0.330335
-0.050407 -0.440928 -0.31597
-0.298044 0.448484 -0.330335
-0.50475 -0.143809 -0.330335
-0.64178 0.311862 -0.31597
-0.509346 0.168137 -0.31597
-0.283398 0.407735 -0.31597
-0.646611 0.360629 -0.330335
-0.627489 0.031635 -0.330335
0.284055 0.20363 -0.330335
-0.595423 -0.254302 -0.330335
-0.141025 0.127681 -0.31597
-0.222825 0.23827 -0.330335
-0.024312 0.53106 -0.31597
0.373564 -0.208348 -0.31597
-0.457923 -0.310755 -0.330335
-0.550322 0.332369 -0.31597
0.532224 0.518538 -0.330335
-0.030922 0.126458 -0.31597
-0.226401 0.003711 -0.330335
0.102381 0.342732 -0.31597
0.47603 0.320832 -0.330335
-0.580292 0.511604 -0.330335
0.640965 -0.439429 -0.330335
0.12564 -0.43046 -0.330335
0.375048 0.412598 -0.31597
-0.605247 -0.022689 -0.31597
0.161896 0.115215 -0.31597
-0.237617 -0.135237 -0.31597
0.342423 0.017472 -0.330335
-0.676919 -0.285272 -0.31597
-0.143888 -0.193789 -0.31597
-0.020122 0.398501 -0.330335
0.466524 0.499956 -0.330335
0.710442 0.452649 -0.31597
-0.207995 0.574782 -0.330335
-0.256768 0.422196 -0.31597
0.663515 -0.156018 -0.31597
0.386352 -0.247178 -0.31597
-0.657826 0.146705 -0.31597
-0.480558 0.201773 -0.330335
0.587522 -0.417145 -0.330335
-0.203903 -0.038011 -0.31597
0.154905 0.095619 -0.330335
0.231007 0.471909 -0.31597
-0.326998 0.141791 -0.330335
-0.001523 -0.278605 -0.31597
-0.184674 0.130228 -0.31597
0.024407 -0.365608 -0.31597
-0.091229 0.212204 -0.330335
-0.55445 -0.186191 -0.31597
-0.599877 0.554502 -0.31597
0.643152 0.337636 -0.330335
0.644617 0.293769 -0.31597
0.007206 0.476929 -0.330335
0.049679 0.052032 -0.31597
0.11278 0.104656 -0.330335
-0.055727 0.393274 -0.31597
0.292987 -0.246811 -0.330335
0.469362 -0.348028 -0.31597
-0.410686 0.525191 -0.31597
-0.419381 -0.048936 -0.31597
0.281205 0.087994 -0.31597
-0.212281 -0.378304 -0.31597
0.030153 0.281827 -0.330335
0.22232 -0.024274 -0.330335
0.191336 0.30422 -0.330335
0.3529 -0.317129 -0.330335
0.601215 0.579652 -0.31597
0.305959 0.520303 -0.330335
0.714955 0.508812 -0.31597
-0.569821 0.57849 -0.330335
-0.693245 0.082336 -0.31597
-0.540468 0.086616 -0.330335
-0.517409 0.368224 -0.330335
0.55542 0.162654 -0.31597
-0.558425 -0.209052 -0.330335
-0.516453 -0.210797 -0.31597
0.68929 -0.198038 -0.330335
0.602954 0.605513 -0.330335
0.001354 -0.449135 -0.31597
0.272583 0.4686 -0.31597
-0.621391 -0.121521 -0.31597
0.501687 0.050992 -0.330335
-0.287287 0.001097 -0.330335
-0.030127 0.45296 -0.330335
0.165284 -0.320801 -0.31597
-0.492017 -0.163609 -0.31597
0.336461 -0.080066 -0.31597
-0.343456 -0.048865 -0.330335
-0.265119 0.56582 -0.330335
-0.448621 -0.267659 -0.330335
-0.581929 -0.097601 -0.330335
-0.357101 -0.444886 -0.330335
0.10605 0.032972 -0.31597
0.052465 0.309019 -0.31597
-0.563417 0.0519 -0.31597
-0.4266 -0.122821 -0.31597
-0.174299 -0.391215 -0.330335
0.43334 -0.006124 -0.330335
0.381593 0.135391 -0.330335
0.187484 0.089222 -0.31597
0.392059 -0.166022 -0.31597
0.188242 -0.33376 -0.31597
0.09312 0.598186 -0.31597
-0.693678 0.009232 -0.330335
0.068564 -0.238233 -0.330335
0.255757 0.511295 -0.31597
0.011006 0.045927 -0.31597
0.706546 0.11195 -0.330335
-0.594787 0.415006 -0.31597
-0.079301 0.126874 -0.31597
0.642548 -0.390398 -0.31597
-0.317655 0.279321 -0.330335
-0.022529 0.557326 -0.31597
-0.061911 0.241082 -0.330335
-0.164861 -0.252881 -0.31597
-0.384053 -0.168755 -0.330335
0.236729 -0.405779 -0.31597
0.003461 -0.247215 -0.31597
-0.180829 0.091429 -0.330335
0.180574 0.183755 -0.330335
0.480741 0.265892 -0.31597
0.327753 0.57125 -0.31597
-0.477838 0.449575 -0.330335
-0.393022 -0.313071 -0.31597
0.449781 -0.316754 -0.31597
-0.058917 0.009737 -0.330335
0.414096 -0.249218 -0.330335
-0.584696 -0.050355 -0.31597
0.666618 -0.034949 -0.31597
0.376192 -0.226548 -0.330335
0.313924 0.212983 -0.31597
-0.149428 0.561793 -0.330335
0.607962 -0.003613 -0.31597
0.30353 -0.128148 -0.330335
0.139235 -0.093844 -0.330335
-0.172179 -0.123696 -0.330335
-0.194187 0.264686 -0.330335
0.156447 -0.354726 -0.31597
-0.376773 -0.192843 -0.31597
-0.128103 -0.208892 -0.330335
-0.197285 0.473507 -0.330335
0.239468 0.492283 -0.330335
0.076108 0.135343 -0.330335
-0.585913 -0.361459 -0.330335
0.663475 0.389937 -0.31597
0.573447 0.127453 -0.330335
0.589936 -0.108534 -0.330335
-0.305431 0.08937 -0.330335
-0.567635 0.528241 -0.31597
0.036096 -0.262493 -0.31597
-0.286632 -0.181366 -0.31597
-0.496904 0.259709 -0.330335
-0.136684 -0.04147 -0.31597
0.331429 0.408372 -0.31597
-0.563952 -0.136498 -0.330335
-0.053702 0.550858 -0.31597
0.343219 0.381292 -0.330335
0.67885 0.330261 -0.330335
0.314938 0.040368 -0.31597
-0.464953 0.372219 -0.330335
-0.30317 -0.155412 -0.330335
0.584815 0.164681 -0.31597
0.247173 0.292874 -0.31597
-0.622299 0.21491 -0.330335
-0.151367 0.29885 -0.330335
0.628727 -0.282158 -0.31597
0.473473 -0.331159 -0.330335
-0.007629 0.434042 -0.31597
0.160914 0.55994 -0.31597
0.734975 0.342364 -0.330335
-0.678437 -0.235055 -0.330335
0.593934 0.069474 -0.330335
-0.363079 0.145109 -0.31597
0.301071 0.428761 -0.31597
0.593096 -0.060134 -0.31597
0.576943 0.384768 -0.330335
0.566394 0.203304 -0.31597
0.404322 0.303412 -0.330335
0.510898 0.440952 -0.31597
0.528811 0.219091 -0.330335
-0.06626 0.191052 -0.330335
0.246103 -0.297166 -0.330335
0.336592 0.283404 -0.31597
0.126211 -0.128845 -0.330335
0.289722 0.580936 -0.330335
-0.659714 -0.102422 -0.330335
0.253988 -0.410322 -0.330335
-0.242602 -0.310918 -0.31597
0.596397 0.470921 -0.330335
-0.425551 0.206436 -0.31597
0.046017 -0.201719 -0.31597
0.413137 -0.038172 -0.330335
-0.007483 -0.313946 -0.330335
0.015686 0.208299 -0.31597
0.144156 0.327559 -0.31597
0.665494 -0.391511 -0.31597
-0.526298 0.21458 -0.330335
-0.434569 0.492528 -0.330335
0.691912 0.386147 -0.330335
0.583518 0.40284 -0.31597
-0.279701 0.051967 -0.31597
-0.235175 -0.460533 -0.330335
0.004937 -0.113234 -0.330335
0.31124 0.015902 -0.330335
0.182399 0.279824 -0.330335
0.514804 -0.249977 -0.31597
-0.028035 -0.112001 -0.330335
-0.637659 -0.023125 -0.31597
-0.485353 0.609561 -0.324031
-0.667123 0.330282 -0.31597
-0.339659 0.248661 -0.330335
0.363975 0.365216 -0.330335
-0.121838 -0.329812 -0.31597
-0.575827 0.438916 -0.31597
0.500473 -0.031942 -0.330335
0.534579 0.042558 -0.330335
0.064311 0.240151 -0.330335
0.137825 0.557768 -0.330335
-0.021065 -0.334106 -0.330335
0.496987 0.075685 -0.31597
-0.366569 0.224689 -0.330335
0.285554 -0.195849 -0.330335
0.078507 -0.177336 -0.330335
-0.005794 -0.221038 -0.330335
-0.024038 -0.414305 -0.330335
-0.109553 -0.076734 -0.31597
0.270158 0.550217 -0.330335
-0.44715 0.079943 -0.31597
-0.177456 0.240302 -0.31597
-0.186693 0.303964 -0.330335
0.669196 0.094563 -0.330335
-0.443602 0.39662 -0.330335
0.368321 0.266175 -0.330335
-0.574411 -0.301476 -0.330335
-0.558147 -0.019954 -0.330335
-0.191568 -0.240373 -0.31597
-0.353819 -0.255745 -0.31597
-0.093638 0.356394 -0.31597
-0.434965 0.359645 -0.330335
-0.447192 0.31608 -0.330335
-0.02531 -0.355106 -0.31597
0.193324 0.367213 -0.330335
-0.528454 -0.190254 -0.330335
0.497228 0.534655 -0.31597
0.248766 0.171085 -0.330335
-0.39731 0.341059 -0.31597
-0.224691 0.488121 -0.31597
0.541695 -0.394962 -0.31597
0.080433 -0.261978 -0.31597
0.293215 -0.458583 -0.31597
0.405117 0.064537 -0.330335
-0.057762 -0.406012 -0.330335
-0.38948 0.240109 -0.330335
0.471029 -0.457805 -0.31597
-0.005917 -0.176378 -0.330335
-0.103664 -0.235638 -0.31597
-0.662362 -0.304429 -0.330335
0.445408 0.428491 -0.330335
-0.494148 0.516931 -0.330335
0.015161 -0.341413 -0.330335
0.641828 0.53146 -0.330335
0.27012 -0.080487 -0.31597
-0.180282 0.593093 -0.330335
-0.378154 -0.010968 -0.31597
0.041217 0.591064 -0.330335
0.555055 -0.284531 -0.31597
-0.333261 -0.331751 -0.330335
0.257334 -0.174028 -0.330335
-0.491546 -0.042539 -0.31597
0.029553 -0.429652 -0.330335
-0.677452 -0.342285 -0.330335
-0.597603 -0.343033 -0.31597
0.68082 0.28533 -0.330335
0.561183 -0.369174 -0.31597
0.384288 -0.390069 -0.330335
-0.32233 -0.348019 -0.31597
0.181925 -0.233292 -0.31597
0.208098 -0.136805 -0.330335
0.365277 0.474202 -0.330335
0.519857 -0.358735 -0.31597
0.559548 -0.427095 -0.330335
-0.355821 0.317255 -0.330335
-0.532126 -0.041616 -0.31597
-0.598375 0.23539 -0.31597
0.228515 0.313501 -0.330335
0.404173 -0.324315 -0.31597
0.265606 -0.32983 -0.330335
0.605964 0.108027 -0.31597
-0.63662 0.373335 -0.31597
-0.165208 0.400324 -0.31597
0.738003 0.322715 -0.31597
-0.230898 -0.183441 -0.31597
-0.618276 0.264575 -0.31597
0.177921 -0.005941 -0.330335
-0.607658 0.367103 -0.330335
-0.619969 -0.390012 -0.330335
-0.654201 0.200059 -0.330335
-0.290458 0.491222 -0.330335
0.363902 0.440717 -0.31597
0.47837 0.605896 -0.31597
-0.273011 -0.240708 -0.330335
-0.628581 0.105501 -0.31597
0.275523 0.518184 -0.330335
0.090194 -0.400256 -0.31597
0.425096 0.383374 -0.31597
-0.406437 0.546311 -0.31597
-0.142869 -0.455864 -0.330335
0.136128 0.066232 -0.31597
0.672335 0.220887 -0.330335
0.322939 0.361342 -0.31597
0.574236 0.450247 -0.330335
-0.460693 0.185353 -0.330335
-0.528016 0.574856 -0.330335
0.175358 0.59762 -0.330335
-0.555669 0.590153 -0.31597
-0.563462 0.120264 -0.330335
-0.592585 -0.383382 -0.31597
-0.162531 -0.012884 -0.330335
0.080123 0.088416 -0.31597
0.618752 0.011855 -0.330335
0.316613 0.455158 -0.330335
0.114498 -0.158526 -0.330335
0.090529 -0.097798 -0.330335
-0.673429 -0.050816 -0.330335
-0.531399 -0.223583 -0.330335
-0.152761 0.247249 -0.31597
-0.5451 0.308682 -0.31597
0.383911 0.480471 -0.31597
-0.560992 -0.340605 -0.31597
-0.602805 -0.204999 -0.330335
0.401356 -0.070516 -0.330335
-0.673182 0.551327 -0.31597
0.475105 0.166947 -0.330335
-0.648661 -0.002319 -0.31597
-0.025115 -0.048499 -0.31597
0.237431 -0.242159 -0.31597
0.05847 0.529472 -0.31597
0.07303 0.282491 -0.31597
0.675001 0.168755 -0.31597
0.285882 -0.214436 -0.31597
0.193143 0.161644 -0.31597
-0.145883 0.208164 -0.330335
-0.033585 0.191791 -0.330335
-0.146687 -0.178235 -0.330335
0.432662 -0.055805 -0.330335
0.716666 -0.409349 -0.31597
-0.27781 0.161737 -0.330335
0.318879 -0.198686 -0.31597
0.408006 0.439702 -0.31597
-0.51748 -0.004867 -0.330335
0.021707 -0.026405 -0.330335
0.42949 0.438103 -0.31597
0.496842 -0.262544 -0.31597
0.696962 0.149525 -0.330335
0.497326 -0.331484 -0.330335
-0.57502 0.069751 -0.31597
-0.138045 0.409179 -0.31597
0.628063 0.468667 -0.31597
-0.109701 0.201804 -0.31597
0.733154 0.034671 -0.330335
-0.127589 0.284202 -0.330335
-0.296342 0.254864 -0.31597
0.404397 0.3629 -0.31597
0.48457 -0.056687 -0.330335
0.43063 -0.187602 -0.31597
0.49687 0.450955 -0.330335
0.241972 0.401522 -0.31597
-0.662337 -0.139042 -0.330335
0.089646 -0.121485 -0.330335
0.022633 0.451844 -0.31597
0.071059 -0.293192 -0.31597
0.516678 -0.026141 -0.31597
0.330149 0.19503 -0.330335
-0.569209 -0.403942 -0.31597
-0.665613 0.165355 -0.330335
-0.49153 -0.427638 -0.31597
0.654382 -0.421272 -0.31597
0.465227 0.113135 -0.330335
-0.123339 0.238024 -0.31597
0.486933 -0.16051 -0.31597
0.581972 0.531917 -0.330335
0.075171 0.37191 -0.330335
-0.368491 -0.120613 -0.330335
-0.477476 0.246365 -0.330335
-0.043953 -0.460993 -0.31597
-0.255624 0.437821 -0.330335
-0.214038 0.118042 -0.31597
-0.400736 0.09989 -0.330335
-0.14068 0.17371 -0.330335
0.055741 0.103311 -0.31597
0.411684 -0.226147 -0.330335
0.211836 0.273282 -0.330335
-0.172472 0.379582 -0.31597
-0.431262 0.233511 -0.330335
-0.192442 0.48804 -0.31597
0.325984 0.118033 -0.31597
-0.447754 0.335192 -0.31597
-0.536386 0.264226 -0.330335
-0.274009 -0.047472 -0.330335
0.421244 0.0746 -0.31597
-0.556847 0.099101 -0.31597
0.036619 -0.408347 -0.31597
-0.545909 0.12689 -0.31597
-0.073143 -0.166395 -0.31597
-0.543747 0.203565 -0.31597
0.680081 -0.323078 -0.330335
-0.527999 0.105294 -0.31597
-0.176621 -0.443858 -0.028829
0.411233 -0.443858 0.006569
-0.473697 -0.443858 -0.023642
0.113861 -0.443858 0.027992
0.328113 -0.443858 -0.254969
-0.324569 -0.443858 0.181225
0.550834 -0.443858 -0.186415
0.020407 -0.443858 -0.185231
0.608478 -0.443858 0.103362
0.298677 -0.443858 0.203636
-0.062361 -0.443858 0.140561
-0.320154 -0.443858 -0.163927
-0.556331 -0.443858 0.166321
0.251636 -0.443858 -0.093339
-0.659461 -0.443858 -0.009854
-0.540429 -0.443858 -0.18371
-0.155731 -0.443858 -0.195344
0.101167 -0.443858 0.18313
-0.026169 -0.443858 -0.040899
0.178198 -0.443858 -0.224663
-0.314252 -0.443858 0.034798
0.261147 -0.443858 0.051036
0.42443 -0.443858 -0.135197
0.470607 -0.443858 0.12484
0.128884 -0.443858 -0.101654
-0.185399 -0.443858 0.093002
-0.430474 -0.443858 0.1188
-0.438157 -0.443858 -0.238357
0.663216 -0.443858 -0.172126
-0.021317 -0.443858 -0.295522
0.701375 -0.443858 0.014885
-0.260307 -0.443858 0.288477
-0.407105 -0.443858 0.27828
0.363621 -0.443858 0.103463
0.009852 -0.443858 0.060288
-0.373987 -0.443858 -0.060916
0.220586 -0.443858 0.295683
-0.613871 -0.443858 -0.107634
-0.103125 -0.443858 0.26443
-0.569626 -0.443858 0.063754
0.463631 -0.443858 -0.240412
-0.242758 -0.443858 -0.10257
0.669918 -0.443858 0.26628
-0.062591 -0.443858 -0.132358
0.506818 -0.443858 0.033546
-0.218186 -0.443858 -0.270767
0.512737 -0.443858 -0.094701
0.479855 -0.443858 0.265534
0.392847 -0.443858 0.22038
-0.636582 -0.443858 0.241562
-0.416728 -0.443858 -0.147864
0.344322 -0.443858 -0.087284
0.680484 -0.443858 0.174329
-0.60698 -0.443858 -0.251455
-0.106611 -0.443858 0.046558
0.172134 -0.443858 0.125969
0.186415 -0.443858 -0.030249
0.094048 -0.443858 -0.2612
0.540265 -0.443858 -0.281116
-0.401706 -0.443858 0.024479
-0.529148 -0.443858 -0.089598
-0.238875 -0.443858 0.167674
0.318298 -0.443858 -0.169238
-0.637537 -0.443858 0.116478
0.060838 -0.443858 -0.04971
0.684992 -0.443858 -0.06662
-0.466971 -0.443858 0.198227
0.136164 -0.443858 0.263916
0.078922 -0.443858 0.104938
-0.134747 -0.443858 0.189351
-0.557477 -0.443858 0.258019
0.613024 -0.443858 -0.237994
0.311344 -0.443858 -0.014121
-0.240524 -0.443858 -0.194593
-0.095373 -0.443858 -0.249971
-0.338725 -0.443858 -0.246161
-0.106766 -0.443858 -0.064738
0.314805 -0.443858 0.289749
-0.35162 -0.443858 0.102884
0.393869 -0.443858 -0.206867
-0.482731 -0.443858 0.063281
-0.577631 -0.443858 -0.011919
0.254915 -0.443858 -0.211035
0.273058 -0.443858 0.133019
0.012735 -0.443858 0.141326
-0.292076 -0.443858 -0.046068
-0.650515 -0.443858 -0.174336
0.524515 -0.443858 0.180106
0.682015 -0.443858 0.08665
0.063276 -0.443858 0.291479
-0.24047 -0.443858 0.033134
0.442414 -0.443858 -0.064156
-0.332143 -0.443858 0.274303
-0.532117 -0.443858 -0.256016
0.205697 -0.443858 -0.146912
0.041014 -0.443858 -0.116935
-0.150209 -0.443858 -0.125989
0.698488 -0.443858 -0.26424
-0.281354 -0.443858 0.115365
-0.044725 -0.443858 0.02244
0.413932 -0.443858 0.284032
0.177958 -0.443858 0.040752
0.090933 -0.443858 -0.158523
-0.037675 -0.443858 -0.220854
0.449187 -0.443858 0.185796
0.604184 -0.443858 -0.147482
-0.388869 -0.443858 0.166865
0.545383 -0.443858 0.096559
-0.437364 -0.443858 -0.088145
0.033059 -0.443858 -0.24693
-0.635374 -0.443858 0.047596
-0.218339 -0.443858 0.225867
-0.121892 -0.443858 0.10632
0.544689 -0.443858 -0.037222
-0.490749 -0.443858 0.130517
-0.621725 -0.443858 0.182127
0.618091 -0.443858 0.178759
0.227736 -0.443858 0.173732
0.024527 -0.443858 0.00169
0.229094 -0.443858 -0.271944
-0.307904 -0.443858 -0.10431
0.537651 -0.443858 0.28759
-0.473512 -0.443858 0.257148
0.320091 -0.443858 0.045776
0.347945 -0.443858 0.17101
0.440464 -0.443858 0.07483
-0.097548 -0.443858 -0.191648
0.218265 -0.443858 0.237635
0.479148 -0.443858 -0.017416
-0.483256 -0.443858 -0.176326
-0.152907 -0.443858 -0.253029
-0.274218 -0.443858 -0.241198
-0.379247 -0.443858 -0.191097
-0.0327 -0.443858 0.202424
0.473504 -0.443858 -0.184889
-0.048051 -0.443858 0.078479
-0.578197 -0.443858 -0.303171
-0.186301 -0.443858 -0.084126
0.261486 -0.443858 -0.037425
-0.237197 -0.443858 -0.042047
-0.592937 -0.443858 -0.167539
0.724556 -0.443858 0.267214
-0.662167 -0.443858 -0.064328
0.26781 -0.443858 0.262486
0.140304 -0.443858 -0.181063
0.707701 -0.443858 -0.21128
-0.355924 -0.443858 0.224528
-0.007784 -0.443858 -0.137758
-0.355023 -0.443858 -0.307234
0.388241 -0.443858 -0.057703
-0.528712 -0.443858 0.030192
-0.484913 -0.443858 -0.118589
0.270977 -0.443858 -0.145647
-0.076135 -0.443858 -0.306766
0.22044 -0.443858 0.084288
0.051634 -0.443858 0.240288
0.377802 -0.443858 0.05294
0.562335 -0.443858 -0.111774
0.059917 -0.443858 0.039906
-0.052502 -0.443858 0.252407
0.403109 -0.443858 -0.269383
-0.610301 -0.443858 -0.051899
-0.18767 -0.443858 0.173611
0.671133 -0.443858 -0.115977
-0.204278 -0.443858 -0.15866
-0.663989 -0.443858 -0.116577
-0.579061 -0.443858 0.211979
-0.527912 -0.443858 -0.022118
0.594675 -0.443858 -0.311747
-0.427952 -0.443858 0.067633
-0.235836 -0.443858 0.091735
0.067421 -0.443858 -0.20332
0.628324 -0.443858 -0.089745
-0.416485 -0.443858 0.208787
-0.292781 -0.443858 0.243287
0.551908 -0.443858 0.011697
0.360335 -0.443858 -0.009489
0.366391 -0.443858 0.296679
-0.35409 -0.443858 -0.121094
0.73781 -0.443858 -0.073014
0.1695 -0.443858 0.189908
0.477351 -0.443858 -0.136178
0.277315 -0.443858 -0.282673
0.662562 -0.443858 -0.231628
-0.410285 -0.443858 -0.288159
-0.526188 -0.443858 0.097863
-0.586484 -0.443858 0.12875
0.239432 -0.443858 0.008095
-0.035265 -0.443858 -0.092871
0.109662 -0.443858 -0.019796
0.649569 -0.443858 0.128
0.053592 -0.443858 0.192428
0.29436 -0.443858 -0.071793
-0.528919 -0.443858 0.220013
-0.277285 -0.443858 -0.143647
-0.570369 -0.443858 -0.125008
0.346347 -0.443858 0.225391
-0.481457 -0.443858 -0.25583
-0.121399 -0.443858 -0.288582
-0.194209 -0.443858 0.035189
0.297532 -0.443858 0.0939
0.639485 -0.443858 0.068767
0.661862 -0.443858 0.216236
-0.267255 -0.443858 -0.003986
-0.486264 -0.443858 -0.072866
0.494916 -0.443858 0.077635
0.527425 -0.443858 0.226346
0.081712 -0.443858 -0.090102
0.138435 -0.443858 -0.054946
0.386344 -0.443858 -0.111033
0.525296 -0.443858 -0.137598
0.126501 -0.443858 0.07085
0.005129 -0.443858 -0.074149
-0.370125 -0.443858 -0.006469
0.176398 -0.443858 -0.114092
-0.289372 -0.443858 -0.195348
-0.564021 -0.443858 -0.220801
0.449423 -0.443858 0.028258
-0.64149 -0.443858 -0.302733
-0.332814 -0.443858 -0.029765
0.618107 -0.443858 -0.194511
0.009441 -0.443858 0.251388
0.701129 -0.443858 0.135902
-0.271836 -0.443858 -0.288341
-0.434067 -0.443858 -0.187842
-0.389536 -0.443858 -0.233392
0.567173 -0.443858 0.171937
-0.604463 -0.443858 0.270648
-0.175174 -0.443858 0.223661
-0.282939 -0.443858 0.169756
0.217784 -0.443858 -0.066738
-0.674623 -0.443858 0.165083
0.709305 -0.443858 -0.140534
0.348349 -0.443858 -0.130871
-0.320608 -0.443858 0.138623
-0.074969 -0.443858 0.188983
-0.507302 -0.443858 -0.221224
-0.110823 -0.443858 -0.151197
-0.678049 -0.443858 0.211702
0.571193 -0.443858 -0.070296
-0.593645 -0.443858 0.027322
0.151315 -0.443858 -0.297236
-0.019758 -0.443858 0.114396
0.327901 -0.443858 -0.213003
0.573938 -0.443858 -0.221263
-0.679729 -0.443858 0.268867
0.101388 -0.443858 0.140028
-0.489846 -0.443858 0.015506
-0.39417 -0.443858 -0.110144
-0.620562 -0.443858 -0.203112
0.176661 -0.443858 -0.072367
-0.430372 -0.443858 -0.047441
-0.147982 -0.443858 -0.065049
0.040788 -0.443858 0.089569
0.332936 -0.443858 0.130784
0.693171 -0.443858 -0.025736
0.069629 -0.443858 -0.294206
0.485983 -0.443858 0.225069
-0.524008 -0.443858 -0.13056
-0.117483 -0.443858 0.14674
0.553541 -0.443858 0.052242
-0.215678 -0.443858 -0.226401
-0.137798 -0.443858 0.24402
-0.558958 -0.443858 -0.062666
0.429656 -0.443858 0.236456
0.110751 -0.443858 -0.208158
-0.098442 -0.443858 -0.025557
-0.157518 -0.443858 0.146526
-0.056 -0.443858 -0.256631
-0.44941 -0.443858 -0.280365
0.467332 -0.443858 -0.095271
0.312998 -0.443858 0.246836
0.366055 -0.443858 -0.235066
0.10378 -0.443858 0.241336
-0.376064 -0.443858 0.071966
-0.058429 -0.443858 -0.018278
0.522035 -0.443858 -0.213108
0.481578 -0.443858 -0.05881
0.402696 -0.443858 0.085001
0.434977 -0.443858 -0.024302
0.207847 -0.443858 -0.199549
-0.086154 -0.443858 0.084861
-0.659775 -0.443858 -0.233477
0.003345 -0.443858 -0.219712
0.71194 -0.443858 0.051563
0.386087 -0.443858 0.170162
-0.457839 -0.443858 -0.145409
0.169744 -0.443858 0.228016
-0.335518 -0.443858 0.066348
0.282724 -0.443858 -0.185142
0.146902 -0.443858 0.009403
0.608283 -0.443858 -0.276373
0.650357 -0.443858 0.015817
-0.141298 -0.443858 0.031394
-0.37958 -0.443858 0.130415
0.354381 -0.443858 -0.179859
0.01122 -0.443858 -0.037064
0.261447 -0.443858 0.198756
0.726478 -0.443858 0.229528
-0.372224 -0.443858 -0.266614
0.437314 -0.443858 -0.170329
-0.273422 -0.443858 0.050862
0.506921 -0.443858 0.112879
-0.441601 -0.443858 0.154326
0.18335 -0.443858 0.086917
-0.057955 -0.443858 -0.168946
-0.437586 -0.443858 0.01598
-0.257573 -0.443858 0.232475
-0.610844 -0.443858 0.091218
0.212172 -0.443858 -0.105814
-0.14011 -0.443858 -0.027289
-0.690844 -0.443858 -0.170729
-0.071184 -0.443858 -0.072682
0.203655 -0.443858 0.202592
0.443324 -0.443858 -0.210195
0.173864 -0.443858 0.264102
-0.666053 -0.443858 -0.272078
0.602362 -0.443858 0.067671
0.596857 -0.443858 0.149487
-0.613193 -0.443858 -0.005427
0.135052 -0.443858 0.200483
-0.239737 -0.443858 0.127201
-0.01729 -0.443858 -0.250021
0.238776 -0.443858 -0.130504
-0.445313 -0.443858 0.229613
0.296515 -0.443858 0.019154
0.221703 -0.443858 0.048911
-0.406722 -0.443858 0.242743
-0.478343 -0.443858 0.163556
-0.023401 -0.443858 0.272287
0.259383 -0.443858 0.296702
-0.34736 -0.443858 0.020356
0.53801 -0.443858 -0.246009
0.29179 -0.443858 -0.250646
-0.661674 -0.443858 0.090982
0.397979 -0.443858 -0.157854
0.222853 -0.443858 0.119026
-0.400848 -0.443858 0.096388
0.148362 -0.443858 0.097917
-0.177625 -0.443858 -0.22861
-0.478679 -0.443858 0.297028
0.198758 -0.443858 -0.252612
-0.010038 -0.443858 -0.009664
0.4224 -0.443858 0.163824
-0.184616 -0.443858 -0.288555
0.734485 -0.443858 -0.038039
-0.381328 -0.443858 0.201327
-0.132689 -0.443858 0.073658
0.143838 -0.443858 -0.224625
-0.104861 -0.443858 0.012247
0.151526 -0.443858 -0.137784
-0.440665 -0.443858 0.267793
-0.459338 -0.443858 0.100352
0.557244 -0.443858 -0.149672
0.714286 -0.443858 0.175814
-0.311557 -0.443858 -0.226182
0.232901 -0.443858 -0.236578
-0.675139 -0.443858 -0.200516
0.419389 -0.443858 0.04859
0.101402 -0.443858 -0.05238
0.25282 -0.443858 0.093271
0.126785 -0.443858 -0.274413
0.207117 -0.443858 0.016737
0.012035 -0.443858 -0.289076
-0.072809 -0.443858 0.225995
0.173544 -0.443858 -0.181638
0.346881 -0.443858 -0.282385
-0.290757 -0.443858 0.201975
-0.270377 -0.443858 -0.084335
0.367257 -0.443858 0.143004
0.0264 -0.443858 0.171406
-0.553198 -0.443858 -0.281629
0.012361 -0.443858 0.106316
0.723325 -0.443858 -0.287793
0.722996 -0.443858 -0.107939
-0.318587 -0.443858 -0.065471
-0.633289 -0.443858 -0.146527
0.102256 -0.443858 0.284342
0.490522 -0.443858 -0.258914
0.350845 -0.443858 0.021599
-0.303598 -0.443858 -0.281873
0.054913 -0.443858 -0.146149
0.175645 -0.443858 0.158176
-0.506178 -0.443858 -0.276607
0.519877 -0.443858 -0.169207
0.566023 -0.443858 0.120908
-0.206689 -0.443858 0.005863
0.378848 -0.443858 0.267399
-0.491037 -0.443858 0.097824
-0.607228 -0.443858 0.226685
0.118341 -0.443858 -0.131614
0.571576 -0.443858 -0.275942
0.632213 -0.443858 -0.165804
-0.646772 -0.443858 0.146602
0.037642 -0.443858 -0.213584
-0.315951 -0.443858 0.221953
-0.290345 -0.443858 0.279177
0.505968 -0.443858 0.154875
-0.628499 -0.443858 -0.274136
0.019324 -0.443858 0.21414
-0.409436 -0.443858 -0.207003
0.669032 -0.443858 0.058296
-0.551226 -0.443858 0.004656
-0.12027 -0.443858 0.216889
0.599373 -0.443858 -0.101021
-0.181218 -0.443858 0.123733
-0.359125 -0.443858 0.153434
-0.338742 -0.443858 -0.27686
0.49956 -0.443858 0.29798
-0.284216 -0.443858 0.079527
-0.215048 -0.443858 0.057617
0.581416 -0.443858 -0.185025
0.426018 -0.443858 -0.10471
-0.460737 -0.443858 -0.217833
-0.134112 -0.443858 -0.09208
0.274542 -0.443858 -0.113229
0.033194 -0.443858 -0.062689
-0.091462 -0.443858 -0.123494
0.000832 -0.443858 -0.104023
-0.075076 -0.443858 0.015598
0.642133 -0.443858 -0.123147
-0.526974 -0.443858 0.272852
0.71187 -0.443858 0.087252
0.736506 -0.443858 -0.223031
0.068449 -0.443858 0.07722
0.460301 -0.443858 -0.293557
0.394285 -0.443858 0.113325
-0.411883 -0.443858 0.148339
0.382067 -0.443858 -0.311467
0.515801 -0.443858 -0.043333
0.046209 -0.443858 -0.276345
-0.533422 -0.443858 0.147817
0.523678 -0.443858 0.071988
0.054289 -0.443858 0.120766
0.077329 -0.443858 -0.02558
0.233191 -0.443858 0.206014
0.316244 -0.443858 -0.140141
0.641433 -0.443858 -0.2937
0.579634 -0.443858 0.198252
0.396977 -0.443858 -0.235794
0.082317 -0.443858 -0.119171
-0.377858 -0.443858 0.246167
-0.336632 -0.443858 -0.187836
-0.196566 -0.443858 -0.05699
0.537549 -0.443858 0.126348
0.230775 -0.443858 -0.019426
-0.207599 -0.443858 0.111421
-0.505045 -0.443858 -0.152275
-0.17876 -0.443858 -0.145286
0.458939 -0.443858 0.09691
-0.568634 -0.443858 0.092485
-0.409054 -0.443858 -0.00331
-0.200476 -0.443858 0.20335
0.333519 -0.443858 0.266917
0.05226 -0.443858 -0.005586
0.504269 -0.443858 0.247123
0.713358 -0.443858 -0.058116
0.430604 -0.443858 -0.301026
-0.604587 -0.443858 0.159266
0.241566 -0.443858 -0.185807
0.279695 -0.443858 0.236542
-0.185779 -0.443858 -0.112555
0.14452 -0.443858 0.132672
0.370245 -0.443858 0.199665
-0.183889 -0.443858 -0.191882
0.477648 -0.443858 0.153263
-0.240943 -0.443858 -0.253855
0.154191 -0.443858 0.064944
0.72289 -0.443858 -0.249943
0.266793 -0.443858 0.023413
-0.07051 -0.443858 0.061475
0.016698 -0.443858 0.278572
-0.564852 -0.443858 -0.167315
-0.309068 -0.443858 -0.01486
-0.599648 -0.443858 -0.083528
0.289321 -0.443858 -0.031319
-0.584327 -0.443858 0.250339
-0.329563 -0.443858 0.246326
-0.031437 -0.443858 -0.152536
0.449037 -0.443858 0.000405
-0.126678 -0.443858 0.280396
-0.306498 -0.443858 0.061525
0.658724 -0.443858 -0.259171
0.480806 -0.443858 0.043316
-0.372265 -0.443858 -0.142052
0.245522 -0.443858 0.136001
-0.636755 -0.443858 0.079145
-0.635618 -0.443858 -0.071753
0.475595 -0.443858 0.193543
-0.358193 -0.443858 0.26546
0.670633 -0.443858 0.145682
0.69395 -0.443858 0.203164
0.317169 -0.443858 0.073108
-0.053261 -0.443858 -0.29153
-0.21073 -0.443858 -0.186159
0.484687 -0.443858 0.009323
0.658769 -0.443858 -0.073985
-0.097127 -0.443858 0.173184
-0.509226 -0.443858 0.057119
-0.283624 -0.443858 0.142598
-0.578586 -0.443858 -0.243685
-0.599453 -0.443858 -0.141278
0.552391 -0.443858 0.215931
0.128893 -0.443858 -0.156609
-0.64851 -0.443858 -0.209091
-0.627768 -0.443858 0.283968
-0.01662 -0.443858 0.056228
0.71047 -0.443858 -0.184644
-0.555364 -0.443858 0.224234
0.667841 -0.443858 -0.043667
-0.212925 -0.443858 -0.085406
-0.511258 -0.443858 -0.042911
0.63393 -0.443858 -0.221514
0.733387 -0.443858 0.124962
-0.013948 -0.443858 -0.199523
0.276182 -0.443858 0.078066
0.386006 -0.443858 -0.016175
0.219189 -0.443858 0.264142
-0.560105 -0.443858 0.126185
0.454412 -0.443858 0.211779
-0.672436 -0.443858 0.243387
0.096012 -0.443858 -0.234783
-0.456115 -0.443858 -0.003887
-0.069685 -0.443858 0.272453
0.377203 -0.443858 -0.258972
0.101739 -0.443858 0.079931
0.300674 -0.443858 -0.225878
0.35242 -0.443858 -0.034555
-0.275671 -0.443858 -0.315298
-0.094694 -0.443858 0.133654
-0.632775 -0.443858 -0.246455
-0.595834 -0.443858 0.062298
0.014957 -0.443858 -0.159561
0.586041 -0.443858 0.043136
-0.080515 -0.443858 -0.044718
-0.63144 -0.443858 0.013331
-0.219575 -0.443858 0.185335
-0.54048 -0.443858 0.196645
-0.647422 -0.443858 -0.032976
0.200754 -0.443858 0.067363
0.127054 -0.443858 0.22991
0.436159 -0.443858 0.297171
-0.150012 -0.443858 -0.170169
0.670347 -0.443858 -0.147344
-0.324307 -0.443858 -0.298168
0.673156 -0.443858 0.003878
-0.504222 -0.443858 -0.012147
0.410409 -0.443858 -0.070456
-0.459734 -0.443858 -0.11417
0.160625 -0.443858 -0.092235
-0.12487 -0.443858 -0.128812
-0.456242 -0.443858 -0.042197
-0.461265 -0.443858 -0.079431
-0.389838 -0.443858 -0.041028
-0.255181 -0.443858 0.147354
0.504527 -0.443858 0.273191
0.242851 -0.443858 -0.295807
0.377787 -0.443858 0.240659
0.704683 -0.443858 0.282778
0.463934 -0.443858 0.065569
0.598042 -0.443858 -0.209726
-0.510254 -0.443858 0.203153
-0.658248 -0.443858 0.037145
-0.356201 -0.443858 -0.2281
-0.650405 -0.443858 0.171733
-0.32909 -0.443858 -0.123235
-0.599231 -0.443858 -0.0262
0.457146 -0.443858 -0.035854
0.693146 -0.443858 0.112295
-0.598967 -0.443858 0.192231
-0.281478 -0.443858 -0.17174
-0.403134 -0.443858 0.065778
-0.467765 -0.443858 0.026866
-0.228681 -0.443858 -0.293213
-0.231459 -0.443858 0.005942
0.243151 -0.443858 0.257889
-0.230835 -0.443858 -0.124185
-0.541374 -0.443858 -0.042743
0.687731 -0.443858 -0.194077
0.039845 -0.443858 0.064986
-0.694364 -0.443858 -0.263224
-0.349512 -0.443858 -0.058753
0.331173 -0.443858 -0.301271
0.403754 -0.443858 0.198387
-0.097604 -0.443858 -0.294871
0.111277 -0.443858 0.206387
0.038332 -0.443858 -0.168639
0.637324 -0.443858 -0.247443
-0.509403 -0.443858 0.151926
0.071335 -0.443858 -0.252554
0.466185 -0.443858 0.238984
-0.264801 -0.443858 0.255516
0.547894 -0.443858 -0.064017
0.258685 -0.443858 -0.267389
0.008648 -0.443858 -0.265221
0.353111 -0.443858 0.08182
-0.431435 -0.443858 -0.264477
0.690283 -0.443858 -0.30328
0.425968 -0.443858 -0.191408
0.172583 -0.443858 -0.149129
-0.1077 -0.443858 0.237235
-0.549111 -0.443858 -0.102756
0.012905 -0.443858 -0.124641
-0.034591 -0.443858 -0.267214
0.367705 -0.443858 -0.083002
0.416589 -0.443858 0.105118
-0.110993 -0.443858 -0.232094
-0.31295 -0.443858 -0.192695
0.076067 -0.443858 0.184912
-0.246168 -0.443858 -0.014666
-0.367759 -0.443858 -0.029967
-0.165639 -0.443858 -0.095497
0.528397 -0.443858 0.013288
0.07934 -0.443858 0.131832
-0.259286 -0.443858 -0.050097
0.309963 -0.443858 0.126033
-0.653483 -0.443858 0.225292
-0.506755 -0.443858 0.227671
-0.381662 -0.443858 0.036547
0.034496 -0.443858 -0.094506
-0.674953 -0.443858 -0.044783
0.692096 -0.443858 0.065616
-0.010517 -0.443858 0.239364
0.049532 -0.443858 0.168626
-0.434607 -0.443858 -0.211102
0.128054 -0.443858 -0.310516
0.654305 -0.443858 -0.10012
-0.280673 -0.443858 -0.022719
-0.527407 -0.443858 -0.202707
0.37974 -0.443858 0.086618
0.460032 -0.443858 0.280847
-0.525895 -0.443858 0.126131
0.588796 -0.443858 0.11806
-0.15383 -0.443858 0.202062
0.249579 -0.443858 -0.153849
0.39535 -0.443858 -0.184002
-0.017142 -0.443858 0.091641
-0.528073 -0.443858 0.242902
-0.613217 -0.443858 -0.291122
-0.092168 -0.443858 0.213859
0.666989 -0.443858 0.238496
0.329776 -0.443858 -0.031829
0.280008 -0.443858 -0.216257
0.714648 -0.443858 -0.08678
0.238651 -0.443858 -0.05771
-0.04145 -0.443858 -0.124083
-0.110463 -0.443858 0.086714
0.205251 -0.443858 0.104761
0.170383 -0.443858 -0.046138
0.142902 -0.443858 0.031604
0.306985 -0.443858 0.26857
0.189919 -0.443858 0.279932
0.71907 -0.443858 0.153812
-0.287206 -0.443858 -0.113167
0.328981 -0.443858 0.18313
-0.458106 -0.443858 -0.259609
-0.044556 -0.443858 0.289034
0.28464 -0.443858 0.000142
0.249919 -0.443858 0.070421
-0.604396 -0.443858 -0.229233
0.719038 -0.443858 -0.021992
0.16055 -0.443858 -0.239335
-0.15569 -0.443858 0.281817
-0.409202 -0.443858 -0.126923
-0.213406 -0.443858 0.089997
0.738362 -0.443858 -0.267828
-0.544988 -0.443858 -0.137633
-0.004423 -0.443858 0.155196
0.289907 -0.443858 -0.134359
-0.088406 -0.443858 0.247833
0.052982 -0.443858 -0.072327
-0.298831 -0.443858 -0.139294
0.491458 -0.443858 -0.10005
0.498952 -0.443858 -0.175781
0.559099 -0.443858 -0.252004
-0.363905 -0.443858 -0.175455
0.556797 -0.443858 -0.207481
-0.412784 -0.443858 -0.182713
0.110887 -0.443858 0.159753
-0.394851 -0.443858 -0.14838
0.650752 -0.443858 -0.19009
-0.197347 -0.443858 0.070399
-0.389137 -0.443858 0.005619
-0.100066 -0.443858 0.106112
0.048967 -0.443858 -0.187672
0.050655 -0.443858 0.273704
-0.045742 -0.443858 0.219883
0.076637 -0.443858 0.216034
0.646825 -0.443858 -0.149645
-0.34049 -0.443858 -0.156174
-0.519721 -0.443858 -0.10923
0.414932 -0.443858 -0.015895
-0.44711 -0.443858 0.207028
-0.251574 -0.443858 -0.073458
0.463463 -0.443858 -0.070738
0.219182 -0.443858 -0.21978
-0.077616 -0.443858 -0.262415
-0.246551 -0.443858 0.271761
0.088928 -0.443858 -0.205324
-0.059777 -0.443858 0.096611
0.198725 -0.443858 -0.04798
-0.202036 -0.443858 -0.256485
0.204651 -0.443858 -0.178268
-0.517586 -0.443858 -0.240105
0.070358 -0.443858 0.250809
0.15786 -0.443858 0.278416
0.543134 -0.443858 0.169425
-0.178838 -0.443858 -0.250019
-0.291692 -0.443858 -0.218114
0.246215 -0.443858 0.029146
-0.550879 -0.443858 -0.237636
0.272645 -0.443858 -0.017985
0.674452 -0.443858 0.293393
0.660878 -0.443858 0.0839
-0.661531 -0.443858 0.131282
0.533996 -0.443858 -0.118328
0.69124 -0.443858 -0.129558
-0.204851 -0.443858 -0.294532
-0.326382 -0.443858 -0.094137
-0.676716 -0.443858 -0.290277
-0.290092 -0.443858 -0.00385
0.109039 -0.443858 -0.094527
0.426062 -0.443858 0.266804
-0.111151 -0.443858 -0.270211
-0.693765 -0.443858 -0.090091
-0.35764 -0.443858 0.286481
0.099657 -0.443858 0.101468
0.037017 -0.443858 0.255363
0.186168 -0.443858 0.177156
-0.474523 -0.443858 -0.236027
-0.17629 -0.443858 0.191224
-0.574678 -0.443858 0.176458
0.758905 -0.199108 0.330446
0.769361 0.327724 0.314339
0.766893 -0.109955 0.330446
0.726107 0.244845 0.301716
0.723532 0.521341 0.301716
0.725096 -0.052671 0.301716
0.752093 0.402734 0.330446
0.711901 -0.158441 0.304502
0.715027 -0.229604 0.301716
0.769361 0.487473 0.302929
0.769361 -0.437317 0.329279
0.711901 -0.280524 0.315285
0.711901 0.294272 0.303035
0.718297 -0.108717 0.301716
0.769361 0.567253 0.316594
0.711901 -0.374371 0.329186
0.711901 0.656546 0.321347
0.769361 0.230942 0.309969
