0.376178 -0.205079 -0.393249
-0.012429 0.072167 -0.409883
0.052157 0.232209 -0.393249
0.006683 -0.510715 -0.393249
0.362775 0.320594 -0.409883
-0.069377 -0.339509 -0.393249
0.063512 -0.517777 -0.393249
-0.268976 0.516067 -0.409883
0.348254 -0.45282 -0.409883
0.074255 -0.481083 -0.409883
-0.137532 0.392132 -0.393249
-0.018331 -0.447338 -0.409883
0.282878 -0.075188 -0.393249
0.319606 -0.063898 -0.393249
0.03215 -0.178619 -0.393249
0.365068 -0.389617 -0.409883
0.02653 0.604966 -0.393249
0.171152 0.153908 -0.393249
0.298534 0.365366 -0.393249
0.015309 -0.333712 -0.409883
0.294669 0.32039 -0.393249
-0.268757 -0.108493 -0.393249
0.191259 0.091703 -0.393249
-0.411117 -0.03578 -0.393249
0.419839 -0.194115 -0.393249
-0.086734 -0.26518 -0.393249
0.04903 -0.236127 -0.409883
-0.04352 0.31264 -0.409883
-0.261061 0.454258 -0.393249
-0.002777 -0.104894 -0.393249
0.39415 0.447775 -0.393249
0.261839 0.308643 -0.409883
0.030042 -0.427465 -0.393249
-0.371664 -0.418791 -0.409883
0.171123 0.621725 -0.409883
-0.237208 -0.149233 -0.393249
0.254316 0.232025 -0.409883
0.419658 0.354343 -0.409883
-0.154525 -0.10069 -0.409883
0.246207 0.617252 -0.409883
-0.319724 0.560348 -0.393249
0.155062 -0.454562 -0.409883
-0.348852 0.145472 -0.393249
0.416824 0.545819 -0.409883
0.049836 -0.543236 -0.409883
-0.132865 0.19104 -0.409883
-0.010572 0.264857 -0.393249
-0.009725 -0.355535 -0.393249
-0.230117 -0.355343 -0.393249
-0.311742 0.423721 -0.409883
0.324159 0.020517 -0.393249
0.198369 -0.514525 -0.409883
0.359213 0.063958 -0.393249
-0.063563 0.12676 -0.409883
-0.096406 0.042799 -0.393249
0.399916 -0.441113 -0.409883
-0.071567 0.478083 -0.409883
-0.147864 0.326313 -0.409883
0.0072 0.317266 -0.409883
0.369646 0.265376 -0.393249
-0.380344 0.423202 -0.409883
0.100715 -0.084982 -0.409883
-0.340243 0.602115 -0.393249
-0.210651 0.575251 -0.393249
0.089213 0.041834 -0.393249
0.099701 0.381545 -0.409883
-0.160858 -0.068536 -0.393249
-0.298394 -0.195714 -0.409883
-0.034843 0.640805 -0.401123
-0.026298 0.451967 -0.409883
0.304694 -0.470213 -0.393249
-0.304474 0.634655 -0.409883
-0.236941 -0.280083 -0.409883
-0.205398 0.625805 -0.409883
-0.121673 -0.168622 -0.409883
-0.372402 -0.318932 -0.409883
-0.229954 -0.006209 -0.409883
0.276907 -0.174044 -0.393249
-0.204669 0.372872 -0.409883
-0.157047 -0.016062 -0.409883
0.04539 -0.208279 -0.393249
0.076656 -0.377792 -0.393249
0.039094 0.431386 -0.393249
0.042204 0.123814 -0.409883
-0.279601 0.565426 -0.409883
0.113436 -0.533616 -0.409883
0.192319 0.312187 -0.393249
-0.001951 0.640805 -0.396264
-0.417338 0.618055 -0.409883
-0.331688 -0.429732 -0.393249
0.307278 0.212902 -0.393249
-0.233272 0.072 -0.393249
0.081135 -0.181177 -0.393249
0.143305 0.393785 -0.409883
0.144497 -0.313644 -0.393249
-0.339696 0.508136 -0.393249
-0.308965 0.521782 -0.409883
0.13827 0.329424 -0.409883
-0.384901 -0.544775 -0.409883
-0.359451 -0.12851 -0.409883
0.381877 -0.322892 -0.393249
0.387571 0.538039 -0.393249
0.008141 -0.569528 -0.393249
0.270168 0.166474 -0.393249
-0.11781 -0.432249 -0.393249
0.229869 0.026636 -0.409883
-0.15964 -0.353026 -0.393249
-0.14995 -0.147894 -0.393249
-0.411965 -0.126913 -0.409883
0.179968 0.40738 -0.393249
0.198334 -0.295964 -0.409883
0.164331 0.587426 -0.409883
-0.072748 -0.115303 -0.393249
0.315444 0.496512 -0.393249
-0.001028 0.420077 -0.393249
-0.034374 0.051224 -0.393249
0.042859 -0.137672 -0.409883
0.150077 -0.054238 -0.393249
-0.408703 -0.001235 -0.409883
0.13647 0.295072 -0.409883
0.216001 0.123405 -0.409883
0.352948 -0.485418 -0.393249
0.225922 -0.085011 -0.409883
-0.191599 -0.112849 -0.393249
0.100421 0.497975 -0.409883
-0.069414 0.427198 -0.393249
0.233794 0.29445 -0.409883
0.417498 -0.322884 -0.409883
-0.012771 -0.287418 -0.409883
0.374369 0.233699 -0.409883
0.302462 0.451808 -0.393249
0.273025 0.253654 -0.393249
0.299256 -0.11521 -0.409883
0.385101 -0.266656 -0.409883
0.312001 -0.552027 -0.409883
0.108977 0.093673 -0.409883
-0.114854 0.338578 -0.409883
0.110825 0.620675 -0.393249
0.214105 -0.316601 -0.393249
-0.217024 0.540144 -0.393249
-0.172321 0.286053 -0.409883
0.37312 -0.036537 -0.393249
0.186317 -0.13104 -0.393249
0.128384 -0.033642 -0.409883
0.138597 0.142203 -0.393249
-0.397742 0.399777 -0.393249
0.234728 0.160496 -0.409883
0.268937 0.205054 -0.409883
-0.220175 -0.247984 -0.409883
-0.380948 -0.499304 -0.393249
0.037911 0.013652 -0.393249
-0.335475 -0.29044 -0.409883
-0.143216 0.600612 -0.393249
0.34409 -0.277489 -0.409883
-0.307983 0.395219 -0.393249
0.125314 0.045667 -0.409883
-0.359148 0.392848 -0.409883
-0.200183 0.227702 -0.393249
-0.388113 0.112647 -0.409883
0.417033 0.324503 -0.393249
0.165912 -0.477603 -0.393249
-0.042957 0.076031 -0.409883
0.158179 0.527008 -0.409883
-0.027306 0.360738 -0.393249
-0.152936 0.144254 -0.393249
0.217509 0.511013 -0.409883
-0.327293 0.111808 -0.393249
0.08084 -0.026992 -0.409883
0.282016 -0.025988 -0.393249
0.12414 -0.50361 -0.393249
0.215173 -0.39891 -0.409883
-0.174632 -0.177756 -0.393249
-0.325836 0.44442 -0.393249
-0.035876 -0.158064 -0.409883
0.184828 -0.195163 -0.393249
-0.40045 -0.599543 -0.393249
-0.190784 -0.057477 -0.409883
0.443515 0.052703 -0.409883
0.082116 -0.150478 -0.393249
0.3948 -0.554862 -0.393249
-0.178721 0.050124 -0.393249
0.033276 -0.079536 -0.393249
-0.364174 0.527095 -0.393249
0.422145 0.227383 -0.409883
-0.309089 -0.556543 -0.409883
0.097376 0.279338 -0.409883
0.418613 -0.143104 -0.393249
-0.361822 -0.384864 -0.409883
0.422223 -0.415169 -0.409883
0.156949 -0.183249 -0.409883
-0.334809 0.341652 -0.393249
0.24642 0.383135 -0.409883
0.384858 0.165373 -0.393249
-0.261826 -0.426841 -0.393249
0.25096 -0.322649 -0.409883
-0.126209 -0.201588 -0.409883
0.031524 0.365849 -0.409883
-0.180542 0.478927 -0.409883
0.411253 -0.232291 -0.393249
-0.346186 -0.338782 -0.409883
-0.287191 -0.092259 -0.409883
-0.254069 0.052042 -0.409883
0.021196 -0.24881 -0.409883
-0.41094 -0.226365 -0.409883
0.100833 0.43299 -0.409883
0.023683 -0.451048 -0.409883
0.421004 0.003153 -0.393249
-0.187974 0.091285 -0.409883
-0.234109 -0.453157 -0.409883
0.217861 0.191931 -0.393249
0.248445 0.465833 -0.393249
0.438567 -0.05362 -0.409883
0.442905 0.427162 -0.409883
-0.162815 -0.450492 -0.393249
0.045601 0.288167 -0.409883
0.034465 -0.312217 -0.393249
-0.003362 0.094551 -0.393249
-0.235034 0.117369 -0.393249
0.380761 -0.083534 -0.409883
-0.272883 -0.399732 -0.393249
-0.144962 -0.481521 -0.409883
-0.23252 0.636517 -0.393249
0.162913 -0.502456 -0.409883
-0.368851 0.218459 -0.393249
-0.120649 -0.587349 -0.393249
0.215442 0.240618 -0.393249
0.320467 0.136205 -0.393249
-0.407272 0.280215 -0.409883
0.193067 -0.408155 -0.393249
-0.165207 -0.213406 -0.409883
0.050415 -0.466149 -0.393249
-0.136711 -0.045337 -0.409883
-0.27821 0.131254 -0.393249
-0.402659 -0.349205 -0.409883
-0.323495 -0.266114 -0.393249
0.016753 0.246087 -0.409883
-0.122768 -0.246259 -0.409883
0.314629 -0.23799 -0.409883
-0.288804 0.076608 -0.409883
-0.22059 -0.549327 -0.393249
0.078364 -0.444952 -0.393249
0.27233 -0.108307 -0.393249
-0.257818 -0.161069 -0.409883
0.086494 0.410357 -0.393249
-0.244402 -0.328672 -0.393249
-0.173479 -0.563773 -0.393249
-0.027463 0.577193 -0.409883
-0.283773 0.285588 -0.409883
0.372274 0.296989 -0.393249
0.199633 -0.44556 -0.393249
0.09404 0.197265 -0.393249
0.143067 0.3702 -0.393249
-0.265598 0.39033 -0.393249
0.396231 0.313402 -0.409883
0.360208 0.464133 -0.409883
-0.082837 0.157136 -0.409883
0.112894 -0.211556 -0.393249
0.128684 -0.375857 -0.393249
0.252835 -0.45202 -0.409883
0.293144 0.103925 -0.409883
0.160305 0.011247 -0.409883
-0.311655 0.195437 -0.409883
-0.01537 -0.503075 -0.409883
0.376117 0.390465 -0.393249
0.270963 0.550972 -0.393249
0.099603 -0.568514 -0.393249
-0.144094 -0.294588 -0.393249
0.393402 0.566824 -0.409883
0.305577 -0.600978 -0.393249
-0.393903 0.335104 -0.409883
0.003965 0.546572 -0.409883
0.32642 0.15845 -0.409883
-0.323646 0.252401 -0.393249
-0.103203 0.314507 -0.393249
0.382029 -0.486373 -0.409883
0.081998 0.070695 -0.393249
0.261061 -0.401811 -0.409883
-0.189662 0.422278 -0.409883
0.396781 -0.192612 -0.409883
-0.276945 -0.239713 -0.393249
0.132155 -0.600104 -0.393249
-0.271545 -0.053679 -0.393249
0.246734 -0.233418 -0.409883
-0.412216 -0.098756 -0.409883
0.093052 -0.306422 -0.409883
-0.054875 0.015588 -0.409883
0.300534 -0.138635 -0.393249
-0.133327 0.53444 -0.393249
0.151927 0.181122 -0.409883
0.421877 0.289796 -0.393249
-0.340664 -0.102367 -0.393249
-0.24315 0.402987 -0.409883
0.347982 0.553142 -0.393249
-0.268829 -0.585515 -0.409883
-0.40609 -0.293876 -0.409883
-0.156457 0.014995 -0.393249
-0.382653 -0.066905 -0.393249
-0.393989 0.451023 -0.409883
0.363645 0.213306 -0.393249
0.254509 -0.205908 -0.393249
0.002874 -0.266171 -0.393249
0.248885 0.409141 -0.393249
-0.006354 -0.214369 -0.393249
-0.361663 0.336295 -0.409883
-0.11701 0.113447 -0.409883
-0.097578 -0.413126 -0.393249
0.229207 -0.280115 -0.393249
-0.401433 0.556126 -0.393249
0.290979 -0.426617 -0.409883
0.025398 0.218746 -0.409883
0.35183 -0.56542 -0.393249
-0.087115 -0.204088 -0.393249
0.308198 -0.189394 -0.393249
0.072703 0.551624 -0.393249
-0.041974 0.337202 -0.393249
-0.025617 0.175762 -0.393249
0.064983 0.142269 -0.393249
-0.191853 -0.153439 -0.409883
-0.040289 -0.445834 -0.393249
0.248173 -0.128482 -0.409883
0.216005 0.453543 -0.393249
-0.378911 -0.250974 -0.409883
-0.037641 -0.271462 -0.393249
-0.266076 0.432941 -0.409883
0.28206 -0.333526 -0.393249
0.34776 0.118945 -0.409883
0.222773 -0.489992 -0.409883
-0.081796 0.565243 -0.393249
-0.370227 0.289871 -0.393249
0.212447 0.086335 -0.409883
0.204746 0.555949 -0.393249
-0.048487 -0.199236 -0.409883
0.272168 0.601226 -0.409883
-0.19286 -0.319059 -0.409883
0.193315 0.139221 -0.409883
0.034958 -0.393969 -0.409883
0.257628 0.528438 -0.409883
0.173104 0.256472 -0.393249
0.315115 -0.289501 -0.409883
0.32942 0.295851 -0.393249
0.04316 0.525108 -0.409883
0.06981 -0.199681 -0.409883
-0.339921 -0.455738 -0.409883
0.286815 -0.053875 -0.409883
0.331845 -0.466795 -0.393249
-0.343338 0.055908 -0.393249
0.142233 -0.548046 -0.393249
0.05056 0.348556 -0.393249
-0.366825 -0.083031 -0.409883
0.354798 0.443399 -0.393249
-7.1e-05 0.38434 -0.393249
-0.058429 0.60972 -0.409883
-0.256346 0.261135 -0.393249
-0.356057 -0.490554 -0.409883
-0.27004 0.000992 -0.409883
-0.051805 -0.327406 -0.409883
0.315317 -0.404806 -0.393249
0.271845 0.104352 -0.393249
0.228777 -0.118348 -0.393249
-0.183755 0.501781 -0.393249
0.427008 -0.495372 -0.393249
0.398179 -0.048863 -0.393249
-0.074848 -0.182706 -0.409883
0.123268 -0.31388 -0.409883
-0.248764 -0.487272 -0.409883
-0.063814 -0.483198 -0.393249
0.375634 0.140794 -0.409883
-0.399894 -0.377869 -0.409883
0.212831 0.583517 -0.409883
0.107034 0.158052 -0.409883
-0.192363 -0.452218 -0.409883
0.088116 0.013458 -0.393249
-0.352854 -0.362391 -0.393249
0.277569 -0.557677 -0.393249
0.082953 -0.283011 -0.393249
0.074247 -0.088966 -0.409883
-0.11347 0.37833 -0.393249
-0.247394 -0.098294 -0.409883
-0.08177 -0.017632 -0.393249
-0.064569 0.298867 -0.393249
0.365153 -0.597339 -0.409883
-0.339344 0.567486 -0.409883
-0.332282 -0.529134 -0.409883
-0.343116 0.083174 -0.393249
-0.168666 -0.513051 -0.409883
0.014688 0.064966 -0.393249
-0.371872 0.021545 -0.409883
-0.139316 0.06487 -0.393249
0.1291 -0.121492 -0.393249
0.41955 -0.095244 -0.409883
-0.117804 0.593158 -0.393249
-0.235586 0.174565 -0.409883
-0.394371 0.180297 -0.393249
-0.248499 -0.247369 -0.393249
-0.038763 0.539151 -0.409883
0.271029 -0.274987 -0.409883
-0.118027 0.029945 -0.409883
0.388507 0.058626 -0.409883
-0.095738 0.094438 -0.393249
-0.230478 0.495691 -0.409883
0.391663 0.109954 -0.409883
-0.310393 0.58678 -0.409883
0.001154 0.195996 -0.393249
0.117801 0.219301 -0.409883
-0.266807 -0.336842 -0.409883
-0.097237 -0.29558 -0.409883
-0.253534 -0.224124 -0.409883
0.337184 0.418455 -0.393249
0.316645 0.374565 -0.409883
-0.372663 0.248911 -0.409883
-0.211603 -0.500151 -0.393249
-0.176861 0.630638 -0.409883
-0.313388 -0.213137 -0.393249
0.444748 -0.000994 -0.409883
0.07286 0.525513 -0.393249
0.309194 0.033972 -0.409883
0.407582 0.478069 -0.393249
0.151021 -0.080311 -0.393249
0.135534 0.42976 -0.393249
-0.027883 0.253377 -0.409883
-0.221184 -0.37329 -0.409883
0.049713 0.191918 -0.409883
0.368523 -0.433487 -0.409883
0.227993 -0.029193 -0.409883
0.415358 -0.533809 -0.393249
0.096298 0.593763 -0.409883
0.014397 0.570843 -0.409883
-0.26999 0.228958 -0.409883
-0.01695 0.474074 -0.393249
-0.155594 -0.314397 -0.409883
-0.31565 0.007017 -0.393249
0.344454 -0.073665 -0.393249
0.13689 -0.001331 -0.393249
0.148829 0.458181 -0.409883
0.233015 -0.450238 -0.393249
0.22172 -0.559536 -0.393249
0.12977 0.116919 -0.393249
0.297985 0.159166 -0.409883
-0.304544 -0.345387 -0.393249
0.0734 -0.24492 -0.409883
0.309707 0.092939 -0.393249
-0.293646 -0.25998 -0.409883
0.302115 0.274532 -0.393249
0.262021 -0.06021 -0.393249
-0.330657 -0.051439 -0.409883
0.138101 -0.424709 -0.409883
-0.299227 -0.1237 -0.409883
0.045345 -0.510705 -0.409883
0.042332 0.493545 -0.393249
-0.095086 0.277929 -0.393249
0.137782 0.489128 -0.409883
-0.395066 -0.45285 -0.409883
0.377801 0.087069 -0.409883
0.278097 -0.195598 -0.409883
0.163249 0.038439 -0.393249
0.063075 0.638905 -0.409883
-0.223129 -0.518285 -0.409883
-0.031653 -0.597731 -0.409883
-0.354397 -0.044415 -0.393249
0.139308 0.058994 -0.393249
-0.09773 -0.057255 -0.409883
-0.050157 -0.077467 -0.409883
0.269829 0.081054 -0.409883
0.183336 0.072147 -0.409883
-0.204589 -0.138289 -0.393249
-0.370528 -0.195967 -0.393249
-0.156724 -0.411143 -0.393249
-0.316198 -0.08612 -0.393249
0.065462 -0.106383 -0.393249
-0.185955 0.24051 -0.409883
0.208311 0.035654 -0.393249
-0.029672 0.234113 -0.393249
0.045252 -0.334025 -0.409883
-0.013217 0.021629 -0.393249
-0.146801 -0.171463 -0.409883
-0.305818 0.547312 -0.409883
-0.008888 -0.306046 -0.393249
-0.344241 0.197322 -0.409883
0.356543 0.587106 -0.409883
0.165653 -0.033791 -0.409883
-0.222134 0.40133 -0.393249
0.028675 0.171031 -0.409883
-0.277953 0.100183 -0.409883
0.368327 -0.228892 -0.393249
0.364982 -0.512595 -0.409883
0.131397 -0.166021 -0.409883
0.168378 -0.13645 -0.409883
-0.220085 -0.185294 -0.409883
0.367599 -0.278829 -0.393249
-0.202771 -0.078671 -0.393249
0.221027 0.264327 -0.409883
-0.133269 0.410315 -0.409883
0.106204 -0.019687 -0.409883
0.417472 -0.433202 -0.393249
-0.088002 -0.563738 -0.393249
0.182631 0.495714 -0.393249
-0.39861 0.223735 -0.409883
0.271865 0.05303 -0.409883
0.1162 -0.060127 -0.393249
0.06049 0.310014 -0.393249
0.304775 -0.502644 -0.409883
-0.358116 -0.565978 -0.393249
-0.314739 0.087141 -0.393249
0.005295 -0.451488 -0.393249
-0.164028 0.122077 -0.393249
-0.225517 0.46037 -0.393249
-0.044417 0.411202 -0.409883
0.298788 0.393352 -0.393249
-0.248937 0.016657 -0.409883
0.332458 -0.194416 -0.409883
0.067933 0.473521 -0.393249
0.052688 -0.276596 -0.409883
0.32043 0.55969 -0.393249
0.175438 0.431641 -0.393249
0.109969 0.18292 -0.409883
-0.10759 -0.515764 -0.409883
-0.011319 0.517506 -0.409883
-0.01797 -0.154694 -0.393249
-0.211543 -0.022528 -0.409883
-0.183767 0.312901 -0.393249
0.307372 0.333251 -0.409883
-0.078971 0.494563 -0.393249
0.078799 0.130632 -0.409883
0.140492 0.593271 -0.409883
-0.094536 -0.159586 -0.409883
-0.365834 -0.292741 -0.409883
-0.169791 0.361476 -0.393249
0.083368 0.309086 -0.409883
-0.312568 -0.019221 -0.409883
-0.418198 0.46068 -0.393249
0.390157 0.200849 -0.393249
-0.239342 0.298237 -0.409883
0.369403 -0.548376 -0.393249
0.196222 -0.232791 -0.393249
-0.118782 0.431432 -0.409883
0.428277 0.442034 -0.393249
0.119314 -0.265897 -0.393249
0.20416 -0.423781 -0.409883
0.145968 0.640805 -0.397038
0.102757 -0.168969 -0.409883
-0.334592 -0.174286 -0.393249
-0.357888 -0.402255 -0.393249
0.050119 -0.092453 -0.409883
0.005543 -0.199715 -0.409883
0.175756 -0.578001 -0.409883
-0.108395 -0.600255 -0.409883
0.066638 0.370606 -0.409883
-0.026968 0.294791 -0.409883
0.020123 0.631019 -0.393249
-0.182559 -0.502029 -0.393249
-0.243468 0.086503 -0.409883
-0.417986 0.38637 -0.393249
0.107195 -0.431039 -0.409883
0.018337 -0.380014 -0.393249
0.080946 -0.319245 -0.393249
-0.322412 -0.385754 -0.393249
0.106227 0.241567 -0.409883
0.223771 0.400174 -0.393249
0.207238 0.363898 -0.409883
-0.288294 0.371229 -0.393249
-0.234058 0.375069 -0.393249
0.009996 -0.125417 -0.393249
0.428636 0.416967 -0.393249
-0.34736 -0.14992 -0.393249
0.094374 0.357977 -0.409883
-0.195291 0.611506 -0.393249
-0.042524 -0.513635 -0.393249
0.386296 0.259748 -0.409883
-0.098286 0.493435 -0.409883
-0.328053 -0.546075 -0.393249
-0.107287 -0.013354 -0.393249
-0.365498 0.608173 -0.393249
0.297184 -0.237607 -0.393249
0.321124 -0.341119 -0.409883
0.180838 0.598957 -0.393249
-0.071321 0.397936 -0.393249
-0.212318 0.25059 -0.409883
-0.099847 -0.448269 -0.393249
0.290993 -0.306624 -0.409883
0.196636 -0.355525 -0.393249
-0.048067 -0.022436 -0.393249
-0.300816 -0.436002 -0.393249
-0.294863 0.121739 -0.409883
0.336263 -0.047843 -0.409883
0.07352 0.33501 -0.393249
0.366999 0.363469 -0.409883
-0.156372 0.211279 -0.409883
-0.203874 -0.591049 -0.393249
0.303643 0.000888 -0.409883
-0.121827 -0.311044 -0.409883
-0.1001 -0.215303 -0.409883
0.445501 0.359931 -0.409883
-0.377186 0.447622 -0.393249
0.117417 0.382775 -0.393249
-0.386087 -0.021654 -0.393249
0.211514 -0.261652 -0.393249
-0.130264 -0.264456 -0.393249
-0.038235 0.517877 -0.393249
-0.123125 -0.060727 -0.393249
0.047331 -0.191343 -0.409883
0.141855 0.542801 -0.393249
-0.005762 -0.596906 -0.409883
0.00599 -0.056512 -0.409883
-0.082058 -0.357793 -0.409883
0.195878 0.413177 -0.409883
0.368966 -0.071367 -0.393249
0.197874 0.120201 -0.393249
0.031938 -0.565912 -0.393249
0.024818 -0.163379 -0.409883
0.026074 0.411521 -0.393249
0.294212 0.59136 -0.393249
-0.260971 -0.506742 -0.393249
0.397265 -0.086999 -0.393249
-0.008933 0.290543 -0.393249
0.426974 -0.385621 -0.393249
-0.248239 -0.047399 -0.393249
0.378619 -0.000961 -0.393249
0.087721 0.257756 -0.409883
-0.149929 0.174691 -0.409883
-0.0633 0.268695 -0.393249
-0.28173 -0.47956 -0.393249
0.211002 0.313567 -0.409883
-0.244797 -0.120365 -0.393249
0.411956 0.214085 -0.393249
0.116958 -0.41473 -0.393249
-0.212505 0.124427 -0.393249
0.083044 0.184655 -0.409883
0.21157 0.338158 -0.409883
0.40662 -0.131452 -0.409883
-0.000773 -0.54614 -0.393249
0.276218 0.299881 -0.393249
0.213097 -0.227468 -0.409883
0.246558 -0.102975 -0.393249
-0.281217 0.482262 -0.409883
0.250497 0.139379 -0.409883
0.018995 -0.499595 -0.409883
0.050454 0.559127 -0.393249
0.06136 0.014141 -0.393249
0.42022 0.055388 -0.409883
-0.320248 -0.501818 -0.409883
0.444233 0.217575 -0.409883
-0.333627 0.374977 -0.393249
-0.190647 0.021062 -0.393249
0.245551 0.568117 -0.393249
-0.141748 -0.337493 -0.409883
0.175072 0.518115 -0.393249
-0.038059 0.216465 -0.409883
0.037604 -0.249076 -0.393249
0.349272 -0.407293 -0.409883
-0.309475 0.493825 -0.409883
0.10322 -0.113764 -0.409883
0.151608 -0.281476 -0.409883
0.15966 0.393874 -0.393249
0.114386 0.292327 -0.393249
0.177901 -0.115175 -0.409883
0.340126 0.461505 -0.393249
-0.344665 -0.311852 -0.409883
0.157295 -0.100626 -0.409883
0.176109 -0.525505 -0.393249
-0.171113 -0.248767 -0.393249
0.106765 0.113446 -0.393249
0.32293 -0.566269 -0.393249
-0.146027 0.079602 -0.409883
-0.061275 0.35894 -0.409883
-0.373861 0.198227 -0.409883
0.259505 0.45411 -0.409883
-0.278957 0.05532 -0.393249
-0.012279 -0.117895 -0.409883
-0.085978 -0.440088 -0.409883
0.352316 0.525306 -0.409883
-0.231376 -0.099659 -0.393249
0.335538 0.503475 -0.409883
-0.307467 -0.473982 -0.409883
-0.385713 0.476964 -0.409883
0.115773 0.578614 -0.393249
0.299568 0.494827 -0.409883
0.284677 0.382406 -0.409883
-0.331473 0.096425 -0.409883
0.222381 0.438949 -0.409883
-0.147399 -0.535715 -0.409883
-0.103731 -0.486754 -0.409883
-0.15139 0.259207 -0.409883
-0.24768 0.532226 -0.409883
-0.121825 0.639255 -0.393249
-0.16964 0.392918 -0.393249
0.285285 0.263691 -0.409883
0.210948 0.070573 -0.393249
-0.317713 0.228967 -0.393249
0.445361 0.401293 -0.393249
0.199694 0.639819 -0.393249
0.19947 -0.139694 -0.409883
-0.401853 0.090839 -0.409883
-0.347784 0.285497 -0.393249
-0.026132 0.310456 -0.393249
0.093801 -0.051629 -0.409883
-0.24391 0.625766 -0.409883
0.044819 0.374131 -0.393249
0.015666 -0.083008 -0.409883
-0.404972 0.608484 -0.393249
0.428564 0.264293 -0.409883
-0.017556 -0.376961 -0.393249
0.057663 -0.419972 -0.409883
-0.108114 -0.257252 -0.393249
-0.097001 0.163599 -0.393249
-0.340799 0.119546 -0.409883
-0.06277 -0.59612 -0.393249
0.016216 -0.404677 -0.393249
0.327233 0.247594 -0.393249
-0.205391 -0.252528 -0.393249
-0.367007 0.062632 -0.393249
0.419336 0.018516 -0.409883
0.090459 -0.425755 -0.393249
-0.35683 -0.424915 -0.393249
-0.30518 -0.376618 -0.409883
-0.272106 -0.144559 -0.393249
0.130093 -0.451943 -0.409883
0.162647 -0.421411 -0.409883
-0.151262 0.514592 -0.393249
-0.409495 0.640805 -0.406389
-0.058742 -0.375469 -0.393249
0.421618 -0.219985 -0.409883
-0.085269 0.074356 -0.393249
-0.347899 0.008452 -0.393249
0.284443 -0.513013 -0.393249
-0.276774 -0.283746 -0.409883
-0.118634 0.572481 -0.409883
-0.344993 0.470142 -0.393249
-0.077203 0.596351 -0.393249
-0.03596 0.153113 -0.393249
0.117577 -0.485846 -0.409883
0.335952 0.073587 -0.393249
-0.214816 0.271182 -0.393249
-0.298206 -0.567171 -0.393249
0.425893 -0.309647 -0.393249
0.041127 -0.371675 -0.393249
0.002872 0.15935 -0.393249
-0.354557 0.235538 -0.409883
-0.32139 0.349415 -0.409883
0.30373 0.528482 -0.393249
0.399644 0.389434 -0.393249
0.229641 0.477342 -0.409883
0.070745 -0.579025 -0.085493
-0.305927 -0.579025 0.189224
-0.227613 -0.579025 -0.101106
0.242696 -0.579025 0.109232
-0.069113 -0.579025 -0.284546
0.238308 -0.579025 -0.256234
-0.017912 -0.579025 0.154969
0.26772 -0.579025 -0.074859
-0.175758 -0.579025 0.070535
-0.257012 -0.579025 -0.268324
-0.154153 -0.579025 0.251912
0.327535 -0.579025 0.258523
0.079074 -0.579025 -0.239566
-0.078829 -0.579025 -0.062957
-0.247759 -0.634471 0.354214
0.35525 -0.579025 -0.178905
0.103396 -0.579025 0.042799
0.382532 -0.579025 0.093256
-0.297899 -0.579025 0.016316
-0.020245 -0.579025 -0.171641
-0.14876 -0.579025 -0.191396
0.026579 -0.579025 0.270961
0.34324 -0.579025 -0.308253
0.182766 -0.579025 -0.149261
-0.035221 -0.579025 0.047333
-0.359812 -0.579025 -0.230773
-0.345964 -0.579025 -0.082283
0.040936 -0.579025 -0.350221
0.343664 -0.579025 -0.003178
-0.336323 -0.579025 -0.386385
0.43106 -0.579025 0.290092
0.180667 -0.634471 0.325206
-0.16013 -0.579025 -0.324974
0.157987 -0.579025 -0.040874
0.393653 -0.579025 -0.088774
-0.353486 -0.579025 0.106554
0.129261 -0.579025 -0.317485
-0.148939 -0.579025 0.158979
-0.245555 -0.579025 0.264369
-0.297386 -0.579025 -0.164006
-0.07298 -0.579025 0.309134
0.113594 -0.579025 0.302883
-0.18703 -0.579025 -0.018016
0.145937 -0.579025 0.133024
0.250281 -0.579025 -0.347897
0.252599 -0.579025 0.009943
-0.247661 -0.579025 0.128215
0.02574 -0.579025 -0.009922
0.26501 -0.633851 0.322015
0.341945 -0.579025 0.176958
0.014475 -0.634471 0.329782
0.378907 -0.632315 0.322015
0.261021 -0.579025 -0.167322
-0.148114 -0.579025 -0.110543
-0.152922 -0.624518 0.322015
0.187812 -0.579025 0.272125
0.10639 -0.579025 -0.154032
0.301806 -0.567935 0.333827
0.047933 -0.579025 0.12109
0.006169 -0.579025 -0.250156
-0.22501 -0.579025 -0.202218
0.311275 -0.579025 0.075708
-0.104634 -0.579025 0.100963
0.151481 -0.579025 -0.246225
0.054052 -0.579025 0.204123
-0.368471 -0.579025 0.030906
-0.197477 -0.568887 0.322015
-0.364378 -0.579025 -0.30131
-0.29692 -0.579025 -0.327956
-0.122248 -0.579025 0.009294
-0.313907 -0.634471 0.325362
-0.227959 -0.579025 0.194479
-0.017994 -0.579025 -0.102598
-0.354214 -0.579025 0.262082
0.174282 -0.579025 0.070845
-0.27056 -0.579025 -0.046295
0.411243 -0.579025 -0.32436
-0.371415 -0.579025 -0.158131
0.20288 -0.579025 0.17117
-0.185848 -0.579025 -0.254176
-0.083667 -0.579025 -0.184624
0.40967 -0.579025 0.18659
0.441197 -0.579025 0.045115
0.378501 -0.579025 -0.254477
0.274706 -0.579025 0.163311
-0.040777 -0.579025 -0.340491
0.266747 -0.579025 0.273575
-0.294164 -0.579025 0.078367
-0.124071 -0.579025 -0.256338
0.042994 -0.579025 -0.140328
-0.085516 -0.579025 0.170432
-0.130534 -0.567935 0.324426
0.283462 -0.579025 -0.297557
0.201757 -0.579025 -0.082147
-0.261898 -0.585827 0.322015
0.220864 -0.584633 0.322015
0.193039 -0.579025 0.009045
0.334189 -0.579025 -0.088247
0.04917 -0.579025 -0.290983
-0.024779 -0.579025 -0.039921
0.296291 -0.579025 -0.214231
0.136914 -0.579025 -0.095527
0.024385 -0.579025 0.06763
-0.083449 -0.579025 -0.126929
-0.055222 -0.634471 0.338443
0.062484 -0.601465 0.322015
0.379376 -0.579025 0.234935
-0.216168 -0.579025 -0.333704
0.198058 -0.579025 -0.203325
0.174982 -0.579025 -0.350132
-0.222968 -0.579025 0.025125
-0.288113 -0.579025 -0.22165
0.205537 -0.579025 -0.301566
0.406926 -0.579025 -0.033308
0.281535 -0.579025 0.220853
-0.033686 -0.579025 0.100814
-0.29656 -0.579025 0.28016
0.079026 -0.579025 0.260955
0.410217 -0.579025 -0.185024
-0.10429 -0.579025 0.233697
-0.195318 -0.579025 0.120054
0.296745 -0.579025 -0.125499
-0.189157 -0.579025 -0.157505
-0.319832 -0.579025 -0.274427
-0.391219 -0.579025 0.164676
0.318764 -0.579025 0.126475
0.075746 -0.579025 -0.021353
-0.307982 -0.579025 0.129551
-0.060724 -0.579025 -0.004104
-0.172634 -0.579025 -0.06677
-0.103921 -0.579025 -0.320422
0.316801 -0.614072 0.322015
-0.296973 -0.579025 -0.091252
0.158447 -0.571732 0.322015
-0.224248 -0.579025 0.079273
-0.204117 -0.579025 0.237749
-0.040405 -0.579025 0.272589
0.394508 -0.579025 0.031008
-0.014753 -0.579025 -0.294065
0.387322 -0.579025 0.143389
0.105085 -0.579025 0.159228
0.382093 -0.579025 -0.138829
0.031648 -0.579025 -0.209208
0.015874 -0.579025 -0.069499
0.076986 -0.579025 -0.192273
0.092735 -0.579025 0.10657
-0.407127 -0.579025 0.111131
0.286147 -0.579025 -0.031807
0.139819 -0.579025 -0.186721
0.226145 -0.579025 -0.042625
-0.039908 -0.579025 0.196172
0.086775 -0.579025 -0.343903
-0.123814 -0.579025 -0.149879
0.342013 -0.579025 -0.223134
0.349876 -0.579025 0.050854
-0.265626 -0.579025 -0.366918
0.147414 -0.579025 0.008715
0.376282 -0.579025 0.280224
0.199179 -0.579025 0.228206
0.143386 -0.579025 0.263988
-0.079256 -0.579025 0.037822
0.264071 -0.579025 0.053409
-0.171362 -0.579025 0.024093
-0.226102 -0.579025 -0.052694
0.162358 -0.579025 0.189444
0.020145 -0.56924 0.322015
-0.378008 -0.579025 -0.113023
0.231478 -0.579025 -0.114918
0.361669 -0.579025 -0.34816
-0.342658 -0.579025 0.165227
-0.331505 -0.579025 0.224639
-0.136632 -0.579025 0.050448
-0.120791 -0.579025 0.279948
-0.398702 -0.579025 -0.333441
0.19958 -0.579025 0.108031
-0.258963 -0.579025 -0.130453
-0.144121 -0.579025 0.201348
-0.020211 -0.611076 0.322015
-0.210015 -0.579025 -0.288975
-0.097306 -0.611219 0.322015
-0.189761 -0.579025 0.176359
0.419419 -0.579025 0.249544
0.430095 -0.579025 0.0927
-0.213544 -0.615004 0.322015
-0.107358 -0.579025 -0.029943
0.095994 -0.579025 0.204395
-0.043486 -0.579025 -0.251606
-0.322457 -0.579025 -0.197186
0.306887 -0.579025 0.03441
-0.288794 -0.579025 0.239519
-0.25279 -0.579025 -0.170981
-0.256097 -0.579025 -0.309304
-0.117815 -0.579025 -0.365362
0.060516 -0.579025 0.016538
0.068734 -0.579025 0.073604
-0.351488 -0.579025 -0.348947
-0.337148 -0.579025 0.069747
0.28436 -0.579025 -0.252605
0.350172 -0.579025 -0.042792
0.409593 -0.579025 -0.279739
-0.251707 -0.579025 -0.00268
-0.274748 -0.628098 0.322015
0.113234 -0.579025 -0.259599
-0.398418 -0.579025 -0.009728
0.145751 -0.616905 0.322015
-0.019571 -0.579025 -0.375435
-0.266716 -0.579025 0.188865
-0.047499 -0.579025 0.234287
-0.160414 -0.579025 0.290262
0.305249 -0.579025 0.290126
0.185726 -0.579025 -0.263708
0.336337 -0.579025 -0.261142
-0.381262 -0.579025 0.080165
0.236528 -0.579025 -0.19672
-0.005726 -0.579025 0.295754
-0.209319 -0.579025 0.287299
0.314345 -0.579025 -0.180784
-0.012425 -0.579025 0.016956
0.120667 -0.579025 -0.061323
0.121296 -0.579025 -0.018554
-0.374788 -0.579025 0.230545
0.103568 -0.579025 -0.113002
0.256909 -0.597136 0.322015
-0.114091 -0.579025 -0.206319
0.203031 -0.579025 -0.374518
-0.304045 -0.579025 -0.030271
0.233035 -0.579025 0.207928
0.423785 -0.579025 0.008374
-0.159214 -0.579025 0.112435
0.051699 -0.579025 0.167335
0.436494 -0.579025 -0.072361
0.376716 -0.579025 -0.211503
-0.144746 -0.579025 -0.043124
-0.335836 -0.579025 -0.149803
0.225079 -0.630149 0.322015
0.303496 -0.579025 0.185375
0.124628 -0.579025 -0.219641
0.325216 -0.579025 -0.339607
-0.033556 -0.579025 -0.135006
-0.139287 -0.579025 -0.295684
0.278532 -0.579025 0.109109
0.35392 -0.579025 0.119591
0.003273 -0.579025 0.096403
0.008696 -0.579025 0.224468
-0.107935 -0.579025 0.136248
0.22556 -0.579025 0.032344
-0.240656 -0.579025 -0.233608
0.021659 -0.579025 0.190839
0.140267 -0.579025 -0.130344
-0.366437 -0.588218 0.322015
-0.258001 -0.579025 0.086928
-0.168713 -0.59231 0.322015
0.039847 -0.579025 -0.243407
0.377203 -0.579025 -0.010166
0.249538 -0.579025 0.243965
0.103265 -0.579025 -0.295281
-0.060308 -0.579025 -0.378395
-0.20259 -0.579025 -0.124285
0.048156 -0.579025 0.300723
0.30411 -0.579025 -0.072389
-0.039462 -0.579025 -0.199303
0.18607 -0.579025 -0.111928
-0.065964 -0.579025 -0.318288
0.00149 -0.579025 -0.129818
-0.271872 -0.567935 0.348403
0.405886 -0.579025 -0.3653
0.414444 -0.579025 -0.227374
-0.306983 -0.584653 0.322015
0.24309 -0.579025 0.172517
-0.379345 -0.579025 0.195342
0.260186 -0.579025 -0.130948
-0.330455 -0.579025 0.020671
0.403169 -0.579025 0.307351
0.181993 -0.594385 0.322015
0.322505 -0.579025 0.211897
0.169383 -0.579025 -0.080091
-0.038508 -0.579025 -0.077511
0.295572 -0.579025 -0.368776
-0.072402 -0.579025 0.199958
0.295292 -0.579025 0.257634
-0.381188 -0.579025 -0.206622
0.40955 -0.579025 0.12009
-0.387701 -0.579025 -0.082358
-0.249876 -0.579025 0.217851
0.316984 -0.579025 -0.020907
0.021445 -0.604203 0.322015
0.230405 -0.579025 -0.158543
0.047849 -0.579025 -0.03656
-0.343495 -0.579025 0.298309
0.145367 -0.579025 -0.361415
0.021117 -0.579025 -0.305391
-0.177286 -0.579025 0.22158
-0.402136 -0.579025 -0.053282
-0.338159 -0.579025 -0.31799
-0.412503 -0.579025 -0.161521
0.2144 -0.579025 0.080838
0.008047 -0.579025 0.138133
0.244696 -0.579025 -0.286458
-0.100393 -0.579025 -0.276164
-0.227966 -0.587741 0.322015
-0.326358 -0.579025 -0.227773
-0.192287 -0.579025 -0.314101
0.411661 -0.579025 0.06814
0.232998 -0.579025 -0.380149
-0.055226 -0.579025 -0.041359
0.193006 -0.579025 -0.052967
-0.33996 -0.579025 -0.052585
-0.352297 -0.579025 -0.260018
-0.399408 -0.579025 0.247977
0.052011 -0.579025 -0.111548
-0.133206 -0.579025 -0.084347
-0.385604 -0.579025 -0.246332
-0.082399 -0.579025 -0.096836
0.092461 -0.579025 0.01479
-0.28882 -0.579025 -0.128364
0.148779 -0.579025 0.103285
-0.010978 -0.579025 -0.340981
-0.299506 -0.579025 -0.298333
-0.267255 -0.579025 -0.090495
-0.02437 -0.579025 0.318887
0.063656 -0.631143 0.322015
0.292607 -0.593322 0.322015
0.075836 -0.579025 -0.268817
0.440403 -0.579025 -0.023552
0.104648 -0.579025 0.246485
0.337417 -0.579025 0.095347
0.23354 -0.579025 -0.085748
-0.104936 -0.579025 -0.076971
0.192728 -0.567935 0.328067
-0.052587 -0.579025 -0.173271
0.226192 -0.579025 -0.002386
0.239346 -0.579025 0.283203
-0.163593 -0.579025 -0.216208
-0.019659 -0.579025 0.252506
0.064431 -0.579025 -0.159593
0.173912 -0.579025 0.242011
-0.112864 -0.579025 0.20625
-0.26467 -0.579025 -0.338372
0.060455 -0.579025 -0.329471
0.298574 -0.634471 0.344372
0.120543 -0.579025 0.099891
-0.004224 -0.579025 -0.010255
-0.288952 -0.579025 0.150656
0.390622 -0.579025 -0.30081
-0.379174 -0.579025 -0.354556
-0.226772 -0.579025 -0.258198
0.351547 -0.579025 0.147714
0.36674 -0.579025 -0.065626
-0.10641 -0.579025 0.304196
-0.33724 -0.595356 0.322015
-0.341357 -0.634471 0.330353
-0.393155 -0.579025 0.046005
0.044343 -0.579025 -0.377856
0.045886 -0.579025 -0.073064
-0.081587 -0.579025 0.127438
0.14741 -0.579025 0.063892
-0.392944 -0.579025 0.137079
0.261435 -0.569896 0.322015
-0.368597 -0.579025 0.285601
-0.396297 -0.579025 0.017752
0.15144 -0.579025 -0.273766
0.241792 -0.579025 0.078349
0.200589 -0.615824 0.322015
-0.416897 -0.579025 -0.217989
-0.197744 -0.579025 0.203456
-0.182925 -0.579025 0.144402
-0.349712 -0.579025 -0.196119
0.274329 -0.579025 0.299742
-0.373115 -0.579025 3.2e-05
-0.208473 -0.579025 -0.238263
0.098495 -0.579025 -0.046034
-0.288058 -0.579025 0.104596
-0.367764 -0.634471 0.353334
-0.211717 -0.579025 -0.360239
0.269497 -0.579025 -0.216255
-0.263159 -0.579025 -0.211822
-0.181022 -0.579025 0.251359
0.174204 -0.579025 -0.019586
-0.105901 -0.579025 0.035473
0.077201 -0.579025 -0.120534
-0.130601 -0.579025 0.238491
0.035376 -0.579025 0.226075
0.40694 -0.579025 0.225952
-0.295849 -0.579025 -0.195338
-0.225587 -0.579025 0.05268
-0.281258 -0.579025 -0.004443
0.353105 -0.579025 0.251258
0.014435 -0.579025 -0.352147
-0.332865 -0.579025 0.138861
0.133873 -0.579025 0.221428
0.366236 -0.579025 -0.321432
0.10693 -0.579025 -0.361099
-0.280706 -0.579025 0.21429
0.379221 -0.594141 0.322015
-0.23446 -0.634471 0.331357
-0.104331 -0.579025 -0.238781
0.20823 -0.579025 -0.021691
0.397767 -0.579025 -0.062808
-0.069593 -0.579025 -0.248754
0.097541 -0.579025 -0.073735
-0.290882 -0.579025 0.052383
0.261662 -0.579025 -0.041054
0.225669 -0.572509 0.355283
0.00881 -0.579025 -0.044367
-0.091872 -0.579025 -0.367835
0.280604 -0.579025 0.033489
0.255087 -0.579025 0.146439
-0.250864 -0.579025 0.289636
0.336493 -0.579025 0.021615
0.378985 -0.579025 -0.168775
0.268676 -0.579025 -0.100631
-0.368546 -0.579025 0.128763
-0.063743 -0.567935 0.330457
0.212619 -0.579025 -0.132422
0.310348 -0.579025 0.008939
0.279085 -0.579025 0.195312
-0.076086 -0.625583 0.322015
-0.319256 -0.579025 -0.002255
-0.201817 -0.579025 0.010906
0.374508 -0.579025 0.057098
-0.017775 -0.579025 0.129566
-0.047221 -0.579025 0.069715
0.102692 -0.567935 0.322922
-0.403129 -0.579025 -0.109499
0.043057 -0.579025 0.034691
0.002131 -0.579025 -0.275463
0.329821 -0.579025 0.283491
-0.095626 -0.579025 0.05827
-0.021682 -0.579025 0.07899
-0.186834 -0.579025 -0.182259
-0.307824 -0.579025 -0.24433
0.098656 -0.579025 -0.224268
0.272203 -0.579025 0.07683
0.099101 -0.579025 0.130491
-0.1468 -0.579025 -0.265937
0.257493 -0.579025 0.211009
-0.321665 -0.579025 -0.086263
0.317738 -0.579025 0.311326
-0.05 -0.579025 -0.099261
0.337859 -0.579025 -0.19629
0.185404 -0.579025 0.197908
-0.227945 -0.579025 0.142717
-0.237476 -0.567935 0.332765
0.130638 -0.579025 -0.15717
-0.395908 -0.579025 0.276611
0.003356 -0.579025 -0.165257
0.05099 -0.579025 0.272274
0.082237 -0.579025 0.167858
0.178224 -0.579025 0.303452
0.126229 -0.587263 0.322015
-0.101171 -0.634471 0.328038
0.359374 -0.579025 -0.154387
-0.109528 -0.579025 0.174133
-0.394754 -0.579025 0.214087
0.147407 -0.579025 -0.211304
-0.090026 -0.579025 -0.209302
-0.310986 -0.579025 0.249275
0.278253 -0.579025 0.009389
-0.017641 -0.579025 -0.063021
-0.059314 -0.579025 -0.125553
-0.125754 -0.579025 -0.330724
-0.078113 -0.579025 -0.033757
-0.363983 -0.579025 -0.135207
-0.297865 -0.616828 0.322015
0.258709 -0.579025 -0.325341
0.394785 -0.579025 0.006265
0.20063 -0.579025 -0.165278
0.227382 -0.579025 -0.218847
0.206149 -0.579025 -0.251464
0.100145 -0.579025 0.271953
-0.262192 -0.579025 -0.023966
-0.245493 -0.579025 -0.35445
-0.009162 -0.634471 0.329717
-0.221955 -0.579025 0.264377
0.327449 -0.579025 0.058698
-0.237423 -0.579025 -0.295105
-0.016099 -0.579025 -0.201042
-0.190133 -0.579025 0.273881
0.356153 -0.579025 -0.096119
-0.240383 -0.607446 0.322015
-0.356536 -0.579025 0.190635
0.154555 -0.579025 -0.168705
0.360525 -0.579025 0.012861
0.169638 -0.579025 0.048057
0.236139 -0.567935 0.327201
-0.056403 -0.579025 0.096056
0.227285 -0.579025 -0.34554
0.12813 -0.579025 0.160753
-0.028506 -0.579025 0.175433
0.251883 -0.579025 0.033943
-0.326869 -0.579025 0.198582
-0.388887 -0.579025 -0.143448
0.297056 -0.579025 0.093521
-0.08678 -0.579025 -0.298913
0.053651 -0.579025 -0.203612
-0.051239 -0.579025 0.292535
-0.275454 -0.579025 -0.170639
-0.039815 -0.622399 0.322015
0.343679 -0.579025 0.219772
-0.004706 -0.589684 0.322015
-0.184418 -0.579025 -0.292961
0.131471 -0.579025 -0.339928
0.102036 -0.579025 -0.005581
0.479019 -0.291024 0.351316
0.479019 0.443042 0.325491
0.479019 0.578995 0.323428
0.47073 -0.512185 0.355283
0.436457 0.146563 0.322015
0.412483 -0.365385 0.32256
0.412483 0.057301 0.32994
0.412483 0.267391 0.346915
0.426769 -0.0515 0.322015
0.41555 -0.4615 0.322015
0.479019 0.299215 0.327687
0.412483 -0.167158 0.324425
0.436889 0.643091 0.322015
0.417635 0.560272 0.355283
0.479019 0.047068 0.332896
0.432801 0.211137 0.322015
0.479019 -0.352497 0.331419
0.479019 -0.194456 0.322665
0.479019 -0.426707 0.335667
0.42388 -0.567254 0.355283
0.412483 -0.249758 0.326689
0.479019 -0.614063 0.328079
0.474178 0.393283 0.355283
0.425003 -0.521122 0.322015
0.479019 0.244072 0.339196
0.417393 0.003203 0.322015
0.479019 0.18566 0.33683
0.479019 -0.061732 0.332673
0.466328 0.098727 0.322015
0.453658 0.696252 0.328097
0.412483 -0.304102 0.325126
0.468818 -0.560287 0.322015
0.421973 0.102192 0.355283
0.475044 0.620477 0.355283
0.435719 0.313039 0.355283
0.428622 -0.634471 0.333078
0.479019 0.138251 0.34189
0.479019 0.65814 0.323467
0.462274 -0.235497 0.322015
0.445387 -0.401547 0.322015
0.435782 0.598245 0.355283
0.432614 0.508321 0.355283
0.431795 -0.075039 0.355283
0.447565 0.070543 0.355283
0.415333 0.324567 0.322015
0.479019 -0.099837 0.345132
0.479019 0.338945 0.325476
0.478981 -0.462852 0.355283
0.451203 0.165056 0.355283
0.42471 0.489201 0.322015
0.446782 0.417857 0.322015
0.445098 -0.273668 0.355283
0.417057 0.444218 0.322015
0.479019 -0.157221 0.32662
0.461922 0.481532 0.355283
0.412483 0.630336 0.347217
0.448 -0.595567 0.322015
0.447736 0.606039 0.322015
0.450646 -0.017911 0.322015
0.412483 -0.13104 0.322883
0.412483 0.113559 0.32255
0.419318 0.404181 0.355283
0.430659 0.358388 0.322015
0.479019 0.511075 0.33445
0.43692 0.26526 0.322015
0.412483 0.225999 0.353521
0.412483 -0.604503 0.326401
0.461971 -0.601874 0.355283
0.440609 0.130947 0.355283
0.413228 -0.319964 0.355283
0.412483 -0.016019 0.349693
0.445676 0.297653 0.322015
0.454097 -0.272979 0.322015
0.463798 0.099517 0.355283
0.479019 -0.010762 0.337275
0.479019 -0.399232 0.353109
0.43082 -0.244484 0.355283
0.467817 0.333184 0.355283
0.415796 0.680844 0.322015
0.456378 0.491584 0.322015
0.479019 -0.558964 0.352554
0.479019 0.681218 0.344435
0.412878 -0.050628 0.355283
0.412483 -0.489882 0.333157
0.437324 -0.448354 0.355283
0.469009 -0.634471 0.348297
0.458161 0.011552 0.322015
0.431675 0.575454 0.322015
0.468791 0.210823 0.355283
0.445341 0.534643 0.322015
0.479019 -0.211594 0.346901
0.479019 -0.384475 0.327432
0.478675 -0.1732 0.355283
0.479019 0.367154 0.334468
0.416475 0.235753 0.322015
0.426588 0.047424 0.355283
0.412483 -0.436652 0.345082
0.479019 -0.530326 0.333961
0.424082 -0.421416 0.322015
0.470609 0.215636 0.322015
0.422159 -0.549743 0.322015
0.434705 -0.321668 0.322015
0.412483 0.43218 0.347216
0.417996 -0.13828 0.355283
0.421201 0.386076 0.322015
0.459294 -0.04501 0.322015
0.445334 0.394042 0.355283
0.425317 0.080796 0.322015
0.446795 0.192603 0.355283
0.420601 0.610715 0.322015
0.449778 -0.221801 0.355283
0.412483 -0.222895 0.332371
0.479019 0.579725 0.350832
0.479019 0.39798 0.327619
0.438415 0.106695 0.322015
0.433686 0.696252 0.353064
0.412483 -0.191016 0.342028
0.428473 0.535797 0.355283
0.474682 0.161496 0.322015
0.412483 -0.026596 0.325439
0.44646 -0.212457 0.322015
0.478737 -0.07514 0.355283
0.479019 -0.132688 0.342702
0.457621 0.357273 0.355283
0.477735 -0.584737 0.322015
0.4199 0.294321 0.322015
0.421992 0.148875 0.355283
0.456538 0.321 0.322015
0.46877 -0.085507 0.322015
0.441131 -0.164079 0.322015
0.468643 0.011655 0.355283
0.412483 -0.387819 0.337256
0.412483 0.20686 0.335806
0.443148 0.667121 0.322015
0.427515 -0.196686 0.322015
0.416781 -0.074026 0.322015
0.412483 -0.584949 0.341131
0.473609 -0.31434 0.355283
0.475709 0.552623 0.355283
0.479019 0.415645 0.347537
0.476401 -0.453624 0.322015
0.427575 -0.541479 0.355283
0.429277 0.516903 0.322015
0.479019 0.063453 0.350267
0.431203 0.172415 0.322015
0.479019 0.442758 0.353663
0.479019 0.313718 0.34832
0.466269 0.598832 0.355283
0.473059 -0.286258 0.322015
0.463898 -0.173836 0.322015
0.412483 -0.27692 0.336535
0.460864 -0.419794 0.322015
0.441865 -0.437452 0.322015
0.454323 -0.347899 0.322015
0.460971 0.058366 0.322015
-0.450417 0.696252 0.349062
-0.446666 0.252409 0.355283
-0.446151 0.542607 0.322015
-0.452487 -0.0779 0.339243
-0.452487 -0.571433 0.323797
-0.385951 0.170612 0.32283
-0.387511 -0.39261 0.322015
-0.396114 0.411334 0.322015
-0.385951 -0.617049 0.322881
-0.385951 -0.196959 0.324579
-0.452487 0.126165 0.322955
-0.452487 -0.264812 0.339937
-0.393211 0.275849 0.322015
-0.448233 -0.434507 0.322015
-0.452487 0.197286 0.325298
-0.387597 0.089728 0.322015
-0.385951 0.520352 0.323123
-0.452487 -0.017567 0.351679
-0.440698 -0.634471 0.330856
-0.385951 -0.26198 0.328529
-0.39151 -0.556743 0.322015
-0.44944 0.416812 0.322015
-0.406981 0.218318 0.355283
-0.396271 -0.443836 0.322015
-0.425275 -0.124858 0.322015
-0.385951 -0.036027 0.324558
-0.425454 -0.356718 0.322015
-0.402345 0.362669 0.322015
-0.452487 0.299612 0.336599
-0.452487 0.355019 0.346134
-0.420908 0.153392 0.355283
-0.452487 -0.309579 0.336735
-0.399656 0.626119 0.322015
-0.434421 0.438271 0.355283
-0.406697 0.034607 0.322015
-0.441512 -0.531037 0.322015
-0.419503 0.013366 0.355283
-0.409337 0.696252 0.345679
-0.416624 -0.037551 0.355283
-0.410754 0.086445 0.355283
-0.452487 -0.481123 0.333831
-0.42322 -0.243246 0.322015
-0.413666 -0.07159 0.322015
-0.452487 -0.148119 0.337553
-0.452487 0.024098 0.333166
-0.387558 -0.492228 0.322015
-0.392572 0.319553 0.322015
-0.388554 -0.15394 0.322015
-0.452487 -0.389222 0.344527
-0.385951 -0.361216 0.342267
-0.452487 0.659151 0.333318
-0.400201 0.51091 0.355283
-0.412402 -0.382578 0.355283
-0.436307 -0.116899 0.355283
-0.433735 0.611863 0.355283
-0.417977 -0.18188 0.322015
-0.419953 0.24486 0.322015
-0.414732 -0.222743 0.355283
-0.398045 -0.334519 0.322015
-0.404311 -0.634471 0.347208
-0.414744 -0.082307 0.355283
-0.452487 0.169033 0.345836
-0.452487 0.085931 0.33533
-0.385951 0.624663 0.353889
-0.397039 0.17813 0.355283
-0.405165 0.120348 0.355283
-0.452487 0.513283 0.345956
-0.431181 0.445401 0.322015
-0.418699 0.662208 0.322015
-0.452487 -0.447063 0.35293
-0.446078 0.578945 0.322015
-0.389067 0.347788 0.355283
-0.41703 0.003049 0.322015
-0.417979 -0.405752 0.322015
-0.452487 0.387405 0.341571
-0.452487 -0.222901 0.337718
-0.452487 -0.605458 0.339252
-0.450455 0.234849 0.322015
-0.423643 0.323227 0.322015
-0.385951 0.473244 0.322936
-0.438556 0.275886 0.322015
-0.452487 -0.353085 0.337005
-0.385951 -0.292223 0.334385
-0.387563 -0.003077 0.322015
-0.415853 0.596685 0.322015
-0.452487 -0.105841 0.3291
-0.392393 -0.520995 0.322015
-0.403123 -0.250291 0.355283
-0.385951 0.204974 0.340706
-0.414604 0.283559 0.355283
-0.44441 0.69105 0.322015
-0.390508 0.067243 0.355283
-0.385951 0.142767 0.322708
-0.397072 -0.233993 0.322015
-0.414139 -0.038257 0.322015
-0.452487 0.121974 0.349982
-0.385951 -0.387624 0.34921
-0.414849 0.297803 0.322015
-0.385951 0.23457 0.334078
-0.397913 0.649845 0.355283
-0.385951 -0.465624 0.333354
-0.452487 0.640469 0.352041
-0.401172 0.215101 0.322015
-0.452487 0.22183 0.344038
-0.385951 -0.605246 0.345618
-0.427085 0.356259 0.322015
-0.425601 -0.269381 0.322015
-0.41738 -0.575237 0.322015
-0.452487 -0.419564 0.341959
-0.419831 -0.218583 0.322015
-0.445391 0.516481 0.322015
-0.385951 0.415951 0.349295
-0.446688 0.668756 0.355283
-0.385951 0.105837 0.350249
-0.451535 0.409866 0.355283
-0.450762 -0.12939 0.322015
-0.388037 -0.171849 0.355283
-0.385951 -0.024843 0.349182
-0.395783 -0.419745 0.322015
-0.435437 -0.317953 0.322015
-0.42942 -0.453261 0.355283
-0.393123 -0.059244 0.322015
-0.452487 0.321084 0.354309
-0.451353 0.340933 0.322015
-0.452487 -0.510208 0.324757
-0.397664 -0.364609 0.322015
-0.430094 0.557719 0.355283
-0.452487 -0.00299 0.333182
-0.385951 -0.116383 0.333111
-0.452487 0.568045 0.341826
-0.417885 -0.622185 0.322015
-0.44484 -0.092683 0.355283
-0.429384 0.563401 0.322015
-0.385951 -0.216484 0.336282
-0.440882 0.274376 0.355283
-0.385951 0.498242 0.328103
-0.385951 0.018122 0.34441
-0.298434 0.662984 -0.24403
-0.286147 0.642189 0.000661
-0.287461 0.662984 0.135784
-0.327118 0.640805 -0.346041
-0.362526 0.662984 -0.049611
-0.286147 0.651362 0.309757
-0.287213 0.662984 -0.0963
-0.367706 0.662984 -0.191566
-0.366337 0.662984 0.092667
-0.334988 0.662984 0.211122
-0.377665 0.662984 0.315958
-0.383238 0.640805 -0.26959
-0.356173 0.640805 0.024481
-0.397886 0.640805 -0.12309
-0.297144 0.640805 -0.176351
-0.291441 0.662984 0.063197
-0.400531 0.640805 -0.337009
-0.341347 0.662984 -0.13204
-0.374231 0.662984 0.150762
-0.350171 0.662984 0.265585
-0.311429 0.640805 -0.048596
-0.409192 0.640805 -0.066783
-0.324047 0.640805 -0.284874
-0.34724 0.640805 -0.395845
-0.380314 0.640805 0.215037
-0.296772 0.662984 0.24423
-0.333877 0.640805 0.123717
-0.286147 0.641849 -0.317165
-0.394736 0.640805 0.277069
-0.390484 0.640805 -0.381408
-0.339404 0.640805 0.310605
-0.334585 0.662984 -0.088066
-0.324327 0.662984 0.168836
-0.412353 0.640805 -0.164076
-0.363885 0.662984 -0.33807
-0.410035 0.640805 0.143452
-0.334162 0.640805 -0.236845
-0.286147 0.642138 -0.133086
-0.300908 0.640805 0.0975
-0.327198 0.662984 -0.201465
-0.388589 0.662984 -0.232142
-0.398476 0.640805 0.050306
-0.398894 0.640805 0.090187
-0.383042 0.662984 -0.094384
-0.29544 0.640805 -0.375676
-0.404527 0.662984 0.194866
-0.3549 0.662984 -0.012593
-0.345783 0.640805 -0.161618
-0.350229 0.640805 -0.31155
-0.411542 0.662984 -0.402209
-0.286147 0.652079 -0.276786
-0.290459 0.640805 -0.211818
-0.41701 0.662984 -0.363665
-0.320975 0.640805 -0.111704
-0.297152 0.640805 0.168535
-0.317184 0.662984 -0.310986
-0.399396 0.640805 -0.01175
-0.376666 0.662984 -0.158631
-0.381562 0.662984 0.020869
-0.300211 0.662984 -0.026038
-0.35925 0.662984 -0.276073
-0.336683 0.662984 -0.37355
-0.386611 0.640805 -0.041582
-0.360458 0.640805 -0.073213
-0.36092 0.640805 -0.366525
-0.338861 0.662984 0.040199
-0.395556 0.640805 -0.299044
-0.374296 0.662984 0.236475
-0.299752 0.640805 0.266221
-0.36679 0.640805 -0.119773
-0.35655 0.640805 -0.21523
-0.324093 0.662984 -0.160031
-0.347962 0.640805 0.081184
-0.409105 0.662984 0.262471
-0.365434 0.662984 0.062616
-0.333398 0.662984 -0.05807
-0.314049 0.662984 0.121269
-0.409157 0.662984 -0.046924
-0.337793 0.662984 0.100968
-0.406835 0.640805 0.175482
-0.302514 0.662984 -0.12098
-0.32868 0.640805 0.263741
-0.399373 0.662984 0.29717
-0.328607 0.662984 -0.026988
-0.306959 0.662984 -0.362409
-0.40528 0.640805 -0.226306
-0.295231 0.662984 -0.069298
-0.313045 0.640805 0.142387
-0.37615 0.662984 0.123026
-0.286147 0.651414 -0.34321
-0.408775 0.662984 -0.084314
-0.373151 0.662984 -0.377025
-0.306854 0.662984 0.296103
-0.367962 0.662984 0.190005
-0.357317 0.640805 0.137096
-0.286147 0.657032 -0.394514
-0.353011 0.640805 -0.262997
-0.385943 0.662984 -0.408598
-0.382626 0.662984 -0.319808
-0.286147 0.646219 -0.045731
-0.387175 0.640805 0.303094
-0.347444 0.640805 -0.095356
-0.394817 0.640805 0.236128
-0.39988 0.662984 0.164061
-0.406865 0.662984 -0.177866
-0.356852 0.640805 0.292387
-0.31077 0.662984 0.046994
-0.337093 0.662984 0.134882
-0.361851 0.640805 -0.021717
-0.337873 0.662984 0.299309
-0.302565 0.662984 -0.197906
-0.382593 0.640805 0.143194
-0.338058 0.662984 -0.345171
-0.372562 0.640805 0.079387
-0.353759 0.640805 -0.34127
-0.41728 0.662984 -0.239656
-0.322809 0.640805 -0.136114
-0.307969 0.662984 -0.276465
-0.337004 0.640805 -0.198995
-0.298397 0.662984 0.086457
-0.372175 0.662984 0.275606
-0.407934 0.640805 -0.093878
-0.376186 0.662984 -0.117872
-0.381524 0.662984 -0.064044
-0.411749 0.662984 0.004682
-0.378585 0.640805 -0.346136
-0.340606 0.640805 -0.05362
-0.286714 0.662984 -0.180269
-0.37573 0.640805 0.177485
-0.299167 0.640805 -0.235713
-0.319021 0.640805 -0.318961
-0.32304 0.640805 -0.396646
-0.38664 0.662984 -0.208839
-0.319688 0.640805 -0.182503
-0.403412 0.640805 -0.360121
-0.398731 0.662984 0.096762
-0.310863 0.662984 0.1483
-0.286147 0.649638 0.117051
-0.286147 0.645358 0.287757
-0.294824 0.662984 -0.2948
-0.418963 0.662984 0.176088
-0.371062 0.640805 0.007656
0.325209 0.662984 -0.246472
0.427949 0.662984 0.179441
0.312679 0.653264 0.048055
0.349274 0.640805 -0.101022
