0.279188 -0.052923 0.084588
0.277314 -0.665196 0.061489
0.263111 0.451219 0.059061
0.263981 0.701516 0.075661
0.279442 0.255631 0.059612
0.263191 0.101012 0.068488
0.279649 -0.175803 0.061805
0.278609 0.826556 0.084426
0.277107 0.536982 0.082669
0.279649 0.619509 0.075586
0.268114 0.020004 0.0578
0.279649 0.182162 0.078212
0.263111 0.890958 0.06382
0.280201 -0.252727 0.058354
0.28052 0.764138 0.067661
0.275376 0.31413 0.082736
0.279649 -0.115497 0.078594
0.267073 0.378181 0.084508
0.277755 -0.603935 0.06032
0.263981 -0.53261 0.064791
0.277872 -0.484581 0.082941
0.274815 0.057214 0.084283
0.28052 0.488669 0.07845
0.276308 -0.299015 0.084639
0.276875 0.663776 0.056971
0.278416 0.420617 0.0845
0.263111 0.222502 0.078298
0.263111 -0.020748 0.061587
0.263793 -0.634369 0.084678
0.279047 0.579359 0.069059
0.264669 -0.080404 0.059721
0.28052 -0.210998 0.081648
0.279071 0.13739 0.074031
0.263111 0.345964 0.066264
0.279456 0.9225 0.072578
0.277306 -0.56753 0.058557
0.265271 0.290798 0.057451
0.278311 -0.446082 0.068735
0.26329 0.737446 0.084081
0.272941 0.859798 0.073729
0.274921 0.39706 0.058923
0.270423 -0.145766 0.07138
0.265794 0.646977 0.082636
0.263124 0.832065 0.057527
0.263111 0.517358 0.062668
0.278349 0.076557 0.057727
0.278781 -0.008348 0.08458
0.27641 -0.268717 0.084632
0.26414 0.800447 0.082205
0.28052 0.277241 0.080203
0.263111 0.550438 0.060571
0.263981 -0.586199 0.07929
0.279953 -0.632743 0.058644
0.274583 -0.51327 0.083805
0.265201 0.724596 0.058722
0.263111 -0.188866 0.081443
0.267256 -0.476615 0.05844
0.263111 0.048857 0.06074
0.28052 -0.086206 0.081523
0.265167 0.603058 0.058869
0.263111 0.158861 0.068295
0.267926 0.63581 0.057007
0.267797 -0.053446 0.059724
0.263111 0.203558 0.058979
0.266526 0.254507 0.084531
0.279471 0.44747 0.082337
0.278696 -0.288522 0.059952
0.264137 -0.662325 0.084756
0.265187 0.482659 0.057204
0.279649 -0.553115 0.080946
0.28052 0.369364 0.063712
0.280092 -0.510306 0.058605
0.2662 0.562981 0.084477
0.26522 0.420703 0.057284
0.278509 0.899012 0.082572
0.264313 0.022428 0.082614
0.279589 0.802876 0.059216
0.26435 -0.105403 0.057962
0.279875 0.10941 0.084534
0.28052 0.340062 0.082647
0.277278 0.229151 0.059324
0.28052 -0.614437 0.082258
0.276635 0.118124 0.057674
0.277546 -0.001958 0.057828
0.263111 0.747955 0.060725
0.275017 0.687202 0.057061
0.267935 0.680123 0.084452
0.275938 -0.202002 0.059847
0.263111 -0.033974 0.080571
0.263111 0.76515 0.082551
0.263111 0.472721 0.077736
0.28052 0.036019 0.067412
0.264201 0.912697 0.058807
0.263981 0.292144 0.07971
0.263111 -0.167743 0.074247
0.276181 0.20314 0.084547
0.276486 -0.462664 0.082935
0.263981 0.40639 0.075304
0.276868 -0.228815 0.069646
0.263111 0.774293 0.059717
0.28052 -0.03758 0.068222
0.263281 0.086165 0.084204
0.263352 0.94255 0.084114
0.275092 0.71767 0.084357
0.279649 0.66235 0.0783
0.28052 -0.544496 0.060091
0.28052 0.151475 0.058743
0.263111 0.431336 0.075014
0.28052 0.155958 0.083218
0.28052 0.462136 0.061902
0.28052 0.539218 0.060478
0.263111 -0.617531 0.065719
0.265696 -0.584589 0.058579
0.263111 0.358006 0.083139
0.263981 0.120233 0.075736
0.2802 0.741255 0.073096
0.267675 -0.64896 0.069605
0.276951 0.594535 0.082653
0.274839 0.176516 0.059129
0.279649 0.241547 0.075664
0.263981 0.324651 0.062447
0.264268 -0.493118 0.069527
0.278557 0.784363 0.067685
0.273386 -0.247334 0.076573
0.275567 0.507253 0.082463
0.266707 -0.067212 0.074099
0.278767 0.880171 0.068496
0.265087 0.266266 0.069018
0.28052 0.39993 0.083014
0.26609 0.884289 0.082576
0.28052 0.83227 0.066195
0.276058 0.503802 0.05899
0.274866 -0.57154 0.084456
0.28052 0.056111 0.061688
0.279649 0.299772 0.065646
0.279743 -0.157446 0.058035
0.266459 0.817386 0.068593
0.263111 0.333573 0.081098
0.28052 -0.167024 0.080746
0.278683 -0.313987 0.069379
0.28052 0.341295 0.060763
0.279649 0.196626 0.063465
0.264536 -0.540972 0.084679
0.279649 0.443868 0.061836
0.28032 0.100306 0.058024
0.263981 -0.459107 0.062149
0.276017 0.011466 0.074031
0.26365 -0.608271 0.084636
0.263981 -0.092732 0.078311
0.263981 0.039885 0.078268
0.263111 0.652986 0.065924
0.267386 0.706148 0.058744
0.279548 0.696014 0.082137
0.28052 -0.185941 0.083115
0.279604 -0.591913 0.073313
0.279646 0.636072 0.081783
0.263111 0.798454 0.063705
0.263847 0.245985 0.069246
0.28052 0.358062 0.08067
0.28052 -0.271123 0.060457
0.279649 -0.071896 0.061663
0.28052 -0.465647 0.060502
0.273149 0.071034 0.074082
0.263111 0.18576 0.075302
0.263981 0.621361 0.065396
0.274648 -0.135101 0.084054
0.28052 -0.641819 0.078322
0.278451 -0.101815 0.068441
0.263981 0.451772 0.076773
0.265205 0.498156 0.072643
0.28052 0.615192 0.059267
0.267221 -0.550311 0.069854
0.266208 0.134766 0.084553
0.263111 -0.472867 0.074303
0.265597 0.622049 0.084465
0.2805 0.519934 0.057882
0.28052 0.80234 0.079258
0.263111 0.669647 0.064727
0.277854 0.413016 0.068912
0.280734 -0.663091 0.083963
0.28052 0.324011 0.061234
0.28052 -0.430882 0.062458
0.263981 0.784523 0.075599
0.263981 0.142694 0.064736
0.278415 0.03488 0.084572
0.263111 0.904806 0.081356
0.279649 0.844844 0.076721
0.279281 -0.022258 0.059793
0.265198 0.161354 0.084555
0.28052 0.897843 0.066455
0.271125 -0.020221 0.076482
0.263981 0.544646 0.076942
0.278738 0.716483 0.068578
0.26848 0.385302 0.068025
0.28052 0.212776 0.063867
0.263981 0.927716 0.077936
0.263981 0.875163 0.060922
0.27538 0.520259 0.072851
0.263525 0.816102 0.084289
0.264193 0.598709 0.07401
0.264005 0.070463 0.060212
0.263111 -0.007884 0.082071
0.28052 0.640957 0.066913
0.277252 0.476826 0.068731
0.274393 0.555642 0.073013
0.263111 -0.600615 0.064535
0.279649 -0.482904 0.065193
0.279649 -0.284557 0.08037
0.276273 0.094499 0.082787
0.263111 0.848544 0.077576
0.263111 -0.254015 0.067206
0.280018 0.753082 0.056944
0.2773 -0.501657 0.074336
0.279649 -0.619051 0.065029
0.266483 0.368568 0.072875
0.263111 0.032255 0.065267
0.274399 0.463044 0.076156
0.263142 0.233864 0.058191
0.265305 0.53065 0.069113
0.279649 -0.526764 0.079915
0.28052 0.869152 0.058585
0.264674 0.25548 0.057497
0.276226 0.683154 0.072444
0.279649 0.568611 0.081744
0.2746 -0.303979 0.059243
0.263111 -0.164778 0.059736
0.274818 0.821433 0.05706
0.278949 0.943928 0.068207
0.263111 0.486859 0.082057
0.263732 -0.305846 0.069492
0.263111 0.186118 0.060563
0.264014 -0.442546 0.068092
0.263111 -0.573177 0.067448
0.276403 0.298311 0.084528
0.276439 0.164799 0.069219
0.263111 0.310439 0.059449
0.279649 0.591846 0.061657
0.274003 -0.087358 0.068391
0.264429 0.235533 0.08454
0.268753 -0.005152 0.069003
0.264594 -0.631274 0.070008
0.274803 0.091698 0.068244
0.28052 0.881258 0.082794
0.279649 0.911279 0.061258
0.26392 -0.640502 0.058591
0.278149 -0.191555 0.069483
0.263981 -0.053189 0.075644
0.270423 -0.520967 0.07019
0.267753 0.725798 0.072791
0.278696 -0.530283 0.060246
0.278966 0.604424 0.07248
0.268102 -0.217493 0.069667
0.280517 0.118871 0.073823
0.263415 -0.663829 0.059147
0.28052 0.37211 0.082187
0.263981 0.51222 0.076113
0.263111 0.683837 0.063808
0.265234 0.660871 0.084458
0.263114 -0.27601 0.083802
0.266108 0.00603 0.057818
0.279649 0.423589 0.060107
0.275469 0.227245 0.072883
0.28052 0.630052 0.058459
0.274322 0.047536 0.073328
0.273208 -0.263379 0.072339
0.266341 0.571573 0.073709
0.279656 -0.646483 0.058587
0.28052 0.818646 0.07354
0.279649 0.388861 0.075225
0.279649 -0.031957 0.080533
0.27038 -0.112788 0.068427
0.263111 0.633694 0.078107
0.270423 0.203084 0.0709
0.280384 -0.496827 0.058874
0.267154 -0.075568 0.084592
0.264698 0.196209 0.084548
0.278058 0.773766 0.058662
0.273554 0.277755 0.068814
0.263111 -0.620605 0.079536
0.273701 -0.176425 0.074173
0.27885 -0.239481 0.058134
0.274217 -0.56372 0.073707
0.28052 0.016486 0.062569
0.279649 -0.438037 0.080453
0.274651 0.911687 0.083147
0.277606 0.487257 0.057198
0.27618 -0.605563 0.073365
0.279487 -0.050649 0.069336
0.274104 0.698739 0.067749
0.264814 0.749675 0.073601
0.266456 0.761686 0.058677
0.266886 0.147832 0.084551
0.268698 0.173825 0.082951
0.263111 0.502922 0.060368
0.263111 0.101189 0.081486
0.279523 0.384925 0.059573
0.263111 0.842193 0.065557
0.279157 -0.223797 0.08278
0.28052 -0.25571 0.083328
0.266641 -0.131333 0.059762
0.263111 0.432747 0.062241
0.273343 -0.660843 0.073704
0.273863 0.150078 0.07397
0.278021 -0.127756 0.074114
0.276124 0.670174 0.068803
0.269027 0.361881 0.058436
0.28052 0.789911 0.082232
0.278964 -0.074567 0.074131
0.273787 -0.163028 0.069167
0.263111 0.714007 0.082168
0.265418 0.107172 0.057688
0.263111 0.055756 0.079766
0.273208 -0.581653 0.069961
0.273862 0.311843 0.065648
0.273722 0.772779 0.073584
0.270505 0.831813 0.073621
0.28052 -0.323064 0.078672
0.265271 0.486214 0.069139
0.279173 -0.198708 0.082766
0.263148 -0.032753 0.058507
0.279267 0.138851 0.059589
0.263111 -0.043475 0.068077
0.268234 -0.28593 0.074208
0.275023 0.434712 0.068674
0.275436 0.581204 0.057079
0.277988 -0.579822 0.058573
0.28052 -0.31037 0.08246
0.270372 0.109686 0.076414
0.263981 0.866493 0.078682
0.277972 0.325429 0.073087
-0.293103 0.366322 0.062575
-0.293974 0.705547 0.079679
-0.29026 -0.665196 0.084126
-0.277151 0.952079 0.084414
-0.293974 0.008147 0.067901
-0.293974 -0.194643 0.067436
-0.277435 -0.468768 0.062621
-0.290269 0.831744 0.058657
-0.289823 0.251987 0.084596
-0.293974 -0.088968 0.060742
-0.280353 0.461617 0.082755
-0.288776 0.099689 0.084616
-0.276775 0.610699 0.08421
-0.280815 0.176237 0.08283
-0.293103 0.769757 0.08161
-0.293958 0.895644 0.057501
-0.288666 -0.606678 0.060351
-0.278309 0.305991 0.059296
-0.293974 -0.524788 0.061102
-0.291089 0.550816 0.084544
-0.281552 0.656939 0.057046
-0.280775 -0.04109 0.084659
-0.293974 -0.14338 0.063554
-0.2931 0.417961 0.060017
-0.293103 -0.264799 0.062738
-0.292031 0.058575 0.057816
-0.293974 0.505239 0.068052
-0.278658 0.218331 0.059402
-0.291399 -0.560903 0.084747
-0.293876 -0.230937 0.084216
-0.27768 0.136932 0.08256
-0.278299 0.805654 0.084495
-0.277439 0.864475 0.07445
-0.292719 0.332994 0.082633
-0.293153 -0.29773 0.084706
-0.27801 0.039521 0.084636
-0.279448 0.396485 0.084574
-0.282076 0.915145 0.084347
-0.288244 -0.499201 0.083313
-0.288795 -0.630924 0.084752
-0.288679 0.274333 0.057569
-0.27683 -0.574731 0.058878
-0.292981 -0.111083 0.084673
-0.277346 -0.074355 0.08466
-0.290868 0.626014 0.058907
-0.282458 -0.02058 0.059077
-0.276565 -0.169643 0.076297
-0.293974 -0.053136 0.059573
-0.293103 0.581044 0.079169
-0.279688 0.070326 0.08463
-0.277679 0.554288 0.057178
-0.279796 -0.652135 0.058653
-0.293974 0.29089 0.082316
-0.289868 0.737882 0.084508
-0.276569 0.644267 0.083673
-0.277367 -0.594195 0.084757
-0.290406 0.684721 0.05701
-0.276565 -0.238576 0.061974
-0.277435 0.442414 0.062161
-0.282475 0.090629 0.058889
-0.288942 0.222573 0.084602
-0.28904 0.472992 0.059338
-0.276892 0.684702 0.084317
-0.291913 0.840212 0.084488
-0.293943 0.888743 0.083796
-0.276899 0.342521 0.057644
-0.277634 0.52941 0.067635
-0.293974 -0.013471 0.082959
-0.293974 0.796953 0.065257
-0.277673 0.707599 0.059098
-0.276565 -0.259185 0.081883
-0.291752 0.240626 0.059375
-0.293956 0.392203 0.058124
-0.27803 0.181336 0.057658
-0.293974 0.935657 0.073872
-0.279819 0.036142 0.057845
-0.289913 0.434475 0.082756
-0.293974 0.198675 0.077987
-0.293974 -0.220641 0.05913
-0.277435 -0.295417 0.064643
-0.293103 0.662335 0.079532
-0.293103 0.126186 0.066575
-0.282015 0.600493 0.057215
-0.276565 0.360784 0.07968
-0.289286 -0.47428 0.082935
-0.277435 0.157089 0.066392
-0.288198 0.488046 0.083134
-0.293974 0.854858 0.058863
-0.276565 0.910985 0.062117
-0.293974 0.327598 0.060154
-0.293213 0.153265 0.084614
-0.277435 0.01686 0.080485
-0.292371 0.527366 0.084549
-0.293974 -0.48402 0.062514
-0.276565 -0.320671 0.077256
-0.277435 0.305305 0.081547
-0.288123 -0.631889 0.059153
-0.293958 -0.132882 0.083949
-0.276565 0.380847 0.064117
-0.284601 -0.279078 0.076654
-0.276565 0.255284 0.063479
-0.293103 0.630937 0.080326
-0.276565 0.575655 0.059212
-0.293196 -0.088838 0.084662
-0.276565 0.806835 0.058322
-0.293103 -0.311612 0.061414
-0.282482 0.876585 0.05786
-0.293974 -0.454707 0.065454
-0.291232 -0.583184 0.073481
-0.282492 -0.50215 0.05932
-0.277435 0.116467 0.076305
-0.277478 0.751167 0.074306
-0.293974 0.720102 0.062465
-0.288147 -0.166007 0.059418
-0.277435 0.493092 0.065113
-0.276565 -0.100408 0.060443
-0.291826 -0.557969 0.05861
-0.276565 0.510904 0.077036
-0.293103 -0.157637 0.078034
-0.276666 0.286573 0.068426
-0.29308 0.171885 0.067575
-0.27743 0.409599 0.069273
-0.281054 0.781576 0.068606
-0.293974 0.567327 0.06411
-0.278235 0.268024 0.084593
-0.277435 -0.003013 0.08073
-0.277435 -0.065796 0.066953
-0.29197 -0.648617 0.073587
-0.293974 0.293346 0.062285
-0.277435 0.715952 0.078811
-0.276565 0.008869 0.059071
-0.293103 0.602815 0.077239
-0.293103 -0.211936 0.080753
-0.276565 -0.612177 0.074375
-0.27757 0.053205 0.069367
-0.288759 -0.058926 0.082912
-0.289388 -0.246743 0.074249
-0.278678 0.890745 0.072411
-0.283877 0.818438 0.07153
-0.277335 0.590427 0.072588
-0.281401 -0.544832 0.084749
-0.293103 0.082431 0.07913
-0.293103 0.144985 0.064578
-0.278234 0.67459 0.068885
-0.293736 -0.664234 0.059412
-0.277435 0.325572 0.075572
-0.276565 0.342792 0.08319
-0.291724 0.205515 0.059418
-0.293974 0.309884 0.075441
-0.292318 0.527721 0.057212
-0.293103 0.92414 0.059972
-0.282708 0.074449 0.066778
-0.289115 0.45477 0.068032
-0.278057 -0.137791 0.069712
-0.293103 0.271676 0.075322
-0.292743 -0.037579 0.068282
-0.277527 0.236376 0.069293
-0.291907 0.349821 0.069181
-0.288998 0.110272 0.05775
-0.29218 -0.45256 0.082981
-0.277435 0.209986 0.079708
-0.276565 0.540744 0.083136
-0.293974 0.797605 0.083549
-0.279833 0.563102 0.073779
-0.293974 -0.174987 0.080896
-0.293974 0.683193 0.080842
-0.292811 0.545013 0.059239
-0.293022 -0.520867 0.082508
-0.290391 0.370115 0.084574
-0.276565 0.839398 0.076477
-0.293103 -0.59953 0.078841
-0.293098 -0.320251 0.08217
-0.293103 0.061383 0.078762
-0.293103 0.756204 0.0616
-0.276565 0.617875 0.063242
-0.276565 -0.486654 0.063041
-0.277498 0.699665 0.074273
-0.277435 -0.567301 0.076171
-0.293974 0.642545 0.058204
-0.277435 0.635764 0.06166
-0.277748 -0.660843 0.073788
-0.288062 -0.004754 0.058568
-0.277435 -0.102143 0.07706
-0.277887 0.419609 0.082652
-0.292816 0.034437 0.068159
-0.293974 0.589809 0.060964
-0.293974 -0.075455 0.0751
-0.292915 -0.029978 0.084657
-0.281057 0.193856 0.069081
-0.277435 0.628234 0.077033
-0.277834 0.324387 0.05942
-0.277798 0.855172 0.058804
-0.276565 -0.639828 0.068577
-0.293974 0.418999 0.080795
-0.279046 0.427829 0.068854
-0.292743 -0.576869 0.058635
-0.277435 0.362289 0.063731
-0.28912 0.877133 0.072383
-0.278747 -0.214959 0.073089
-0.293103 0.133474 0.080872
-0.290331 -0.181662 0.058126
-0.277141 0.102371 0.069138
-0.293453 0.046676 0.084566
-0.290961 -0.127202 0.069554
-0.289005 -0.620622 0.070063
-0.293071 -0.548465 0.075106
-0.287115 0.382497 0.075431
-0.276635 -0.640536 0.084236
-0.278054 0.766861 0.072435
-0.293974 0.647033 0.077362
-0.281127 -0.080997 0.057996
-0.293974 0.487169 0.062373
-0.277675 -0.039722 0.069254
-0.279121 -0.050243 0.057957
-0.291865 0.112212 0.074059
-0.283475 0.731254 0.065315
-0.293974 0.825789 0.080378
-0.292331 -0.297703 0.069716
-0.280104 -0.593018 0.070079
-0.293663 -0.645792 0.058859
-0.277435 -0.181243 0.065676
-0.279014 0.121348 0.057736
-0.293974 0.466889 0.079891
-0.281605 0.024363 0.068365
-0.277435 -0.325409 0.063227
-0.28992 0.69975 0.056991
-0.293974 0.182604 0.081523
-0.293103 0.610393 0.064698
-0.293974 0.663867 0.060116
-0.280245 0.473113 0.073835
-0.276565 -0.560345 0.061004
-0.289046 -0.592156 0.058653
-0.293974 0.234579 0.078145
-0.281092 0.543465 0.068752
-0.280031 0.088062 0.072955
-0.282804 0.396481 0.066524
-0.276565 0.204079 0.05959
-0.278712 -0.578787 0.084751
-0.280366 0.923305 0.072683
-0.283462 -0.517396 0.067319
-0.293974 0.923604 0.081485
-0.277704 -0.440107 0.082736
-0.290045 0.451386 0.084559
-0.293974 0.097855 0.063017
-0.293974 0.906305 0.066836
-0.279829 0.897688 0.058577
-0.281081 0.782979 0.082669
-0.293103 0.013528 0.08089
-0.276565 0.665346 0.079381
-0.293005 0.391431 0.084575
-0.293974 0.722536 0.076327
-0.293237 0.4357 0.069161
-0.276565 0.056675 0.083713
-0.284428 -0.534808 0.066459
-0.277435 -0.243486 0.080754
-0.279235 0.232637 0.0846
-0.279787 0.821668 0.084492
-0.293974 0.515526 0.077384
-0.291676 -0.499351 0.069922
-0.280397 0.652951 0.073723
-0.276565 0.831623 0.05937
-0.286662 0.213198 0.069583
-0.286662 0.260025 0.072253
-0.293974 0.818719 0.059521
-0.293103 -0.258706 0.079467
-0.278359 0.162894 0.082834
-0.276565 0.478927 0.062155
-0.286662 -0.018331 0.072631
-0.277435 0.737239 0.079225
-0.290991 0.408259 0.069177
-0.293974 0.869703 0.062274
-0.277103 0.59666 0.084467
-0.29166 -0.098798 0.069569
-0.283877 -0.447668 0.070955
-0.286339 0.580015 0.067669
-0.29034 0.049269 0.069518
-0.276567 -0.625758 0.083925
-0.289312 -0.564844 0.069712
-0.287531 -0.229868 0.066181
-0.283877 -0.05495 0.070938
-0.293103 -0.065687 0.063618
-0.286662 0.84682 0.072382
-0.277159 -0.665035 0.058715
-0.291932 -0.113822 0.069512
-0.276565 -0.089183 0.077533
-0.279972 0.337328 0.069153
-0.277249 -0.272015 0.084683
-0.281324 0.818887 0.056837
-0.290075 -0.535424 0.083002
-0.281716 -0.152984 0.074194
-0.277435 0.374943 0.079302
-0.289763 0.680214 0.069055
-0.289685 0.811346 0.084494
-0.289817 0.635768 0.069044
-0.276565 0.456233 0.067812
-0.290982 0.557326 0.072682
-0.281602 -0.077016 0.073127
-0.277435 0.71824 0.065789
-0.293974 -0.173565 0.067598
-0.28197 0.442785 0.073854
-0.27971 0.416645 0.059161
-0.293867 -0.507294 0.059002
-0.293974 0.158759 0.064203
-0.293974 0.873966 0.08343
-0.289904 0.404393 0.057371
-0.276597 0.679793 0.05769
-0.291127 0.94401 0.082626
-0.292718 0.734704 0.072842
-0.283579 0.179693 0.068974
-0.293974 -0.000787 0.076447
-0.288037 0.516174 0.058147
-0.278222 0.19808 0.082819
-0.277435 -0.062056 0.078699
-0.293881 0.577912 0.057656
-0.290753 0.220573 0.0594
-0.279777 0.607322 0.068684
-0.293974 -0.286205 0.080545
-0.293974 0.899 0.077054
-0.289186 0.527957 0.072728
-0.277487 -0.027556 0.067851
-0.293103 0.786641 0.078194
-0.287133 0.692386 0.076175
-0.281007 -0.028087 0.082885
-0.294716 0.955975 -0.148634
-0.277008 0.952637 -0.03402
-0.294625 0.935551 -0.089079
-0.290411 0.958775 0.024136
-0.288957 0.916872 -0.14654
-0.280799 0.934866 0.051706
-0.281231 0.933228 -0.001139
-0.277315 0.953887 -0.115601
-0.293741 0.958882 -0.062315
-0.294151 0.933297 -0.051484
-0.293344 0.956703 -0.013147
-0.280266 0.958918 -0.085039
-0.29354 0.934852 -0.122499
-0.294203 0.933511 -0.024455
-0.289856 0.958734 0.055344
-0.289404 0.935208 0.0213
-0.277428 0.940409 -0.145409
-0.279386 0.933064 -0.072333
-0.277273 0.935505 -0.104499
-0.29288 0.958939 -0.101603
-0.276865 0.952326 0.003796
-0.286045 0.923516 -0.165014
-0.294448 0.955692 -0.042313
-0.292288 0.948004 0.040186
-0.278414 0.947811 -0.052017
-0.280772 0.934845 -0.038263
-0.278237 0.943324 0.067547
-0.276759 0.942196 0.032005
-0.293818 0.958338 0.082527
-0.293877 0.95355 -0.121729
-0.293903 0.947789 -0.076025
-0.294147 0.937442 -0.148636
-0.27693 0.950912 -0.013286
-0.277743 0.957609 -0.148698
-0.292177 0.958797 0.007474
-0.278774 0.933188 -0.018561
-0.27822 0.939969 -0.124765
-0.29419 0.933243 -0.067744
-0.291057 0.9443 -0.106037
-0.293195 0.947994 -0.029363
-0.291155 0.943269 -0.006421
-0.290283 0.943933 -0.13576
-0.281527 0.958712 0.071953
-0.293538 0.94428 0.010515
-0.278978 0.944412 0.018017
-0.287599 0.934866 0.037694
-0.284435 0.94538 -0.064479
-0.284091 0.943859 -0.093243
-0.291389 0.947914 0.067568
-0.281792 0.957018 0.03452
-0.293224 0.940514 0.051474
-0.278239 0.951714 -0.129753
-0.28238 0.95882 -0.04409
-0.292553 0.95892 -0.087019
-0.277103 0.957748 -0.0593
-0.2792 0.944386 -0.023664
0.279541 0.957986 0.083559
0.275962 0.957235 -0.118594
0.265316 0.944007 -0.018372
0.271058 0.923387 -0.165342
0.26293 0.939083 0.035418
0.26712 0.95718 -0.067937
0.278563 0.957091 0.010163
0.265359 0.93302 -0.091101
0.263071 0.954213 -0.148703
0.280038 0.942771 -0.044537
0.264533 0.944443 0.062732
0.265842 0.932958 -0.117951
0.27879 0.935365 -0.141239
0.27899 0.95442 -0.091694
0.263309 0.933099 -0.061381
0.28037 0.955244 0.043581
0.279518 0.933251 -0.00071
0.264409 0.92017 -0.145581
0.279601 0.9333 0.019826
0.278864 0.935096 -0.074475
0.262411 0.957744 -0.10223
0.264102 0.944051 0.014093
0.280111 0.954971 -0.025079
0.28041 0.958117 0.064296
0.279592 0.933743 0.056971
0.26386 0.947583 -0.130836
0.278938 0.936685 -0.105538
0.262941 0.957831 0.038323
0.279683 0.953195 -0.138731
0.262635 0.938546 -0.042755
0.277236 0.958817 -0.00846
0.279391 0.935482 0.038069
0.280116 0.938219 -0.023702
0.275227 0.947802 0.027661
0.27967 0.958684 -0.057892
0.263666 0.949905 -0.000362
0.279728 0.939495 -0.126767
0.264536 0.939722 -0.145033
0.26396 0.95585 0.077542
0.264027 0.956856 0.020936
0.263259 0.944337 -0.107223
0.268187 0.948076 -0.056928
0.272578 0.944657 -0.083814
0.267146 0.947642 0.049367
0.277487 0.943282 0.009694
0.279101 0.941456 -0.062237
0.263374 0.936221 -0.077848
0.262413 0.958439 -0.120678
0.278564 0.957112 -0.038208
0.262738 0.956337 -0.015617
0.279041 0.954095 -0.078132
0.265775 0.93502 0.047005
0.276053 0.94873 -0.104228
0.267545 0.958922 -0.09027
0.274441 0.958929 -0.148745
0.270904 0.758975 0.013629
0.27308 0.764015 -0.058854
0.276525 0.779574 -0.004469
0.270904 0.762256 0.043011
0.270945 0.756923 -0.036968
0.27511 0.777398 0.026274
0.272546 0.769915 -0.117099
0.270904 0.757193 -0.006682
0.270904 0.776905 -0.046871
0.278518 0.777396 -0.138078
0.273787 0.777398 -0.069705
0.269452 0.777405 -0.023986
0.270904 0.768867 -0.087415
0.27308 0.777256 -0.101972
0.266767 0.777398 0.044539
0.270904 0.774118 0.007566
0.267406 0.779574 -0.12763
0.263454 0.778474 -0.060774
0.266242 0.778004 -0.141181
0.278515 0.56835 -0.135747
0.266531 0.568358 -0.065998
0.27162 0.545996 -0.024514
0.273075 0.542635 0.031284
0.273075 0.562656 -0.102011
0.278955 0.57053 -0.043468
0.270899 0.559346 0.001446
0.277962 0.568353 -0.019123
0.266356 0.570534 -0.118092
0.273075 0.565274 0.055793
0.270899 0.56129 -0.082342
0.270899 0.554644 -0.043372
0.273075 0.557119 0.01826
0.273075 0.557448 0.038543
0.269023 0.57053 -0.031572
0.263698 0.570491 -0.137183
0.273075 0.555125 -0.068475
0.26585 0.568354 0.030999
0.28064 0.569752 -0.119496
0.280685 0.569943 0.009529
0.273075 0.549202 0.049237
0.276691 0.570352 0.03956
0.270016 0.57053 -0.090869
0.273075 0.350763 0.030376
0.278569 0.359447 -0.121531
0.270899 0.334527 0.00146
0.273075 0.343959 -0.037907
0.27098 0.326087 0.04332
0.276827 0.359447 -0.094499
0.263879 0.360859 -0.137627
0.270899 0.354287 0.00755
0.273075 0.353823 0.049378
0.273075 0.333445 0.022321
0.270899 0.342356 -0.056257
0.273075 0.347101 -0.020504
0.274421 0.361623 -0.009305
0.264606 0.359508 -0.112409
0.280379 0.360261 -0.045819
0.279141 0.361372 -0.139507
0.270899 0.348953 -0.072616
0.274146 0.361623 0.019363
0.277445 0.360952 0.038656
0.265557 0.359448 -0.02967
0.270899 0.347501 -0.002849
0.278162 0.361623 -0.109468
0.280691 0.152498 -0.009319
0.268557 0.150969 0.039935
0.27307 0.132606 -0.048572
0.271614 0.119381 0.029746
0.270894 0.13968 -0.079641
0.27307 0.126951 -0.016513
0.27307 0.131205 0.008069
0.265772 0.15041 -0.130271
0.265034 0.150389 0.007655
0.280077 0.150873 -0.051424
0.270894 0.132327 0.044545
0.270894 0.135503 0.025717
0.275125 0.150402 -0.066553
0.270894 0.137489 -0.027303
0.263908 0.150854 -0.016293
0.269885 0.152578 -0.041883
0.268153 0.151189 -0.116506
0.270894 0.148123 -0.09053
0.270894 0.130017 0.057444
0.267479 0.150407 -0.05457
0.278715 0.150393 -0.134478
0.280222 -0.13946 -0.150893
0.274753 -0.115828 -0.001951
0.280406 -0.137753 -0.041772
0.267647 -0.125384 0.038966
0.276686 -0.116057 -0.118737
0.265963 -0.114325 -0.146558
0.280406 -0.131954 -0.085459
0.268167 -0.140426 0.011801
0.280391 -0.115041 -0.058097
0.262997 -0.138631 -0.018684
0.266822 -0.138706 -0.129825
0.277398 -0.114325 -0.034085
0.279613 -0.12904 0.058013
0.280406 -0.1173 0.019035
0.27107 -0.14964 -0.167704
0.267237 -0.138706 -0.060927
0.264409 -0.15308 -0.147776
0.269623 -0.125258 -0.102087
0.280406 -0.139452 -0.008527
0.279536 -0.136299 -0.115733
0.280406 -0.123244 -0.1353
0.265276 -0.140438 0.048152
0.274909 -0.140326 0.032722
0.279101 -0.124479 -0.017854
0.267946 -0.125746 -0.074759
0.280406 -0.11549 0.044424
0.263868 -0.120189 -0.056574
0.278939 -0.116103 -0.084858
0.263757 -0.129473 -0.150893
0.277523 -0.12901 0.007134
0.267527 -0.130167 0.023239
0.266069 -0.129258 -0.116682
0.275249 -0.138717 -0.097831
0.279001 -0.12912 -0.053298
0.279533 -0.116882 -0.15067
0.263125 -0.140019 -0.001388
0.267869 -0.140438 -0.081268
0.263868 -0.117219 -0.131037
0.280275 -0.140025 0.018891
0.270781 -0.123605 -0.041978
0.279536 -0.135116 -0.072015
0.278909 -0.114413 0.058013
0.279536 -0.1369 -0.137697
0.277088 -0.114325 -0.100105
0.262997 -0.117684 -0.11267
0.264695 -0.13017 -0.087225
-0.293217 -0.117147 -0.078079
-0.293217 -0.132846 -0.00366
-0.294087 -0.137997 -0.148392
-0.282535 -0.114839 0.030044
-0.292484 -0.129066 -0.038336
-0.294087 -0.130305 -0.10537
-0.28919 -0.11632 0.056973
-0.280335 -0.140438 -0.070892
-0.277445 -0.140432 0.016615
-0.294087 -0.138542 0.033205
-0.277776 -0.116343 0.007127
-0.285685 -0.14931 -0.166295
-0.289018 -0.115984 -0.150828
-0.293231 -0.129012 -0.126654
-0.292495 -0.129048 -0.059275
-0.277549 -0.136903 -0.093042
-0.282201 -0.135781 0.049997
-0.294087 -0.116854 -0.022075
-0.292328 -0.129336 0.014935
-0.279796 -0.140438 -0.051285
-0.288235 -0.115552 -0.048261
-0.277549 -0.132439 -0.109765
-0.292479 -0.114325 -0.118098
-0.294087 -0.139058 -0.019091
-0.279586 -0.131429 0.030887
-0.294087 -0.138727 -0.079347
-0.27749 -0.125749 -0.061553
-0.289263 -0.125687 -0.089391
-0.293731 -0.114494 -0.0077
-0.286955 -0.125342 -0.139258
-0.282455 -0.125258 -0.025301
-0.292945 -0.124356 0.030671
-0.276869 -0.124943 0.017664
-0.288049 -0.122384 0.044873
-0.2891 -0.152044 -0.151912
-0.283617 -0.153315 0.060258
-0.291685 -0.114325 -0.034319
-0.28243 -0.139046 -0.027171
-0.281461 -0.125614 -0.123845
-0.276922 -0.118957 -0.150828
-0.284878 -0.122246 -0.107661
-0.288536 -0.137455 -0.118955
-0.286553 -0.124443 0.0023
-0.284015 0.119949 0.043664
-0.286191 0.131115 -0.009893
-0.280648 0.152578 -0.119244
-0.285551 0.136498 -0.075714
-0.284015 0.130341 0.013868
-0.284015 0.140454 0.036103
-0.291833 0.150393 -0.029849
-0.284015 0.133518 -0.053989
-0.27885 0.151014 -0.13887
-0.284015 0.134985 0.052832
-0.276393 0.152486 0.045359
-0.282614 0.150402 -0.065014
-0.286191 0.124081 0.028012
-0.284015 0.141596 -0.040614
-0.278351 0.152578 0.006016
-0.279129 0.152578 -0.010254
-0.292393 0.150463 -0.134821
-0.282407 0.150402 0.023037
-0.282735 0.150454 0.056845
-0.286186 0.351933 -0.045614
-0.28401 0.336235 0.028537
-0.28401 0.347098 -0.008162
-0.285873 0.353516 -0.125726
-0.276398 0.36107 -0.026437
-0.28401 0.348613 -0.072059
-0.282944 0.359447 0.014238
-0.280955 0.359447 0.045313
-0.286051 0.350536 -0.107351
-0.281756 0.359447 -0.088312
-0.277174 0.361132 -0.138011
-0.276377 0.361304 0.029216
-0.286186 0.342892 0.007266
-0.286186 0.33455 0.047238
-0.276539 0.361623 -0.005118
-0.28401 0.345402 -0.021254
-0.286186 0.352799 0.031212
-0.29321 0.361623 0.021508
-0.290181 0.361372 -0.117152
-0.286186 0.347312 0.018744
-0.293288 0.569163 -0.136228
-0.286186 0.538336 0.031432
-0.286186 0.549116 -0.028133
-0.293357 0.568995 0.00581
-0.28401 0.558351 -0.072552
-0.279763 0.57053 0.02684
-0.286186 0.544964 -0.003653
-0.286186 0.561826 -0.096965
-0.286186 0.564698 -0.11675
-0.290878 0.568356 -0.029113
-0.286186 0.555837 0.016064
-0.286186 0.556399 0.036153
-0.276387 0.570434 -0.056432
-0.286186 0.557082 -0.014887
-0.277997 0.568859 -0.138338
-0.28401 0.557607 -0.055717
-0.288356 0.57053 -0.042841
-0.276421 0.569855 -0.06952
-0.279653 0.568353 0.014099
-0.28847 0.57053 0.0487
-0.279765 0.569405 0.039124
-0.284005 0.752738 0.009963
-0.286181 0.761728 -0.039153
-0.286181 0.742093 0.055041
-0.280867 0.777398 -0.09875
-0.286181 0.769869 0.053193
-0.286181 0.767107 -0.076487
-0.284005 0.768554 0.026372
-0.284005 0.756751 -0.017149
-0.280719 0.777987 -0.12002
-0.284005 0.773974 -0.008259
-0.284621 0.777398 -0.057907
-0.276747 0.779287 -0.137808
-0.276419 0.778884 0.009747
-0.288111 0.777404 -0.024144
-0.292479 0.779574 -0.043273
-0.289655 0.779219 0.038803
-0.284005 0.752171 0.025167
-0.286024 0.759635 -0.053623
-0.293438 0.778143 -0.102516
-0.286181 0.7656 0.009962
-0.284005 0.767085 0.040878
0.261973 -0.530536 -0.144081
0.261973 -0.279856 -0.009796
0.261973 -0.493088 0.033109
0.261973 -0.379013 -0.12706
0.261973 -0.566334 0.101999
0.261973 -0.36884 -0.032506
0.261973 -0.285352 -0.087893
0.261973 -0.454247 -0.134678
0.252881 -0.566356 0.02656
0.260989 -0.315975 -0.151652
0.261973 -0.515905 -0.076618
0.253475 -0.200295 -0.151652
0.261973 -0.342359 -0.083801
0.248049 -0.158814 0.019383
0.261973 -0.235587 -0.11147
0.259174 -0.566356 -0.105466
0.261973 -0.242909 -0.0447
0.261973 -0.401869 -0.067661
0.249204 -0.414324 -0.151652
0.261973 -0.54116 -0.020411
0.248049 -0.463022 -0.015725
0.261973 -0.272331 -0.127596
0.261973 -0.559774 -0.0662
0.261973 -0.15245 -0.076746
0.248049 -0.432858 -0.098063
0.248049 -0.527463 0.021521
0.261973 -0.290359 0.027509
0.261973 -0.246232 0.01118
0.261973 -0.318599 -0.114262
0.261973 -0.489421 -0.119833
0.261973 -0.210467 -0.026865
0.261973 -0.331347 -0.016686
0.261973 -0.166747 -0.122597
0.248049 -0.277704 -0.05513
0.261973 -0.146416 0.144179
0.261973 -0.232378 -0.145651
0.261973 -0.18634 0.006846
0.248049 -0.244961 0.066933
0.257661 -0.566356 0.141485
0.261973 -0.408052 -0.113875
0.261973 -0.433282 -0.032618
0.25902 -0.563059 -0.151652
0.248049 -0.145531 0.052117
0.261973 -0.256318 -0.082773
0.261973 -0.509435 0.003195
0.261973 -0.350495 -0.120963
0.261973 -0.532259 0.104211
0.248049 -0.272386 0.081687
0.261973 -0.213856 -0.067474
0.248049 -0.174716 -0.088006
0.261973 -0.304247 -0.067773
0.261973 -0.183225 -0.030107
0.261973 -0.49016 -0.030933
0.261973 -0.480881 -0.000431
0.261973 -0.229491 0.089386
0.248049 -0.345475 -0.060921
0.261973 -0.4527 -0.08658
0.251619 -0.126765 0.090786
0.255377 -0.262321 -0.151652
0.248049 -0.407742 -0.090007
0.248049 -0.151756 -0.054907
0.261973 -0.148914 -0.102115
0.261973 -0.247217 -0.019261
0.261973 -0.204645 -0.097333
0.261973 -0.164222 0.041265
0.254068 -0.50776 -0.151652
0.248049 -0.33268 -0.138633
0.248049 -0.185663 -0.132611
0.260148 -0.176659 -0.151652
0.261973 -0.284449 -0.0365
0.261973 -0.428033 -0.136483
0.248049 -0.218784 -0.12169
0.261973 -0.301449 -0.131115
0.261973 -0.388327 -0.089198
0.248049 -0.291247 -0.10619
0.261973 -0.553628 0.122049
0.261973 -0.545928 0.034174
0.261973 -0.213964 0.0196
0.261973 -0.328081 -0.05306
0.261973 -0.492518 -0.096677
0.261973 -0.523779 -0.035969
0.261973 -0.312991 -0.031019
0.248049 -0.130371 -0.068977
0.261973 -0.230811 0.044493
0.261973 -0.361838 -0.096126
0.261973 -0.364903 -0.151098
0.248049 -0.421267 -0.071892
0.261973 -0.260475 -0.059273
0.261973 -0.282091 0.096372
0.248049 -0.138354 0.02848
0.248049 -0.131391 -0.091878
0.248049 -0.454631 0.00489
0.250455 -0.159538 0.161643
0.248049 -0.247155 -0.097422
0.261973 -0.379939 -0.051925
0.249133 -0.566356 -0.132085
0.261973 -0.307247 -0.095378
0.261973 -0.301237 -0.003483
0.248049 -0.153067 -0.132218
0.261973 -0.300103 0.050957
0.261973 -0.459962 -0.032352
0.248049 -0.391941 -0.112472
0.261973 -0.404501 -0.134909
0.261973 -0.552341 -0.038503
0.248049 -0.221269 -0.09433
0.261973 -0.193872 -0.077071
0.248049 -0.505352 -0.03955
0.261973 -0.438718 -0.113584
0.248049 -0.20974 0.069983
0.261973 -0.233355 -0.083347
0.261973 -0.468731 0.016477
0.261973 -0.212705 -0.137958
0.261973 -0.154478 0.093145
0.261973 -0.496732 -0.070332
0.261973 -0.250647 -0.124884
0.261973 -0.275241 0.066209
0.261973 -0.40257 -0.044223
0.25905 -0.126765 0.069844
0.261973 -0.354882 -0.050077
0.261973 -0.265982 -0.028871
0.248057 -0.566356 0.045747
0.248049 -0.299602 -0.050959
0.261973 -0.52883 0.000542
0.261973 -0.277997 -0.068881
0.261973 -0.222244 -0.045327
0.261973 -0.539691 -0.078467
0.261973 -0.190226 -0.110291
0.261973 -0.154606 -0.001376
0.261973 -0.423378 -0.058712
0.248049 -0.462411 0.073305
0.261973 -0.180642 0.051266
0.261973 -0.173917 -0.013292
0.261973 -0.527945 -0.06168
0.261973 -0.470505 -0.124717
0.261973 -0.204459 -0.008803
0.261973 -0.430704 -0.085328
0.248049 -0.527672 -0.128931
0.261973 -0.210568 0.089565
0.261973 -0.44447 -0.150812
0.248049 -0.492609 -0.082358
0.248049 -0.224367 0.058221
0.248049 -0.127588 0.148497
0.261973 -0.267527 -0.109534
0.261973 -0.380371 -0.108055
0.261973 -0.505822 -0.109698
0.261973 -0.230976 0.000554
0.248049 -0.484916 -0.106424
0.248049 -0.275699 -0.02155
0.261973 -0.509034 0.056073
0.248049 -0.28382 -0.122908
0.261369 -0.126765 0.107417
0.261973 -0.153683 -0.028608
0.261973 -0.276901 0.040421
0.257736 -0.340172 -0.151652
0.261973 -0.135616 0.129958
0.261973 -0.497924 -0.047313
0.261973 -0.176362 -0.075465
0.248049 -0.371294 -0.046515
0.261973 -0.259459 0.083976
0.261973 -0.528193 -0.102241
0.261973 -0.457368 -0.004745
0.261973 -0.319306 0.00228
0.252939 -0.566356 -0.003048
0.248049 -0.143921 -0.028557
0.261973 -0.27395 0.023053
0.248049 -0.518889 -0.027636
0.261973 -0.44709 -0.043334
0.24973 -0.216758 -0.151652
0.248049 -0.193116 0.01371
0.261973 -0.232867 0.062294
0.261973 -0.169751 0.009401
0.248049 -0.4293 -0.121778
0.261973 -0.148287 0.025712
0.248049 -0.213589 -0.009117
0.248049 -0.14922 -0.11602
0.250474 -0.126765 0.040179
0.261973 -0.355356 -0.066698
0.248049 -0.247928 -0.028284
0.261973 -0.55653 -0.13568
0.261973 -0.291781 0.065332
0.261973 -0.219061 -0.112524
0.261973 -0.134584 0.155749
0.261973 -0.482322 -0.141979
0.248049 -0.430514 -0.053568
0.248049 -0.552526 -0.010511
0.261973 -0.226763 -0.129589
0.248049 -0.262698 0.022314
0.248049 -0.5507 -0.03018
0.261973 -0.455198 0.07815
0.261973 -0.251833 -0.104459
0.248049 -0.507278 -0.075105
0.248049 -0.139244 0.006174
0.261973 -0.559487 0.083201
0.261973 -0.507132 -0.031795
0.261973 -0.313041 -0.047545
0.248049 -0.467946 0.057583
0.248049 -0.282983 0.025018
0.248049 -0.425529 -0.033107
0.248049 -0.471891 -0.052497
0.248049 -0.223668 -0.137466
0.248049 -0.262048 -0.091947
0.248049 -0.13727 0.110382
0.261973 -0.380133 -0.146876
0.261973 -0.449183 -0.0208
0.248049 -0.350426 -0.128394
0.248049 -0.284366 0.065384
0.248049 -0.157257 0.034941
0.248049 -0.16517 0.071301
0.261973 -0.474064 -0.038693
0.261973 -0.511897 -0.061728
0.248049 -0.12712 0.131113
0.248049 -0.190517 -0.044143
0.248049 -0.349898 -0.112062
0.261973 -0.478516 -0.10282
0.248049 -0.560388 -0.09695
0.248049 -0.18985 -0.086966
0.248049 -0.490198 0.06975
0.261973 -0.138509 -0.042593
0.248049 -0.276784 -0.074678
0.261668 -0.276041 -0.151652
0.248049 -0.188785 -0.000726
0.248049 -0.492939 -0.02606
0.261973 -0.267239 -0.093957
0.261973 -0.564863 -0.120113
0.261973 -0.424228 -0.1204
0.256214 -0.301906 -0.151652
0.248049 -0.146763 -0.150787
0.261973 -0.355772 -0.134683
0.248049 -0.447502 -0.09683
0.248049 -0.496622 0.019225
0.261973 -0.433395 -0.01805
0.248049 -0.53187 -0.062695
0.248049 -0.352021 -0.047244
0.248049 -0.34247 -0.018244
0.248049 -0.181282 -0.110084
0.261973 -0.203075 0.010185
0.261973 -0.26914 0.052534
0.261973 -0.442946 -0.07602
0.261973 -0.530251 0.01479
0.261973 -0.303125 0.036972
0.25956 -0.179535 0.161643
0.254312 -0.126765 -0.106529
0.248144 -0.126765 -0.027728
0.261973 -0.219768 -0.01611
0.248049 -0.320996 -0.100597
0.248049 -0.505675 -0.005124
0.248049 -0.213554 -0.055203
0.261973 -0.52361 0.03053
0.248049 -0.221125 0.04446
0.248049 -0.315346 -0.031319
0.248049 -0.534789 0.033594
0.261973 -0.336565 -0.06434
0.248049 -0.138677 0.078173
0.257658 -0.566356 0.010192
0.248049 -0.248599 -0.083475
0.261973 -0.329574 -0.103013
0.261973 -0.437242 -0.060349
0.261973 -0.291776 -0.106282
0.24879 -0.145712 0.161643
0.261973 -0.537395 -0.038868
0.261973 -0.241521 0.081942
0.248049 -0.348149 -0.093274
0.248049 -0.519461 -0.012579
0.261973 -0.207879 0.037589
0.261973 -0.156893 0.014404
0.248049 -0.262953 -0.026798
0.261973 -0.255627 -0.03947
0.261737 -0.408675 -0.151652
0.259481 -0.42344 -0.151652
0.248049 -0.529113 0.007888
0.261973 -0.173491 -0.039765
0.248049 -0.28723 0.078801
0.248049 -0.307767 -0.096057
0.248049 -0.478998 -0.04087
0.261973 -0.16662 0.15813
0.261973 -0.158571 -0.064668
0.248049 -0.475753 0.072021
0.261973 -0.193625 0.055546
0.261973 -0.152981 -0.114847
0.248049 -0.202749 0.003444
0.261973 -0.357258 -0.10945
0.261973 -0.39227 -0.113878
0.261973 -0.28472 -0.131877
0.248049 -0.463423 -0.028778
0.261973 -0.211427 -0.054689
0.248049 -0.419938 -0.112745
0.248049 -0.284086 -0.043842
0.248049 -0.556679 0.05887
0.260642 -0.151599 0.161643
0.248049 -0.173622 0.040373
0.248049 -0.493176 -0.059945
0.261973 -0.503393 0.040629
0.261973 -0.521508 0.058739
0.248049 -0.213828 0.021865
0.261973 -0.46701 -0.136931
0.248049 -0.237874 -0.035974
0.248049 -0.171962 -0.009718
0.261973 -0.174383 -0.139382
0.248049 -0.268933 -0.046068
0.248049 -0.293254 -0.136457
0.248049 -0.481782 -0.121045
0.248049 -0.409223 -0.128335
0.261973 -0.186768 0.022122
0.261973 -0.166404 -0.093107
0.261973 -0.413024 -0.050891
0.261973 -0.240073 -0.13595
0.248049 -0.459057 -0.065252
0.261973 -0.178111 -0.099261
0.261973 -0.43143 -0.103738
0.261973 -0.243566 -0.090777
0.248049 -0.31838 -0.007939
-0.276442 -0.437755 -0.121803
-0.276442 -0.33328 -0.01049
-0.276442 -0.554238 -0.037808
-0.262519 -0.210331 -0.059495
-0.276442 -0.558719 -0.131909
-0.276442 -0.426094 -0.021832
-0.276442 -0.345952 -0.10501
-0.27313 -0.213205 -0.151652
-0.276442 -0.277479 -0.11715
-0.276442 -0.500193 0.124243
-0.262519 -0.274076 -0.056162
-0.276442 -0.558914 0.12866
-0.276442 -0.566356 0.021431
-0.276442 -0.294993 0.026309
-0.276442 -0.527855 -0.082336
-0.276442 -0.229311 -0.008297
-0.276442 -0.368574 -0.145357
-0.276442 -0.388619 -0.048816
-0.276442 -0.187955 -0.113246
-0.276442 -0.46175 -0.083193
-0.276442 -0.490286 -0.013007
-0.276442 -0.241907 -0.094331
-0.276442 -0.313802 -0.053557
-0.276442 -0.494636 -0.106945
-0.276442 -0.405657 -0.098231
-0.262519 -0.150251 -0.090816
-0.276442 -0.257037 0.029969
-0.276442 -0.266083 -0.005177
-0.276442 -0.181629 0.108278
-0.276442 -0.161609 0.034148
-0.265737 -0.566356 -0.091022
-0.276442 -0.4224 -0.067283
-0.265216 -0.460784 -0.151652
-0.276442 -0.529772 -0.013629
-0.276442 -0.21029 0.035134
-0.276442 -0.272462 0.10831
-0.276442 -0.533577 0.107103
-0.276442 -0.238723 -0.13063
-0.276442 -0.470451 -0.046856
-0.262519 -0.43378 0.008878
-0.276442 -0.335637 0.022103
-0.262519 -0.532741 -0.145108
-0.262519 -0.276172 0.051462
-0.276442 -0.150598 -0.124961
-0.276442 -0.459207 -0.006835
-0.276442 -0.29075 -0.145623
-0.276442 -0.317355 0.049676
-0.276442 -0.528645 0.0284
-0.276442 -0.168777 -0.018684
-0.276442 -0.355437 -0.070119
-0.276442 -0.321504 -0.083284
-0.276442 -0.237132 -0.053997
-0.276442 -0.521083 -0.051098
-0.276442 -0.453251 0.031069
-0.276442 -0.184459 -0.144271
-0.276442 -0.183955 -0.060238
-0.276442 -0.268644 -0.081478
-0.276442 -0.466018 -0.114239
-0.276442 -0.398616 -0.137177
-0.276442 -0.286519 -0.02547
-0.262519 -0.491715 0.071054
-0.276442 -0.133279 0.101561
-0.276442 -0.21186 -0.030926
-0.269436 -0.566356 -0.06251
-0.276442 -0.54631 0.065749
-0.262519 -0.490047 0.100756
-0.276442 -0.496094 -0.063156
-0.262519 -0.137831 0.054322
-0.276442 -0.210725 0.091347
-0.262519 -0.446034 0.076832
-0.276442 -0.200162 -0.088732
-0.276442 -0.263772 -0.148245
-0.276442 -0.528233 -0.122362
-0.276442 -0.444313 -0.042093
-0.276442 -0.25921 -0.030573
-0.276442 -0.504772 0.039436
-0.276442 -0.184829 0.0506
-0.276442 -0.385483 -0.114876
-0.276442 -0.486954 -0.131244
-0.276442 -0.19571 -0.011337
-0.276442 -0.391739 -0.010139
-0.276442 -0.547512 0.004486
-0.276442 -0.354611 0.005505
-0.262519 -0.552831 -0.016999
-0.262519 -0.175079 -0.094173
-0.276442 -0.524287 0.078465
-0.276442 -0.211128 0.008181
-0.276442 -0.219171 -0.103999
-0.276442 -0.547105 -0.100913
-0.276442 -0.15762 0.108199
-0.262519 -0.137426 0.078653
-0.276442 -0.323048 -0.031737
-0.262519 -0.481924 -0.092808
-0.276442 -0.433466 -0.087917
-0.262519 -0.285138 -0.000912
-0.276442 -0.287566 -0.094479
-0.262519 -0.315151 -0.01228
-0.276442 -0.324201 -0.118761
-0.263414 -0.566356 0.001386
-0.276442 -0.339905 -0.150518
-0.276442 -0.445033 0.058907
-0.262519 -0.177382 0.091453
-0.276442 -0.540083 -0.062288
-0.276442 -0.414842 -0.046676
-0.276442 -0.510991 -0.143743
-0.262519 -0.25686 -0.131384
-0.276442 -0.449483 0.093367
-0.276442 -0.333894 -0.061725
-0.276442 -0.148061 -0.033568
-0.276442 -0.152618 -0.14705
-0.274857 -0.566356 0.150673
-0.276442 -0.179075 -0.039285
-0.276442 -0.523949 0.007031
-0.262519 -0.134386 -0.052106
-0.276442 -0.194091 0.078893
-0.276442 -0.379513 -0.027722
-0.276442 -0.161596 -0.080635
-0.262519 -0.563639 0.069241
-0.276442 -0.494582 -0.084678
-0.262519 -0.360638 -0.098535
-0.276442 -0.135797 -0.014841
-0.276442 -0.516931 -0.029425
-0.276442 -0.348404 -0.13209
-0.262519 -0.350395 -0.039423
-0.262519 -0.325986 -0.100076
-0.276442 -0.37179 -0.008182
-0.272793 -0.133265 -0.151652
-0.276442 -0.237536 -0.075158
-0.262519 -0.463296 -0.059158
-0.276442 -0.522103 -0.103807
-0.262519 -0.41173 -0.075712
-0.276442 -0.154772 0.088834
-0.262519 -0.135142 0.029362
-0.276442 -0.532937 0.051795
-0.276442 -0.421772 -0.108864
-0.262519 -0.199215 -0.120247
-0.262519 -0.430674 0.030736
-0.276442 -0.314974 -0.1394
-0.276442 -0.297432 0.007281
-0.262519 -0.434935 -0.053629
-0.262519 -0.189667 -0.048374
-0.262519 -0.228883 0.070558
-0.276442 -0.204005 -0.048304
-0.262519 -0.326843 -0.046959
-0.276442 -0.231318 0.015379
-0.276442 -0.221275 -0.085274
-0.262519 -0.312002 0.034811
-0.276442 -0.274478 0.036763
-0.262519 -0.151001 0.012813
-0.276442 -0.248263 -0.1146
-0.276442 -0.344018 -0.025743
-0.276442 -0.182197 -0.083746
-0.262519 -0.460248 -0.025695
-0.262519 -0.422352 -0.005633
-0.276442 -0.154258 -0.102215
-0.276442 -0.30322 -0.013625
-0.262519 -0.449267 -0.085897
-0.276442 -0.297466 -0.040058
-0.274478 -0.126765 -0.036948
-0.262519 -0.15812 -0.133925
-0.276442 -0.159784 -0.06255
-0.276442 -0.216939 0.057467
-0.276442 -0.425633 0.019285
-0.262519 -0.3989 -0.057386
-0.276442 -0.293392 0.089608
-0.276442 -0.201207 -0.137835
-0.262519 -0.159227 -0.027062
-0.276442 -0.192978 0.03098
-0.262519 -0.550721 0.055676
-0.262519 -0.436466 -0.018316
-0.276442 -0.47695 -0.074314
-0.262519 -0.490228 0.027991
-0.276442 -0.369469 -0.127338
-0.262519 -0.536676 0.122406
-0.276442 -0.284362 -0.058399
-0.276442 -0.276196 0.010244
-0.262519 -0.510567 0.074941
-0.276442 -0.475105 -0.030133
-0.276442 -0.264001 -0.064805
-0.262519 -0.529885 -0.061827
-0.262519 -0.452693 0.000924
-0.262519 -0.172371 0.021465
-0.262519 -0.313004 -0.032789
-0.276442 -0.259929 0.059939
-0.262519 -0.177977 0.067021
-0.262519 -0.424209 -0.031677
-0.276442 -0.504974 0.016366
-0.262519 -0.216854 0.099353
-0.276442 -0.222452 -0.062741
-0.276442 -0.516835 0.120737
-0.276442 -0.231284 0.106832
-0.276442 -0.445647 -0.099741
-0.262519 -0.52194 0.090806
-0.276442 -0.304976 -0.098002
-0.276442 -0.487143 0.083716
-0.262519 -0.405722 -0.123378
-0.262519 -0.346042 -0.070344
-0.269813 -0.305593 -0.151652
-0.262519 -0.42807 -0.115659
-0.262519 -0.140751 0.109029
-0.262519 -0.28103 0.02385
-0.262519 -0.469359 -0.011875
-0.262519 -0.520519 -0.133947
-0.276442 -0.432555 -0.137435
-0.262519 -0.248993 -0.089129
-0.276442 -0.503032 -0.002613
-0.262519 -0.399895 -0.088205
-0.266331 -0.566356 -0.142212
-0.262519 -0.140299 -0.030036
-0.262519 -0.251664 -0.034442
-0.276442 -0.492118 0.109329
-0.276442 -0.332464 0.043698
-0.262519 -0.55364 0.081985
-0.262519 -0.132435 -0.089239
-0.276442 -0.469367 0.005662
-0.262519 -0.469023 -0.123625
-0.276442 -0.427345 0.000708
-0.276442 -0.456418 0.078857
-0.262519 -0.273191 0.081599
-0.276442 -0.535937 -0.030329
-0.276442 -0.145505 -0.002084
-0.262519 -0.559789 0.136537
-0.262519 -0.473486 0.065551
-0.262519 -0.231197 -0.11675
-0.262519 -0.456108 0.049696
-0.262519 -0.503072 0.059982
-0.262519 -0.478085 -0.064865
-0.262519 -0.281228 -0.080436
-0.262519 -0.206505 0.042342
-0.276442 -0.376806 -0.069797
-0.262519 -0.392853 -0.113925
-0.262519 -0.300317 0.046322
-0.276442 -0.40601 -0.08019
-0.276442 -0.441996 -0.023022
-0.276442 -0.129541 0.116809
-0.262519 -0.164268 0.110653
-0.276442 -0.136066 -0.130691
-0.262519 -0.538145 -0.112157
-0.276442 -0.258157 -0.046137
-0.262519 -0.436914 0.046735
-0.276442 -0.360714 -0.110031
-0.270514 -0.354144 -0.151652
-0.276442 -0.347262 -0.089603
-0.276442 -0.546572 -0.122343
-0.276442 -0.304677 0.040848
-0.275728 -0.566356 0.09371
-0.262519 -0.20992 -0.141017
-0.262519 -0.253886 0.036283
-0.262519 -0.375809 -0.128723
-0.275809 -0.4719 -0.151652
-0.276442 -0.552128 -0.010584
-0.276442 -0.457119 -0.060914
-0.276442 -0.245965 -0.144077
-0.262519 -0.172621 -0.074892
-0.262519 -0.491449 -0.019031
-0.276442 -0.281704 -0.133411
-0.276442 -0.471244 -0.095036
-0.276442 -0.173649 -0.108447
-0.276442 -0.249159 0.10171
-0.262519 -0.534083 -0.009914
-0.262519 -0.281423 -0.121198
-0.276442 -0.440617 0.020053
-0.262519 -0.242717 -0.054248
-0.262519 -0.408647 -0.042112
-0.276442 -0.252339 -0.077389
-0.276442 -0.302347 -0.131374
-0.262519 -0.361943 -0.071827
-0.262519 -0.225139 0.053689
-0.276442 -0.16947 0.008696
-0.276442 -0.505683 0.073485
-0.276442 -0.478157 0.0978
-0.276442 -0.211669 -0.116749
-0.274957 -0.126765 -0.077023
-0.276442 -0.248031 0.002449
-0.262519 -0.474688 -0.044446
-0.262519 -0.259589 -0.053724
-0.262519 -0.162085 0.096179
-0.262519 -0.344672 -0.018955
-0.276442 -0.302647 -0.078002
-0.262519 -0.512223 0.012015
-0.262519 -0.330212 -0.013453
-0.276442 -0.457424 0.045749
-0.262519 -0.442196 -0.038812
-0.262519 -0.299413 -0.015409
-0.262519 -0.282094 -0.044131
-0.276442 -0.545672 0.122917
-0.276442 -0.456425 -0.022903
-0.262519 -0.291519 0.065941
-0.276442 -0.282351 -0.077125
-0.262519 -0.501153 0.12753
-0.262519 -0.127359 0.041373
-0.262519 -0.251738 -0.072471
-0.262519 -0.138904 -0.011501
-0.276442 -0.274641 0.054043
-0.262519 -0.323091 -0.070229
-0.262519 -0.303033 0.00961
-0.262519 -0.181284 -0.146915
-0.276442 -0.342801 -0.118817
-0.262519 -0.40869 -0.027962
-0.276442 -0.558961 0.040171
-0.276442 -0.514154 -0.123726
-0.276442 -0.286189 0.115791
-0.262519 -0.481527 0.016864
-0.262519 -0.227306 -0.089008
-0.262519 -0.532255 0.105399
-0.262519 -0.212618 0.007682
-0.276442 -0.306929 -0.115463
-0.262519 -0.515568 -0.029599
-0.276442 -0.263276 0.015573
-0.276442 -0.455274 0.006562
-0.276442 -0.231579 0.038667
-0.262519 -0.273966 0.037195
-0.276442 -0.171354 0.090105
-0.276442 -0.307008 0.074723
-0.26841 -0.566356 0.117501
-0.276442 -0.217782 -0.046582
-0.276442 -0.407208 -0.066362
-0.262519 -0.552214 -0.03374
-0.262519 -0.323349 0.017472
-0.262519 -0.208668 -0.110172
-0.262519 -0.308317 -0.134547
-0.276442 -0.397148 -0.122241
-0.276442 -0.227889 0.077241
-0.262519 -0.502343 -0.137489
-0.262519 -0.468136 -0.091943
-0.262519 -0.238287 -0.00823
-0.276442 -0.27267 -0.038349
-0.262519 -0.238787 0.055119
-0.262519 -0.523185 0.119928
-0.276442 -0.294286 -0.110148
-0.276442 -0.357418 -0.028611
-0.262519 -0.342312 -0.111691
-0.262519 -0.387875 -0.140165
-0.276442 -0.192626 0.008203
-0.276442 -0.327601 0.001897
-0.262519 -0.380501 -0.104225
-0.276442 -0.253725 -0.014924
-0.262519 -0.140874 -0.100565
-0.276442 -0.514687 -0.015602
-0.276442 -0.479066 0.112811
-0.276442 -0.505498 0.107499
-0.276442 -0.316602 -0.015431
-0.262519 -0.340509 -0.003455
-0.276442 -0.52003 0.055628
-0.262519 -0.346694 -0.127346
-0.276442 -0.501469 0.089189
-0.276442 -0.180815 0.036533
-0.262519 -0.549429 0.068925
-0.262519 -0.202811 -0.045452
-0.262519 -0.40416 -0.147506
-0.276442 -0.494833 -0.033859
-0.276442 -0.519759 0.107943
-0.276442 -0.187538 -0.095729
-0.276442 -0.375457 -0.045576
-0.262519 -0.341421 -0.093462
-0.276442 -0.144063 0.031219
-0.276442 -0.199508 0.042389
-0.262519 -0.498158 0.090608
-0.276442 -0.541111 0.096164
-0.262519 -0.151916 -0.000139
-0.262519 -0.165014 -0.064372
-0.276442 -0.209518 0.022191
-0.262519 -0.494793 -0.094381
-0.276442 -0.402175 -0.043967
-0.262519 -0.181932 0.054716
-0.262519 -0.167441 0.034414
-0.262519 -0.348029 -0.055028
-0.276442 -0.519322 0.041741
-0.276442 -0.541955 0.146102
-0.276442 -0.506506 -0.079216
-0.262519 -0.189835 -0.003482
