-0.432695 -0.352661 0.09668
-0.672724 -0.316603 -0.268703
-0.465435 -0.316603 -0.009624
0.546923 -0.352661 0.203189
-0.819806 -0.352661 0.063557
0.014317 -0.316603 -0.266664
0.614523 -0.352661 -0.002655
-0.698065 -0.352661 -0.269897
-0.584638 -0.352661 0.271241
-0.254334 -0.316603 -0.087043
-0.503785 -0.352094 0.278615
-0.138844 -0.318367 0.278615
0.750855 -0.316603 0.036401
-0.570514 -0.352661 -0.088519
0.056526 -0.352523 -0.280284
-0.181671 -0.316603 0.142977
-0.376684 -0.352661 2.3e-05
0.098294 -0.352661 -0.102887
0.091505 -0.316603 0.148804
0.72229 -0.352661 0.000904
-0.513754 -0.316603 -0.136988
-0.152951 -0.316603 -0.083418
0.243175 -0.316603 -0.135774
-0.176509 -0.352661 0.194742
0.081886 -0.352661 -0.249736
0.457886 -0.352661 -0.02811
-0.719588 -0.352661 0.236071
-0.002914 -0.316603 0.257099
0.294901 -0.352661 0.007405
-0.506864 -0.352661 -0.051902
-0.403402 -0.352661 -0.125534
0.568853 -0.352661 0.047539
0.307288 -0.316603 0.249846
-0.82874 -0.316603 0.060001
0.155429 -0.352661 -0.046052
-0.396747 -0.352661 0.17146
0.229107 -0.352661 0.257813
0.020721 -0.316603 0.275158
0.539276 -0.352661 -0.203084
-0.154668 -0.316603 -0.229929
-0.519076 -0.352661 -0.253924
0.675292 -0.316603 -0.222823
0.821498 -0.352661 -0.066577
0.861103 -0.316603 -0.15682
0.80268 -0.316603 0.141778
0.819783 -0.316603 -0.206661
-0.368259 -0.316603 0.108638
-0.146658 -0.352661 -0.258086
-0.752722 -0.316603 0.163843
-0.429894 -0.316603 0.081247
-0.145784 -0.316603 0.043669
-0.478367 -0.352661 -0.259639
-0.076962 -0.316603 -0.072044
-0.797317 -0.316603 -0.034768
0.115079 -0.316603 -0.251714
0.459287 -0.316603 -0.023542
0.380595 -0.352661 0.125001
0.607784 -0.352661 -0.2235
0.484054 -0.33435 0.278615
0.038942 -0.352661 -0.239517
0.714156 -0.316603 0.244607
0.842153 -0.352661 0.086986
0.311951 -0.352661 -0.054542
-0.245877 -0.316603 -0.049463
0.624084 -0.352661 -0.066414
-0.559072 -0.316603 0.238458
-0.265729 -0.316603 -0.201794
-0.709837 -0.316603 0.203606
0.804384 -0.352661 0.1415
0.717406 -0.352661 -0.15564
-0.137126 -0.316603 0.083736
-0.769458 -0.352661 0.158493
-0.111177 -0.352661 0.096542
0.602874 -0.316603 0.115248
0.719746 -0.316603 -0.230004
0.792157 -0.352661 -0.024134
-0.831183 -0.316603 0.205367
0.061674 -0.352661 0.241709
-0.507261 -0.32946 0.278615
0.480062 -0.316603 0.085543
-0.184635 -0.352661 -0.197609
0.450469 -0.352661 0.221375
-0.002801 -0.352661 0.029068
0.327461 -0.331687 -0.280284
-0.750859 -0.316603 0.207178
-0.676953 -0.352661 -0.018236
-0.447368 -0.352661 -0.12296
0.832248 -0.352661 -0.020036
0.042682 -0.352661 -0.110288
0.267269 -0.316603 0.025616
-0.087094 -0.352661 -0.060372
-0.696575 -0.316603 0.244987
-0.058901 -0.316603 0.117134
-0.332368 -0.352661 -0.263739
-0.182187 -0.352661 0.121658
-0.67287 -0.316603 -0.238534
-0.024472 -0.352661 0.085761
0.011903 -0.316603 0.237085
-0.131214 -0.352661 -0.185665
0.753146 -0.316603 0.129612
0.460434 -0.316603 0.190766
-0.313138 -0.316603 -0.034534
0.391407 -0.316603 0.024561
0.155239 -0.337476 -0.280284
-0.611738 -0.316603 0.228227
-0.340705 -0.316603 -0.065538
0.256501 -0.352661 -0.249919
-0.467358 -0.352661 -0.098869
-0.355698 -0.352661 0.127472
-0.206858 -0.352661 -0.162095
-0.788027 -0.316603 -0.074118
-0.794627 -0.350291 -0.280284
0.847166 -0.352661 0.051946
-0.020769 -0.316603 0.273904
-0.023435 -0.352661 0.167619
0.476971 -0.352661 -0.272442
-0.306498 -0.316603 -0.079385
0.822975 -0.352661 -0.09271
0.838247 -0.352661 -0.228752
-0.326689 -0.316603 -0.183144
-0.42951 -0.316603 -0.162634
-0.424098 -0.316603 -0.034453
0.387725 -0.316603 -0.167013
-0.202381 -0.352661 0.215193
-0.039688 0.368499 -0.278945
0.617942 0.368499 0.045963
-0.253262 0.368499 0.036513
0.216275 0.368499 -0.00721
-0.786886 0.368499 0.090905
-0.532513 0.368499 -0.020649
-0.014842 0.368499 0.063771
0.617495 0.368499 -0.178055
-0.24415 0.368499 -0.195893
0.432184 0.332441 -0.06368
-0.657001 0.332441 -0.189229
0.765544 0.368499 0.174432
0.211405 0.368499 0.190057
0.444111 0.368499 0.129422
-0.414847 0.368499 0.139184
0.109959 0.368499 -0.164513
0.769282 0.368499 -0.066144
-0.600956 0.368499 0.167513
0.281792 0.368499 -0.260664
-0.090317 0.368499 -0.10202
-0.139745 0.368499 0.192684
-0.386268 0.332441 -0.098707
-0.779909 0.368499 -0.078089
0.599766 0.368499 0.208657
-0.509747 0.332441 -0.165422
0.309283 0.368499 -0.123618
0.081104 0.332441 -0.03025
-0.66082 0.332441 0.048724
0.315296 0.332441 0.096914
-0.288528 0.368499 0.189977
-0.727984 0.368499 0.211882
0.07945 0.368499 0.166242
0.48401 0.368499 -0.188832
0.737172 0.332441 0.047604
-0.381461 0.332441 0.027344
0.821151 0.368499 -0.175182
-0.121352 0.332441 0.019816
-0.212361 0.368499 -0.079446
-0.638273 0.332441 -0.069807
0.594269 0.332441 -0.066643
-0.002232 0.332441 -0.173306
0.325074 0.332441 0.211856
0.166845 0.332441 0.09012
0.5054 0.332441 0.022892
-0.033143 0.332441 0.192596
0.377739 0.332441 -0.215115
0.329649 0.368499 -0.013409
-0.367565 0.332441 -0.210154
-0.769119 0.332441 -0.201208
0.836207 0.368499 0.079886
0.208602 0.332441 -0.190091
-0.529976 0.332441 0.094928
-0.414061 0.368499 0.246118
-0.109725 0.332441 -0.199539
0.673351 0.332441 0.137451
0.546065 0.332441 0.119837
0.466541 0.368499 0.232087
-0.49942 0.332441 0.193553
-0.714857 0.368499 -0.280178
0.718615 0.368499 -0.183875
0.831203 0.332441 0.251597
0.640397 0.368499 -0.275704
-0.182512 0.332441 0.098464
0.415427 0.368499 0.033399
0.181346 0.332441 -0.090379
-0.313233 0.368499 -0.046188
-0.013958 0.332441 -0.055314
0.682253 0.368499 -0.02551
0.853043 0.332441 -0.03714
-0.333086 0.332441 0.113099
0.076537 0.368499 0.069977
0.679779 0.332441 0.233498
-0.698937 0.332441 0.131555
-0.093302 0.368499 0.108468
0.131451 0.368499 0.239358
-0.713102 0.368499 -0.018835
0.669336 0.332441 -0.115659
-0.566129 0.368499 0.248599
-0.465677 0.368499 -0.086137
-0.45843 0.368499 0.049699
0.515759 0.368499 -0.057184
-0.296838 0.332441 -0.137083
-0.580551 0.368499 -0.130839
-0.709929 0.332441 -0.117291
0.041481 0.368499 -0.251067
-0.51649 0.332441 -0.254285
0.049854 0.368499 -0.104407
-0.790317 0.332441 -0.001856
-0.808967 0.332441 0.189138
0.415315 0.368499 -0.140646
0.549606 0.332441 -0.146571
-0.216153 0.332441 0.206711
0.845088 0.368499 -0.280159
0.23828 0.368499 0.105763
-0.447931 0.368499 -0.2033
-0.171438 0.332441 -0.147138
0.136838 0.368499 0.016034
0.55305 0.332441 -0.229631
-0.651872 0.368499 0.235578
0.251158 0.368499 0.266563
0.022708 0.332441 0.125714
-0.58323 0.332441 0.036949
-0.446426 0.332441 -0.019434
0.052804 0.332441 0.229265
0.271801 0.332441 0.032773
-0.344506 0.332441 0.245209
0.398795 0.332441 0.192164
-0.138728 0.332441 -0.05554
0.748303 0.368499 0.24738
0.163919 0.368499 -0.237477
0.521609 0.332441 0.197854
0.846708 0.368499 0.175991
-0.20913 0.332441 -0.010572
-0.065436 0.368499 -0.016544
0.274899 0.332441 -0.047361
-0.723788 0.368499 0.054462
-0.612561 0.332441 0.105462
-0.819921 0.368499 -0.163962
0.842996 0.332441 -0.116137
-0.234454 0.368499 0.141681
0.355501 0.332441 -0.081331
0.387133 0.332441 0.089919
-0.228235 0.332441 -0.267969
0.022721 0.332441 0.012026
0.289345 0.368499 0.156568
0.805191 0.332441 0.025117
-0.561094 0.368499 -0.211989
0.563969 0.368499 -0.000234
0.664701 0.332441 -0.220285
-0.387686 0.368499 -0.038237
0.612928 0.368499 0.135341
0.120701 0.368499 -0.075936
0.774828 0.332441 -0.230631
0.486538 0.332441 -0.109265
0.326706 0.368499 0.271545
-0.253429 0.368499 0.256797
0.138012 0.332441 0.172801
-0.052249 0.368499 -0.210994
0.735415 0.368499 0.106126
0.241609 0.368499 -0.112523
-0.367139 0.332441 0.180561
-0.178791 0.368499 0.040477
-0.797635 0.368499 0.245741
-0.130491 0.332441 0.254126
-0.318937 0.368499 0.053278
0.485352 0.332441 0.089699
-0.522606 0.332441 -0.091511
-0.483494 0.368499 0.255778
-0.178842 0.368499 -0.213018
0.750817 0.332441 -0.120039
-0.713493 0.368499 -0.192333
0.462648 0.332441 -0.241919
0.850832 0.332441 -0.222267
-0.404459 0.368499 -0.153225
-0.478813 0.368499 0.122074
0.461156 0.368499 -0.016433
-0.291995 0.332441 -0.220835
0.37191 0.368499 0.145412
0.322299 0.332441 -0.181959
0.185061 0.368499 0.275922
-0.26675 0.332441 -0.071966
-0.771826 0.332441 -0.13383
0.67088 0.332441 0.045486
-0.605476 0.368499 -0.028415
0.547589 0.368499 0.067145
-0.233618 0.332441 -0.12842
-0.835972 0.368499 0.131677
0.351967 0.368499 0.051111
0.396829 0.368499 0.251035
-0.019177 0.368499 0.244677
-0.662991 0.368499 -0.244546
0.051731 0.368499 -0.187667
0.635338 0.332441 -0.005751
0.153459 0.332441 -0.031848
-0.396319 0.332441 0.092106
0.607789 0.368499 -0.114848
-0.095953 0.332441 0.168616
-0.520881 0.368499 0.045894
-0.080602 0.368499 0.217201
-0.67069 0.368499 0.172022
-0.661204 0.368499 -0.121991
0.19839 0.332441 0.142074
0.759565 0.332441 -0.014881
-0.244497 0.332441 0.094128
0.186167 0.368499 -0.147122
0.387901 0.368499 -0.028848
0.185099 0.332441 0.029471
0.531809 0.332441 0.259981
0.023737 0.368499 0.188033
0.09915 0.368499 -0.235266
0.818418 0.332441 0.137794
-0.44836 0.368499 0.197303
0.256155 0.332441 0.219384
0.465141 0.332441 0.179284
0.348718 0.368499 -0.252296
0.504905 0.368499 0.142467
0.789553 0.332441 0.084467
0.6378 0.368499 0.254023
-0.340664 0.368499 -0.10836
0.220183 0.368499 -0.262461
-0.659446 0.332441 -0.010131
-0.544885 0.368499 0.149844
0.425676 0.368499 -0.213944
0.686826 0.332441 -0.279635
0.697106 0.368499 0.276226
0.710704 0.332441 -0.061725
-0.12017 0.368499 -0.152143
0.851851 0.368499 0.008608
0.718337 0.332441 0.190169
-0.595069 0.332441 0.212538
0.027209 0.368499 -0.033091
-0.660756 0.368499 0.107494
-0.0529 0.332441 -0.127165
0.871722 0.332441 0.11566
0.082153 0.332441 0.114636
-0.073724 0.368499 0.054233
0.362404 0.332441 -0.140619
-0.021927 0.368499 0.12902
0.638935 0.368499 -0.066136
0.256431 0.332441 -0.223961
0.13909 0.332441 -0.197994
-0.265676 0.332441 -0.008933
0.630015 0.332441 0.17533
0.130983 0.368499 0.114216
0.59804 0.332441 0.083304
-0.285563 0.368499 0.119884
-0.194378 0.332441 0.154847
-0.744219 0.368499 0.26484
-0.741412 0.332441 -0.049747
-0.321156 0.368499 -0.170933
-0.475266 0.368499 -0.142242
-0.128096 0.368499 0.065875
0.539979 0.332441 -0.090814
0.869455 0.332441 0.05016
0.093961 0.332441 0.032857
-0.74388 0.332441 0.090071
-0.784719 0.368499 -0.243571
-0.001882 0.368499 -0.121012
0.469844 0.368499 0.052183
-0.346318 0.368499 0.006434
-0.82681 0.332441 0.084501
-0.587843 0.332441 -0.091076
0.809872 0.332441 -0.073303
-0.333231 0.368499 -0.241173
-0.012163 0.332441 -0.243509
0.218017 0.332441 -0.047149
0.257591 0.332441 -0.167771
0.548862 0.368499 -0.186412
-0.833023 0.332441 0.030818
0.885457 0.332441 0.214373
-0.598992 0.332441 -0.223877
-0.61665 0.368499 0.065956
-0.134756 0.332441 0.122828
-0.728663 0.332441 -0.236353
0.798749 0.368499 -0.020558
-0.784182 0.368499 0.037505
0.139005 0.332441 -0.122733
-0.184767 0.332441 0.249735
-0.036992 0.332441 0.032282
-0.821122 0.332441 -0.115262
-0.498451 0.332441 -0.038033
-0.436187 0.332441 -0.115086
0.722888 0.332441 -0.238445
-0.055373 0.332441 0.104139
0.779304 0.332441 0.225241
-0.04944 0.368499 -0.069457
0.78677 0.368499 -0.131705
0.166039 0.332441 0.22415
-0.561929 0.332441 -0.165829
0.812334 0.368499 -0.226626
0.047868 0.332441 -0.150272
0.392931 0.368499 -0.08122
0.196545 0.368499 0.06742
-0.106721 0.368499 -0.257178
-0.628233 0.332441 -0.146077
0.292209 0.368499 0.067918
-0.35063 0.332441 -0.038491
-0.141897 0.368499 -0.101322
0.085522 0.332441 -0.113036
0.433201 0.332441 0.065488
-0.085084 0.332441 -0.047168
0.26744 0.368499 -0.005424
0.592608 0.368499 -0.222714
0.654544 0.332441 -0.164572
0.062863 0.368499 0.014379
-0.693334 0.332441 0.201788
-0.833823 0.332441 0.263013
-0.060421 0.368499 0.16548
-0.151122 0.332441 -0.248345
-0.563581 0.368499 0.073049
0.785805 0.332441 -0.172281
0.275755 0.332441 -0.103016
0.765235 0.332441 0.139081
0.349612 0.332441 0.015663
0.516183 0.368499 -0.128315
-0.752676 0.368499 0.167927
-0.76455 0.332441 0.212888
0.248681 0.332441 0.140458
0.540859 0.332441 -0.026508
-0.799057 0.332441 0.126363
-0.533616 0.368499 0.200324
-0.531764 0.332441 0.254269
-0.28561 0.332441 0.154628
0.337337 0.332441 0.145589
-0.414947 0.368499 0.018894
0.438037 0.332441 -0.166644
0.459619 0.368499 -0.087662
-0.365615 0.368499 0.070914
0.311248 0.332441 -0.230524
0.55556 0.368499 0.185831
-0.129812 0.368499 -0.013169
-0.636409 0.368499 0.014853
-0.610242 0.368499 -0.19201
-0.26797 0.368499 -0.252247
0.806354 0.368499 0.204395
0.702752 0.332441 0.001186
-0.475964 0.332441 -0.226234
-0.489852 0.332441 0.061467
-0.634027 0.332441 0.172852
0.065425 0.332441 -0.22843
-0.323651 0.368499 0.156048
-0.73201 0.332441 0.008044
0.648689 0.332441 0.095414
-0.737679 0.368499 -0.134738
-0.55938 0.368499 -0.07488
-0.71571 0.368499 -0.069865
0.028184 0.332441 -0.079558
0.480401 0.332441 0.261531
-0.665876 0.368499 -0.052751
0.49823 0.332441 -0.159685
0.121633 0.332441 0.07256
-0.429646 0.332441 -0.176716
0.691148 0.368499 0.086615
-0.508695 0.368499 -0.197497
0.289438 0.368499 -0.170836
-0.513905 0.332441 0.142149
-0.444795 0.332441 0.150211
0.882402 0.368499 -0.230643
0.233975 0.332441 0.074382
0.295569 0.332441 0.265949
0.016732 0.332441 0.065692
0.574113 0.332441 0.237433
0.429939 0.368499 0.187178
0.839791 0.368499 -0.084765
-0.070061 0.332441 -0.236986
-0.303061 0.332441 0.020936
-0.518158 0.332441 0.014582
0.365659 0.332441 0.254501
0.16837 0.368499 0.165378
0.688878 0.368499 -0.146567
0.85234 0.332441 -0.173421
0.484659 0.332441 -0.055469
0.297388 0.368499 -0.068873
-0.565622 0.332441 0.175106
-0.552999 0.332441 -0.044061
-0.348125 0.332441 -0.155699
0.085037 0.368499 0.230253
-0.021923 0.368499 0.001961
0.809671 0.368499 0.274591
0.776338 0.368499 0.056924
0.214365 0.332441 -0.135789
0.672399 0.368499 0.204057
0.59639 0.368499 -0.034341
-0.446722 0.332441 0.08028
-0.620852 0.368499 -0.094337
0.727071 0.332441 0.275237
-0.005446 0.368499 -0.213127
-0.217649 0.332441 -0.209588
0.760725 0.368499 -0.204283
-0.420203 0.332441 0.206904
-0.162815 0.332441 -0.004426
-0.831448 0.368499 0.213596
-0.409955 0.368499 -0.080999
-0.188676 0.332441 -0.061775
0.321452 0.332441 -0.044929
0.351654 0.368499 -0.178835
0.237662 0.368499 -0.201219
-0.20887 0.332441 0.060095
0.177717 0.368499 0.11731
-0.34643 0.368499 0.216013
-0.759521 0.368499 -0.019773
0.417781 0.368499 0.090251
-0.396481 0.332441 -0.250418
0.284442 0.368499 0.212571
0.529378 0.368499 0.231009
0.49168 0.368499 -0.241053
-0.411521 0.368499 0.064998
0.416472 0.332441 -0.244078
-0.187545 0.368499 0.126851
0.655346 0.368499 0.018956
0.457175 0.368499 -0.273233
0.719388 0.332441 0.141507
0.425288 0.332441 0.229632
-0.314448 0.332441 -0.074474
0.735656 0.368499 -0.03509
0.247204 0.368499 -0.052243
-0.156641 0.368499 0.243786
-0.188473 0.368499 -0.029333
-0.42457 0.368499 -0.245413
0.208882 0.332441 0.239232
0.69734 0.368499 -0.223961
-0.579597 0.368499 0.009738
-0.206848 0.368499 -0.12412
-0.416001 0.332441 -0.052524
0.888661 0.36387 0.14296
0.447002 0.332441 0.022717
-0.716541 0.332441 0.240205
0.052934 0.332441 0.16947
-0.183661 0.368499 0.183698
0.334613 0.368499 0.119101
-0.237034 0.368499 0.190248
-0.469314 0.368499 -0.032872
0.69009 0.368499 -0.099238
0.011415 0.332441 0.245895
0.834363 0.332441 0.199163
-0.121561 0.368499 0.151959
-0.159366 0.332441 0.210048
0.125087 0.368499 -0.026954
-0.560051 0.368499 -0.265926
0.589417 0.332441 -0.005254
0.31593 0.332441 0.052509
-0.819852 0.368499 0.008532
0.350934 0.368499 0.21176
-0.486777 0.368499 0.171013
0.664268 0.332441 -0.071243
0.550098 0.368499 -0.255216
0.40513 0.332441 -0.103855
0.160274 0.332441 0.269805
-0.402891 0.368499 0.188427
-0.79191 0.332441 -0.05584
0.271068 0.332441 0.098055
-0.288767 0.332441 0.215001
-0.275264 0.332441 -0.175287
-0.070589 0.332441 -0.179827
-0.250357 0.368499 -0.110292
-0.113506 0.332441 -0.093981
0.171714 0.368499 -0.048145
0.564248 0.368499 -0.113297
0.362358 0.368499 -0.11223
-0.342847 0.332441 0.047459
0.789385 0.332441 0.179353
0.579677 0.332441 0.184415
-0.384699 0.368499 -0.22705
0.694936 0.332441 -0.180309
0.711046 0.368499 -0.270618
0.500979 0.368499 0.18577
-0.687901 0.332441 -0.250788
0.111315 0.332441 0.206816
0.860996 0.363054 0.278615
-0.44232 0.332441 0.032117
-0.620318 0.368499 -0.237744
-0.794299 0.368499 -0.198672
0.639139 0.332441 0.219223
-0.795042 0.368499 0.160361
0.718695 0.368499 0.166787
-0.11451 0.332441 0.084685
-0.242177 0.368499 -0.153071
-0.731643 0.332441 0.182581
-0.461903 0.332441 0.216487
-0.611382 0.368499 0.252618
-0.226304 0.368499 0.075023
-0.172785 0.332441 -0.104428
-0.570911 0.368499 0.115137
-0.508955 0.368499 -0.109887
-0.269654 0.332441 0.052422
0.571377 0.368499 0.146185
0.715631 0.368499 0.040234
-0.617231 0.368499 0.207625
0.626576 0.332441 -0.094391
-0.542098 0.332441 0.053747
-0.70297 0.332441 0.039095
0.7553 0.368499 -0.160267
-0.48842 0.368499 -0.24874
0.237337 0.368499 -0.158074
0.66015 0.368499 0.155471
0.507538 0.368499 0.087216
0.671938 0.368499 -0.185406
-0.329597 0.332441 0.200182
0.398066 0.332441 0.130807
0.236782 0.332441 -0.086528
-0.558025 0.332441 -0.234423
-0.528278 0.368499 -0.153626
0.143471 0.368499 0.070999
-0.707513 0.332441 -0.159386
-0.29132 0.332441 0.098853
0.621364 0.332441 -0.138603
0.729158 0.368499 -0.121959
-0.393525 0.332441 0.143338
-0.013368 0.332441 0.10162
0.068446 0.368499 -0.143708
-0.408436 0.332441 0.266829
0.385995 0.332441 -0.052647
0.020034 0.368499 0.033056
0.319697 0.368499 -0.211132
-0.100404 0.332441 -0.144708
-0.645073 0.332441 -0.233461
0.521573 0.332441 -0.202253
0.195007 0.368499 -0.106295
-0.407091 0.332441 -0.005678
-0.0146 0.332441 0.148576
-0.128474 0.368499 -0.208454
0.282249 0.332441 0.176062
-0.272326 0.368499 -0.038766
-0.285885 0.368499 -0.07984
0.189431 0.368499 0.232319
-0.039104 0.332441 -0.009443
0.619862 0.368499 0.087455
0.85231 0.368499 0.122561
-0.382525 0.368499 0.113217
-0.362503 0.368499 -0.17391
-0.751388 0.332441 0.044622
-0.201251 0.368499 -0.270512
-0.159253 0.332441 0.045846
0.648626 0.368499 -0.235183
-0.039261 0.332441 -0.088151
0.597885 0.332441 -0.182713
0.549733 0.332441 0.047112
0.377912 0.368499 0.01626
-0.042828 0.332441 0.232633
-0.033854 0.332441 -0.203754
-0.842063 0.332441 0.152664
-0.790235 0.368499 -0.127467
-0.153207 0.368499 0.098247
0.843615 0.368499 -0.140965
0.240896 0.338038 -0.280284
-0.804022 0.332441 -0.244196
-0.315599 0.332441 -0.256827
-0.172229 0.368499 -0.071904
-0.658792 0.332441 0.140403
-0.486505 0.368499 0.080233
-0.703159 0.332441 0.087922
-0.111604 0.368499 0.253059
-0.618948 0.332441 -0.006044
0.055787 0.332441 0.077059
0.500861 0.332441 -0.018196
0.155088 0.332441 0.135965
0.597233 0.332441 0.123858
0.490079 0.368499 0.012408
-0.5264 0.332441 -0.20299
0.869238 0.332441 -0.085311
0.745962 0.332441 0.087114
-0.096296 0.368499 -0.062002
0.311376 0.332441 0.002642
-0.159234 0.332441 -0.185632
-0.209835 0.368499 0.007556
0.709593 0.332441 -0.116734
0.461846 0.332441 0.131991
-0.763138 0.332441 -0.083938
0.604616 0.332441 0.034312
0.255991 0.368499 0.040659
0.036651 0.368499 0.074463
0.226994 0.332441 0.181926
-0.836355 0.332441 -0.009155
-0.331956 0.368499 0.092732
0.21803 0.332441 -0.235467
0.634828 0.368499 -0.023216
-0.752272 0.368499 -0.205183
0.397737 0.332441 0.047028
0.107439 0.332441 -0.147495
0.238908 0.368499 0.154439
0.77606 0.368499 -0.257282
0.602996 0.368499 -0.261912
0.781839 0.368499 0.09959
-0.016296 0.368499 0.190757
0.803884 0.368499 0.163598
0.328828 0.368499 0.161417
0.40307 0.368499 -0.254168
-0.623692 0.332441 0.033409
0.124686 0.332441 -0.250381
0.394034 0.368499 -0.189976
0.007204 0.332441 0.188825
0.715834 0.368499 0.206326
0.134929 0.364987 0.278615
-0.748758 0.368499 0.01827
-0.643574 0.332441 0.221664
0.868364 0.368499 -0.055996
0.888661 0.350203 0.020687
-0.713734 0.368499 0.173643
0.6454 0.368499 -0.126322
0.851259 0.332441 -0.261503
-0.576103 0.368499 0.21066
-0.291971 0.368499 0.24103
-0.842122 0.34081 -0.234027
-0.093427 0.368499 -0.190975
-0.430185 0.368499 -0.031799
-0.679538 0.332441 -0.046053
0.524383 0.368499 -0.217084
0.08369 0.368499 -0.045109
0.718795 0.332441 0.237054
0.737182 0.332441 -0.202096
-0.163424 0.368499 -0.159772
0.036824 0.332441 -0.188413
0.552748 0.368499 -0.037597
0.148496 0.368499 -0.13417
-0.806402 0.368499 -0.275986
-0.231292 0.332441 -0.055783
-0.313594 0.332441 -0.188392
0.073734 0.368499 0.12674
0.888661 0.345662 0.177892
0.573142 0.368499 0.037837
0.373751 0.368499 0.095599
-0.245692 0.332441 0.150697
-0.757166 0.332441 0.25868
0.572158 0.368499 0.251608
-0.695585 0.332441 -0.212792
0.639505 0.332441 -0.255284
-0.502506 0.368499 -0.071738
-0.19553 0.368499 0.22048
-0.28601 0.368499 -0.128533
-0.576123 0.332441 0.078681
-0.689273 0.368499 0.071714
-0.188724 0.332441 -0.239711
-0.490154 0.332441 0.242733
0.674414 0.332441 0.190556
0.339994 0.368499 -0.080836
0.468821 0.332441 -0.189814
0.717355 0.368499 -0.001262
0.517385 0.368499 0.267553
0.361796 0.332441 -0.022791
0.314169 0.332441 -0.101967
-0.43568 0.368499 -0.128272
-0.609387 0.332441 -0.043225
0.364612 0.368499 -0.215842
-0.072094 0.332441 0.010148
-0.482646 0.332441 0.109555
0.02553 0.368499 0.149716
0.873935 0.368499 0.208273
-0.542504 0.332441 0.209851
0.324073 0.332441 -0.141136
0.143776 0.332441 0.027034
0.141021 0.332441 -0.084468
-0.089033 0.332441 0.122432
-0.828492 0.368499 -0.125925
0.663807 0.368499 0.113408
0.498125 0.332441 0.159909
-0.501034 0.368499 0.001053
-0.752643 0.356866 -0.280284
0.772222 0.332441 -0.050865
-0.227685 0.332441 0.245236
0.695877 0.332441 0.075471
0.883017 0.368499 0.095834
0.233881 0.332441 0.029896
0.670276 0.332441 -0.033699
0.17476 0.368499 0.01803
0.847439 0.368499 -0.210945
-0.54561 0.332441 -0.121668
-0.630703 0.332441 -0.108254
-0.842122 0.349919 -0.070298
-0.269429 0.368499 0.002266
-0.842122 0.336069 -0.152863
-0.504146 0.368499 0.223997
-0.470527 0.332441 -0.152546
-0.617386 0.368499 -0.149187
-0.765207 0.368499 0.224083
0.48435 0.332441 0.224025
-0.751256 0.332441 -0.168006
-0.630854 0.332441 0.071567
-0.431748 0.332441 -0.263608
-0.209381 0.332441 -0.157228
-0.035552 0.332441 0.071262
-0.455785 0.332441 -0.082186
-0.252853 0.332441 -0.222646
-0.286648 0.332441 -0.040063
-0.331386 0.357085 -0.280284
0.446549 0.368499 -0.172342
0.170139 0.332441 -0.218891
-0.839166 0.368499 0.168943
0.84206 0.332441 0.007189
-0.032152 0.368499 -0.142815
-0.00319 0.332441 -0.019434
0.193137 0.332441 0.198565
0.369023 0.362783 0.278615
-0.348974 0.332441 -0.111825
-0.780564 0.332441 0.165174
-0.000774 0.368499 0.098145
-0.082403 0.332441 0.208588
0.585674 0.332441 -0.128447
-0.343107 0.332441 0.148769
0.161172 0.368499 -0.200529
0.86068 0.368499 -0.17387
0.020814 0.368499 -0.075792
-0.158315 0.368499 0.15613
0.033596 0.332441 -0.248858
0.888661 0.338102 -0.163517
-0.05694 0.368499 0.117243
0.030827 0.332441 -0.040255
0.37584 0.368499 0.184511
-0.571421 0.332441 0.138661
-0.132778 0.332441 0.184485
-0.700161 0.368499 -0.157076
-0.283513 0.332441 0.265462
0.40482 0.332441 -0.18263
-0.361411 0.332441 0.080351
0.090469 0.332441 -0.065871
0.794754 0.368499 -0.092719
-0.746347 0.368499 0.097046
0.003084 0.332441 -0.209725
0.812182 0.368499 0.027366
-0.029378 0.368499 -0.03407
-0.308031 0.368499 0.016035
-0.747804 0.368499 -0.095908
-0.15543 0.368499 -0.243309
0.116618 0.332441 0.143038
-0.439922 0.332441 -0.211876
0.457546 0.332441 -0.135647
0.749228 0.332441 -0.158256
-0.002033 0.332441 -0.127364
0.225995 0.368499 0.23355
0.400497 0.368499 0.122465
-0.272715 0.368499 0.154078
0.79798 0.332441 -0.014805
-0.144897 0.368499 -0.047742
0.708469 0.368499 -0.066751
-0.446128 0.368499 0.085619
-0.822236 0.363234 0.278615
-0.088523 0.368499 0.020995
-0.790457 0.332441 0.089065
0.255066 0.332441 0.000457
-0.645548 0.368499 -0.184026
0.211373 0.368499 0.130944
-0.701146 0.368499 0.129411
0.595594 0.332441 -0.223185
0.601707 0.368499 0.172615
0.770696 0.368499 0.275676
0.161931 0.368499 0.200811
-0.692462 0.368499 0.202656
0.779035 0.368499 0.227793
0.05554 0.332441 0.041169
0.759235 0.332441 -0.08431
-0.190446 0.368499 0.075748
-0.75232 0.368499 -0.054868
0.120021 0.368499 0.148317
0.693485 0.368499 0.141353
-0.407591 0.332441 0.058124
0.055101 0.332441 -0.003193
-0.684471 0.332441 -0.092214
0.579675 0.368499 -0.168376
-0.285478 0.368499 -0.171852
-0.572249 0.332441 0.271125
-0.23935 0.368499 -0.056157
0.786396 0.332441 -0.122144
0.425501 0.368499 -0.066748
-0.80325 0.332441 -0.190998
-0.705984 0.368499 0.242949
0.292729 0.332441 -0.157979
0.406155 0.368499 0.157588
0.507754 0.368499 -0.022522
-0.008458 0.368499 -0.258294
-0.273135 0.332441 -0.266131
0.339004 0.332441 -0.25512
0.458689 0.368499 -0.228031
0.380816 0.368499 -0.148576
0.402186 0.332441 -0.021213
0.205545 0.368499 -0.186483
0.111781 0.368499 -0.272122
0.139299 0.332441 -0.162641
-0.509418 0.368499 0.143966
0.114869 0.332441 -0.020095
0.1635 0.368499 -0.082427
0.597705 0.332441 -0.267306
-0.800932 0.368499 0.195058
0.463125 0.368499 -0.051553
-0.635142 0.368499 0.175686
0.29493 0.332441 0.143281
0.434045 0.332441 -0.202126
-0.76966 0.368499 0.136123
0.504657 0.368499 0.048203
-0.061521 0.332441 0.162208
-0.814272 0.368499 -0.084357
0.098812 0.332441 0.248344
0.028664 0.368499 -0.137902
0.557739 0.332441 -0.195061
0.371153 0.332441 0.154025
-0.198184 0.332441 0.026968
-0.103381 0.332441 -0.246937
0.203882 0.332441 -0.015426
-0.223486 0.368499 -0.025281
-0.284248 0.368499 0.05233
0.529314 0.368499 -0.096217
-0.618336 0.368499 0.137504
0.414027 0.368499 -0.006091
0.63366 0.332441 0.053191
0.413734 0.332441 0.013138
0.773287 0.368499 0.002893
-0.220601 0.332441 -0.088699
0.287642 0.368499 0.247006
-0.480617 0.332441 0.151432
0.344954 0.332441 0.179281
-0.247979 0.332441 0.19339
-0.081732 0.332441 0.25669
-0.05344 0.368499 0.248689
0.360366 0.332441 0.048403
0.748633 0.332441 0.169261
-0.711389 0.368499 0.022328
0.820019 0.332441 0.056179
-0.6921 0.332441 0.165274
0.577231 0.368499 0.084595
0.600002 0.368499 0.016368
-0.073048 0.368499 -0.23836
-0.587049 0.368499 -0.165336
-0.730119 0.332441 0.145863
-0.532125 0.368499 0.252296
-0.685581 0.332441 0.259893
0.604326 0.368499 0.26297
0.422115 0.332441 -0.136525
0.561897 0.332441 0.014783
-0.320143 0.332441 0.080752
0.291748 0.332441 0.23213
0.873874 0.332441 0.149618
-0.212436 0.368499 -0.218253
0.536565 0.368499 0.157657
-0.373725 0.332441 -0.012066
-0.482285 0.368499 -0.17615
-0.392176 0.368499 0.272068
0.637299 0.332441 -0.05066
-0.444064 0.368499 0.156409
-0.170312 0.368499 0.00765
-0.362639 0.368499 -0.061043
-0.447274 0.368499 0.239715
-0.128619 0.368499 0.032059
0.080493 0.332441 0.14988
0.272884 0.332441 -0.270967
-0.022202 0.368499 -0.089402
-0.568691 0.332441 -0.198904
0.496371 0.332441 -0.24087
0.770805 0.368499 0.141136
-0.538021 0.368499 0.095004
-0.667298 0.368499 0.028229
0.287104 0.368499 0.027869
0.802752 0.332441 -0.24939
-0.531771 0.332441 0.170648
0.109172 0.368499 0.181845
-0.057065 0.368499 0.083694
-0.440487 0.368499 -0.064067
0.12278 0.368499 -0.211556
0.527698 0.368499 -0.159734
-0.546483 0.368499 0.013905
-0.223025 0.368499 0.243046
-0.462744 0.332441 -0.049591
-0.073962 0.332441 0.043361
-0.772254 0.332441 -0.234344
-0.267267 0.368499 0.218772
0.067553 0.332441 -0.261581
-0.795604 0.332441 -0.093999
0.588233 0.368499 -0.088012
-0.348793 0.332441 -0.256487
-0.43632 0.332441 0.118157
0.392372 0.332441 0.233526
0.888661 0.342091 0.076672
-0.164258 0.332441 0.137788
-0.640694 0.368499 -0.031344
0.644618 0.368499 0.065595
0.317344 0.368499 0.215405
0.759075 0.332441 0.264236
-0.371582 0.368499 0.038456
-0.41498 0.368499 -0.201651
-0.805539 0.368499 0.063774
0.730641 0.364976 0.278615
0.693323 0.332441 -0.147447
-0.350989 0.368499 0.137758
-0.376784 0.368499 -0.007215
0.425278 0.367881 0.278615
0.116842 0.368499 -0.108548
0.434811 0.368499 0.223772
-0.007328 0.368499 -0.058983
0.440787 0.368499 -0.120026
-0.073423 0.332441 -0.101646
0.517842 0.332441 0.09369
-0.324552 0.332441 -0.22358
0.528499 0.332441 0.147372
-0.599886 0.368499 0.093939
0.038816 0.332441 0.199807
-0.830577 0.368499 0.247556
-0.263593 0.332441 -0.11564
-0.595162 0.332441 0.245251
0.415318 0.332441 0.15844
0.219502 0.368499 0.274235
-0.803311 0.332441 0.044153
0.470241 0.368499 0.199735
0.272899 0.368499 -0.103609
0.177953 0.332441 -0.262306
-0.723119 0.332441 -0.18793
-0.41915 0.332441 -0.087409
0.68467 0.368499 0.050045
-0.677837 0.368499 -0.187124
0.755222 0.332441 0.020671
-0.626751 0.332441 0.135466
0.264294 0.368499 0.084396
-0.539078 0.368499 -0.184156
0.442062 0.368499 0.068709
-0.235841 0.368499 -0.264803
0.862375 0.368499 0.039142
0.020041 0.332441 0.157899
-0.548109 0.332441 0.002548
0.131051 0.332441 0.103424
-0.807256 0.332441 -0.14436
0.087134 0.332441 -0.204665
-0.53401 0.368499 -0.052774
0.821413 0.332441 -0.209284
-0.377803 0.332441 0.210849
0.210175 0.368499 -0.038686
-0.384633 0.332441 -0.046204
0.342389 0.368499 0.020592
-0.20035 0.368499 0.156444
-0.383629 0.368499 -0.12902
0.102997 0.368499 -0.003911
-0.131533 0.332441 -0.01065
-0.591174 0.368499 -0.077055
0.6114 0.368499 -0.146825
-0.815993 0.368499 -0.237902
-0.192064 0.332441 -0.183799
0.650655 0.368499 -0.161938
-0.011703 0.332441 0.011057
-0.209577 0.368499 0.104127
-0.732262 0.368499 -0.16687
-0.840454 0.332441 0.196291
-0.769072 0.332441 0.112342
0.678295 0.368499 -0.057336
-0.686071 0.332441 0.006889
-0.211254 0.368499 0.047318
0.063319 0.368499 -0.021071
0.340321 0.368499 0.241372
0.484331 0.368499 -0.107053
-0.499781 0.368499 -0.040445
0.265557 0.368499 0.176904
-0.123661 0.332441 -0.171521
-0.597985 0.332441 -0.278908
-0.092261 0.368499 -0.138141
0.182308 0.332441 -0.043774
-0.207898 0.332441 0.116605
0.054941 0.368499 0.222072
0.825551 0.368499 0.141171
-0.463293 0.332441 0.009063
-0.483495 0.332441 -0.260645
-0.495804 0.332441 -0.193204
0.405079 0.368499 0.205801
0.43436 0.332441 0.117551
0.339378 0.368499 -0.042887
0.727154 0.368499 -0.213672
0.435031 0.332441 -0.271149
0.742521 0.332441 -0.04229
0.612263 0.332441 0.203962
-0.229902 0.332441 -0.180293
0.464596 0.368499 0.276316
-0.437119 0.332441 0.255498
0.36305 0.332441 0.109179
0.757287 0.368499 0.029237
0.19866 0.368499 0.159834
0.513633 0.332441 -0.12388
0.657483 0.332441 0.017781
-0.316196 0.368499 0.221725
0.071109 0.332441 -0.170368
0.564327 0.332441 0.095146
-0.661186 0.368499 0.142819
0.05724 0.368499 -0.224723
0.342924 0.332441 0.083587
0.435756 0.332441 -0.102158
0.29422 0.332441 -0.023554
-0.756516 0.332441 -0.01038
0.791144 0.368499 -0.168935
0.86516 0.368499 -0.019001
-0.711575 0.332441 -0.014794
-0.148541 0.368499 -0.131225
-0.444202 0.368499 -0.004571
-0.837016 0.332441 0.113356
-0.643027 0.332441 0.104191
-0.347863 0.332441 -0.081355
0.707231 0.368499 0.247474
0.758904 0.368499 0.204903
0.172869 0.332441 0.175838
0.633473 0.332441 0.25518
-0.054067 0.368499 0.011628
0.345076 0.368499 0.085614
0.265309 0.332441 0.062391
-0.727439 0.368499 0.144457
-0.577152 0.332441 -0.119409
-0.158321 0.368499 0.067112
-0.72655 0.368499 -0.221082
-0.649487 0.368499 -0.078136
-0.05801 0.332441 -0.060507
-0.390491 0.368499 -0.256647
0.381198 0.332441 -0.260998
-0.340541 0.368499 -0.023118
0.080365 0.368499 -0.196839
-0.786664 0.368499 0.275377
-0.645406 0.368499 0.057257
0.824843 0.368499 0.110442
0.780238 0.368499 -0.227573
-0.75802 0.332441 -0.263714
0.496994 0.332441 0.062089
-0.182133 0.332441 -0.032534
-0.182137 0.332441 0.190611
-0.045214 0.368499 0.19849
0.19559 0.368499 -0.245397
0.744924 0.368499 -0.096517
0.167495 0.368499 0.053175
-0.310305 0.368499 -0.097072
0.575704 0.332441 -0.162752
-0.471484 0.355238 -0.280284
-0.151805 0.332441 -0.08325
0.443519 0.332441 -0.006805
-0.144093 0.332441 0.087502
0.575083 0.332441 -0.043968
0.658233 0.368499 0.232503
0.18436 0.332441 0.059129
0.868662 0.368499 0.068129
0.686012 0.332441 -0.240907
-0.477409 0.368499 -0.206223
0.219095 0.368499 0.02225
-0.560226 0.368499 -0.109338
0.051749 0.368499 0.041759
0.023688 0.368499 -0.217892
-0.093552 0.368499 0.142695
-0.03211 0.368499 0.10134
-0.700079 0.368499 0.100006
0.626268 0.368499 0.226955
-0.411577 0.368499 0.216532
0.626107 0.368499 0.195581
0.825641 0.368499 -0.008779
-0.49384 0.332441 -0.09722
-0.186011 0.368499 -0.245473
-0.231868 0.332441 0.007848
-0.505189 0.332441 -0.224979
0.082069 0.332441 0.206464
-0.824434 0.332441 -0.054911
0.621041 0.332441 0.147507
0.391065 0.368499 -0.117748
0.25531 0.368499 0.210219
-0.036037 0.332441 -0.151029
-0.005475 0.368499 0.218877
0.369144 0.368499 0.236684
0.078056 0.368499 -0.111975
0.323337 0.368499 -0.14921
-0.677924 0.368499 0.250754
-0.271744 0.368499 -0.205182
0.23695 0.332441 0.246913
-0.386544 0.368499 0.145931
0.001747 0.332441 0.218515
0.031487 0.332441 0.092918
-0.404667 0.336301 -0.280284
-0.217085 0.368499 -0.16759
0.77323 0.368499 -0.034252
0.810981 0.332441 0.109806
-0.722617 0.332441 -0.091349
-0.562397 0.332441 0.230732
-0.404832 0.332441 -0.120777
0.661111 0.332441 0.163557
-0.58381 0.368499 -0.047327
0.496749 0.332441 0.131187
0.057649 0.332441 -0.106043
-0.258612 0.368499 0.065302
0.855603 0.332441 0.236431
-0.583238 0.332441 -0.248189
-0.785242 0.368499 -0.007035
0.43389 0.368499 -0.242429
-0.179562 0.332441 0.066059
-0.135867 0.368499 -0.276715
0.888661 0.343838 -0.217544
0.448751 0.332441 0.245989
-0.654061 0.332441 0.020939
0.153442 0.332441 -0.247614
-0.804181 0.332441 -0.03005
-0.122514 0.332441 0.148608
0.805042 0.368499 0.239485
-0.119229 0.368499 0.120263
0.701843 0.332441 0.214179
0.138047 0.368499 -0.169091
-0.428503 0.368499 -0.176645
0.455287 0.332441 -0.047165
-0.105511 0.368499 -0.225129
0.345889 0.332441 0.234158
-0.136969 0.332441 -0.207443
0.16726 0.332441 -0.120365
-0.55503 0.332441 -0.072319
0.177461 0.368499 -0.173995
-0.008012 0.368499 0.036409
-0.821785 0.332441 -0.2164
-0.015169 0.332441 0.255235
-0.128541 0.368499 0.230554
-0.663534 0.368499 -0.150044
0.572167 0.332441 0.136608
0.331265 0.332441 -0.017234
0.748269 0.368499 0.055824
0.138443 0.365409 -0.280284
-0.659824 0.368499 0.197864
-0.776415 0.332441 0.064837
0.004666 0.368499 0.263704
-0.537304 0.332441 -0.148394
0.232331 0.368499 -0.228693
-0.376809 0.368499 0.178292
-0.842122 0.364092 0.088454
-0.464048 0.332441 -0.116717
-0.478429 0.368499 0.21317
0.888661 0.341205 -0.007561
0.446473 0.368499 0.157212
-0.401996 0.332441 0.18578
-0.778842 0.368499 -0.271769
0.206815 0.332441 0.080551
-0.359895 0.368499 -0.255335
0.871439 0.368499 0.235899
-0.629434 0.360889 -0.280284
-0.137392 0.332441 0.227284
-0.306417 0.332441 -0.006567
0.71101 0.332441 0.115102
-0.512916 0.368499 -0.235822
0.348128 0.368499 0.181136
0.035087 0.332441 -0.21594
0.63879 0.368499 -0.209435
0.245502 0.332441 -0.049187
0.688855 0.332441 -0.083685
-0.308267 0.332441 0.234438
-0.293765 0.332441 0.187934
0.280973 0.332441 0.206834
0.49959 0.332441 -0.085095
0.015081 0.332441 -0.103672
0.127082 0.368499 0.048995
0.476661 0.332441 -0.005297
-0.77746 0.368499 0.065156
-0.295289 0.368499 -0.023827
-0.236004 0.332441 0.056558
-0.44914 0.368499 0.11281
0.113239 0.332441 0.013448
0.212831 0.368499 -0.085548
0.559245 0.332441 0.202599
-0.084689 0.368499 -0.165063
0.841063 0.368499 -0.054464
0.879806 0.368499 -0.080817
0.44534 0.368499 0.040196
-0.228585 0.332441 0.174219
0.623903 0.332441 -0.174612
-0.154929 0.332441 -0.033009
0.532919 0.332441 -0.168052
0.172134 0.368499 -0.020976
-0.70539 0.332441 -0.054393
-0.394857 0.368499 -0.10358
-0.708113 0.368499 -0.253977
0.252116 0.368499 -0.086295
0.438582 0.368499 0.005193
0.84479 0.368499 -0.111305
-0.543893 0.332441 -0.26487
-0.105849 0.368499 0.000311
0.012052 0.368499 0.061907
-0.363416 0.332441 0.131074
0.701902 0.332441 -0.025731
-0.472607 0.332441 0.177093
0.495682 0.332441 -0.189439
-0.505598 0.368499 0.197174
0.559782 0.332441 0.265139
0.87724 0.332441 -0.271049
-0.818579 0.332441 0.239448
-0.842122 0.35855 -0.007106
0.212787 0.368499 0.097832
0.875323 0.368499 0.174371
0.380607 0.368499 0.069818
0.292385 0.332441 -0.249388
-0.284005 0.332441 -0.098516
0.414915 0.368499 -0.173522
0.718794 0.368499 0.133305
-0.457645 0.332441 -0.254666
0.288119 0.368499 0.095963
-0.332406 0.332441 -0.019318
-0.422705 0.368499 0.113328
-0.125162 0.332441 0.04596
0.808426 0.332441 -0.046936
0.304336 0.361913 -0.280284
0.785803 0.332441 -0.084074
0.118707 0.368499 0.090904
0.760032 0.368499 0.115492
0.622265 0.332441 0.115677
-0.088417 0.332441 0.088076
0.520851 0.332441 0.044191
-0.667093 0.332441 0.20011
-0.636665 0.368499 -0.131317
0.57298 0.368499 -0.268056
0.058671 0.368499 -0.052927
0.830243 0.332441 -0.245875
-0.600852 0.332441 0.056299
0.589976 0.368499 0.122767
-0.263497 0.368499 0.182423
0.368311 0.332441 -0.166087
0.053799 0.368499 0.14364
-0.419646 0.368499 0.165559
0.457053 0.332441 0.054973
0.826761 0.332441 -0.178412
-0.687877 0.332441 0.066823
-0.391313 0.332441 -0.220843
-0.106154 0.368499 0.045211
0.139524 0.332441 0.053652
-0.624061 0.332441 0.255156
0.401477 0.332441 -0.073542
-0.76505 0.332441 0.014182
-0.594685 0.368499 -0.242084
-0.410603 0.368499 -0.050512
-0.666431 0.332441 -0.165004
0.490273 0.368499 -0.062264
-0.357655 0.368499 -0.22945
0.067018 0.332441 -0.052047
-0.331705 0.368499 0.180716
0.229743 0.332441 -0.017296
0.675386 0.332441 0.111607
-0.508094 0.368499 0.118079
0.040018 0.368499 0.002136
-0.498548 0.368499 -0.156021
-0.502405 0.332441 0.167856
-0.507802 0.332441 -0.009119
-0.41729 0.332441 0.018084
-0.53938 0.368499 -0.226012
0.887597 0.368499 -0.255959
-0.533918 0.368499 -0.259641
0.606057 0.368499 -0.008705
0.460835 0.332441 0.097676
-0.103699 0.332441 -0.064936
-0.455296 0.332441 -0.174667
-0.53234 0.332441 -0.233155
-0.623139 0.368499 0.03686
0.471103 0.368499 -0.164821
0.840092 0.332441 0.124037
-0.034005 0.332441 -0.230048
-0.221947 0.332441 0.140984
0.870237 0.332441 0.019043
0.259205 0.332441 0.187289
-0.226348 0.368499 -0.100921
-0.29758 0.368499 0.142491
0.744922 0.368499 -0.011224
0.076192 0.368499 -0.168107
0.661278 0.332441 0.251166
-0.593691 0.368499 0.126731
-0.010553 0.332441 0.036592
-0.065168 0.368499 -0.277452
0.611452 0.332441 0.009727
0.852681 0.368499 0.255125
0.480299 0.332441 0.027384
0.796796 0.332441 -0.215833
0.396651 0.332441 -0.135846
-0.243337 0.368499 0.227501
-0.057907 0.332441 -0.259349
0.025485 0.368499 -0.270862
-0.37679 0.368499 -0.202868
0.65696 0.368499 -0.084046
0.163333 0.368499 -0.276328
-0.14625 0.368499 -0.190328
-0.326664 0.332441 -0.099739
0.483774 0.332441 -0.218849
-0.10333 0.368499 0.205959
0.536783 0.332441 0.018237
0.486237 0.368499 -0.26581
0.857764 0.332441 0.211181
-0.22898 0.332441 -0.030551
-0.520619 0.332441 -0.117627
0.601811 0.332441 -0.042486
-0.375302 0.332441 0.051885
0.689191 0.332441 0.028027
-0.813084 0.368499 0.120914
0.299846 0.368499 -0.242983
-0.766664 0.332441 -0.048999
-0.189653 0.368499 -0.090496
-0.806547 0.332441 0.262078
0.804683 0.332441 -0.155532
-0.423175 0.332441 0.234489
-0.360561 0.332441 0.106024
0.741233 0.368499 0.181046
0.149053 0.368499 -0.005971
0.728916 0.368499 -0.160922
-0.576936 0.368499 0.051735
0.395624 0.368499 -0.052758
0.817255 0.368499 -0.073681
0.217612 0.332441 -0.110909
0.146346 0.332441 0.002089
0.372629 0.332441 -0.099618
0.237113 0.368499 0.179429
0.532287 0.368499 0.090892
-0.596877 0.332441 -0.064881
-0.34255 0.368499 -0.133293
0.863333 0.368499 -0.246811
0.016988 0.368499 0.126223
0.430038 0.368499 -0.275559
0.791428 0.368499 -0.051356
-0.433523 0.332441 0.059084
-0.246775 0.332441 0.125764
0.40423 0.332441 0.264778
0.183228 0.332441 0.260083
0.53132 0.332441 0.235067
0.741261 0.368499 0.223508
-0.127754 0.332441 -0.256876
-0.348381 0.332441 -0.23066
0.118368 0.368499 -0.051191
-0.191541 0.332441 -0.120725
-0.651685 0.332441 -0.275055
0.271991 0.332441 0.247194
-0.318294 0.368499 0.246478
0.446862 0.368499 0.093076
-0.281384 0.332441 0.074303
0.67327 0.368499 -0.217898
0.537876 0.332441 0.170352
-0.603465 0.332441 -0.110337
-0.263904 0.332441 0.250304
-0.521751 0.368499 0.070653
0.756873 0.332441 -0.187088
0.481285 0.332441 0.199457
0.494092 0.368499 0.1202
0.598776 0.332441 0.239431
-0.262514 0.332441 0.168823
-0.794407 0.368499 -0.099027
-0.323548 0.332441 -0.158045
0.254452 0.368499 0.135284
0.20101 0.332441 -0.065006
0.196473 0.332441 0.117495
-0.270775 0.332441 0.112443
0.41314 0.368499 0.057925
0.63059 0.368499 -0.105533
0.730662 0.332441 0.215486
0.78277 0.332441 0.249604
0.42975 0.368499 -0.090956
0.208846 0.368499 0.044579
-0.842122 0.35881 0.024287
0.770912 0.332441 -0.261538
-0.577166 0.368499 -0.193448
-0.3384 0.368499 -0.064847
-0.828392 0.368499 -0.062082
0.273298 0.368499 -0.073959
0.227258 0.345669 0.278615
0.09088 0.339831 -0.280284
0.024512 0.368499 0.212496
0.14611 0.368499 -0.039457
0.720725 0.368499 0.06413
0.507362 0.368499 0.241603
0.157098 0.368499 0.130408
0.508773 0.332441 0.225894
0.774184 0.332441 0.198364
-0.098774 0.332441 -0.168976
-0.577382 0.368499 -0.014482
0.250087 0.368499 0.236821
-0.755238 0.368499 -0.15894
-0.736143 0.332441 -0.213243
-0.112731 0.368499 -0.176261
-0.236828 0.332441 0.222754
-0.082957 0.368499 -0.033335
-0.036952 0.368499 -0.119029
-0.248491 0.332441 -0.096668
0.202081 0.332441 -0.217217
-0.363455 0.332441 -0.062804
0.467066 0.368499 0.137084
-0.734298 0.368499 0.242769
0.340186 0.332441 -0.159186
0.614756 0.368499 -0.065543
0.097661 0.368499 0.130156
-0.760276 0.345712 0.278615
0.755564 0.332441 0.116952
0.071592 0.332441 0.01444
0.734103 0.332441 0.008991
-0.713718 0.368499 -0.042942
-0.296748 0.368499 0.072928
-0.638162 0.368499 0.080208
-0.224663 0.368499 0.210883
0.782136 0.332441 0.018341
0.113488 0.332441 0.268417
0.230242 0.368499 0.081329
0.280966 0.368499 -0.025268
-0.385624 0.368499 -0.180354
-0.665995 0.332441 0.230209
-0.786817 0.332441 -0.260904
-0.691042 0.368499 0.047806
-0.387128 0.368499 0.06034
-0.498632 0.332441 0.039162
-0.208281 0.332441 -0.04799
0.134733 0.368499 -0.232313
0.307914 0.332441 0.163394
-0.671167 0.332441 -0.072317
-0.162739 0.332441 0.240377
0.357525 0.332441 -0.057498
0.726223 0.332441 0.068866
-0.492589 0.332441 -0.143325
0.328541 0.368499 -0.239481
-0.508395 0.332441 0.2592
-0.686221 0.368499 0.225706
-0.155607 0.332441 0.111198
-0.309034 0.368499 0.115538
0.640691 0.368499 0.141649
0.478459 0.332441 0.113754
-0.435704 0.368499 -0.224364
-0.155085 0.368499 0.042397
-0.653277 0.332441 0.082749
-0.536071 0.332441 -0.017892
0.355486 0.368083 -0.280284
0.645649 0.332441 -0.11504
-0.042213 0.368499 -0.011939
-0.471804 0.332441 0.076785
0.34195 0.368499 0.141727
0.579637 0.332441 -0.20399
-0.543759 0.332441 -0.186947
0.401875 0.368499 0.275383
0.187098 0.368499 -0.081248
-0.460061 0.368499 0.139026
0.232459 0.332441 0.123286
-0.842122 0.340477 -0.122488
0.66263 0.368499 -0.267724
-0.842122 0.333656 0.05251
0.69309 0.368499 -0.255375
-0.427834 0.332441 0.166524
0.231205 0.332441 -0.183578
-0.671307 0.332441 0.176243
-0.577538 0.368499 0.165481
-0.490089 0.332441 0.21511
0.740433 0.368499 0.083185
-0.809062 0.368499 0.225229
0.094869 0.332441 -0.167319
0.302472 0.332441 0.197416
-0.311223 0.368499 -0.14967
0.843472 0.347484 0.278615
0.659731 0.332441 -0.187416
-0.581362 0.332441 0.117471
0.322823 0.332441 0.127229
-0.812876 0.368499 0.14521
-0.010313 0.332441 -0.149235
-0.257493 0.332441 0.072387
-0.014808 0.332441 -0.107812
0.100908 0.368499 0.075802
0.28822 0.332441 0.005354
-0.767854 0.368499 -0.121022
-0.086552 0.332441 -0.197322
0.704343 0.368499 -0.032849
-0.656282 0.332441 -0.045817
-0.089607 0.364568 -0.280284
0.446229 0.332441 0.219577
0.7857 0.368499 0.185959
-0.352423 0.332441 0.204405
0.870939 0.332441 -0.022457
0.362074 0.368499 -0.038377
0.599633 0.368499 0.060107
-0.171728 0.368499 0.203494
-0.536886 0.332441 0.139744
-0.457849 0.332441 0.100525
-0.421127 0.368499 0.085999
-0.370414 0.332441 0.153079
0.579971 0.368499 0.196811
0.293794 0.332441 0.046101
0.607615 0.332441 0.169946
0.139514 0.368499 -0.104532
0.824402 0.368499 0.251923
0.637134 0.368499 0.102654
0.726984 0.368499 -0.254047
-0.425338 0.332441 -0.02854
0.590841 0.368499 -0.056626
-0.735033 0.368499 -0.269213
0.546137 0.341578 -0.280284
0.160725 0.332441 -0.170897
-0.397721 0.332441 0.222274
0.326697 0.368499 0.194437
-0.091217 0.332441 -0.273313
-0.280361 0.332441 0.024333
0.050226 0.332441 -0.025616
-0.394915 0.368499 0.03004
-0.104444 0.332441 -0.034894
0.622912 0.332441 -0.068476
-0.127657 0.332441 -0.033171
0.154828 0.332441 0.20425
-0.530194 0.332441 -0.043336
-0.1048 0.368499 -0.084405
-0.80416 0.332441 0.070846
0.610554 0.368499 0.108256
-0.575852 0.332441 0.015398
0.76447 0.368499 -0.127094
-0.605825 0.332441 0.1925
-0.621645 0.332441 0.21565
-0.273053 0.368499 -0.274395
0.085545 0.368499 0.015596
0.549604 0.368499 -0.209093
-0.829908 0.368499 0.190955
-0.769694 0.368499 0.246319
-0.575461 0.332441 -0.047106
0.413449 0.332441 0.210321
0.806804 0.332441 0.164892
-0.182925 0.332441 0.010257
0.318895 0.368499 0.248651
-0.330194 0.368499 -0.085923
0.140029 0.332441 -0.26699
-0.625869 0.332441 -0.221551
-0.521127 0.332441 0.234343
0.83327 0.332441 -0.026229
0.442976 0.332441 -0.22285
-0.404056 0.332441 0.163311
0.632988 0.368499 -0.251398
-0.182028 0.332441 0.123949
0.500032 0.332441 -0.27362
-0.201349 0.332441 0.22366
-0.674879 0.368499 -0.263637
-0.601818 0.368499 0.049087
0.888661 0.366379 -0.046619
-0.45362 0.368499 -0.114833
-0.598709 0.368499 0.195002
0.548186 0.368499 -0.084133
0.058316 0.332441 0.146686
0.64728 0.368499 -0.041843
0.538478 0.368499 -0.12629
0.48415 0.332441 -0.033084
0.53943 0.368499 0.211026
0.130839 0.332441 -0.218784
0.770486 0.368499 0.250193
0.06504 0.332441 0.191977
0.688381 0.368499 -0.168912
-0.646827 0.332441 0.264703
0.308893 0.332441 -0.12366
-0.464884 0.368499 0.166686
0.482558 0.368499 -0.022756
0.673063 0.332441 -0.011559
-0.104679 0.332441 -0.221271
0.343954 0.332441 -0.036181
0.530797 0.332441 -0.231104
-0.310816 0.332441 0.114222
-0.842122 0.359065 0.26412
0.638541 0.368499 -0.185327
0.034081 0.332441 0.051771
-0.307676 0.332441 0.151859
0.236226 0.332441 -0.139814
-0.730866 0.368499 0.081099
0.115597 0.368499 0.022519
-0.144877 0.368499 -0.223782
0.029651 0.368499 -0.113594
0.824884 0.368499 -0.152858
-0.233774 0.368499 0.095901
0.608644 0.368499 -0.238008
0.476757 0.332441 -0.08939
-0.614285 0.368499 0.015863
0.167944 0.368499 0.227024
0.306128 0.368499 -0.048551
-0.387216 0.332441 0.260619
-0.160473 0.332441 -0.127945
-0.234035 0.368499 -0.132532
-0.767333 0.332441 0.190989
-0.171928 0.368499 0.111285
0.888661 0.351732 0.050376
-0.232374 0.368499 -0.227628
-0.082893 0.368499 0.089062
0.594747 0.332441 0.217287
-0.771519 0.332441 -0.179335
0.55432 0.332441 0.227862
0.54817 0.368499 0.242381
0.436751 0.368499 -0.145383
0.578513 0.368499 0.166946
0.884975 0.332441 -0.139319
0.543901 0.332441 -0.002524
0.576405 0.332441 -0.233819
0.154569 0.332441 -0.138248
-0.58754 0.332441 0.17512
0.199166 0.332441 -0.256847
-0.811691 0.332441 -0.170792
0.493707 0.332441 -0.132916
0.837207 0.332441 -0.13723
0.097731 0.332441 0.13202
0.652742 0.332441 0.193456
-0.698782 0.368499 0.151144
0.089073 0.332441 -0.135685
-0.294416 0.368499 0.168972
-0.209646 0.332441 0.185044
-0.677488 0.332441 -0.196724
-0.428749 0.332441 -0.000467
-0.786289 0.332441 -0.217708
-0.683184 0.368499 0.117124
0.2752 0.368499 -0.154405
-0.790137 0.368499 0.016604
0.37583 0.368499 -0.263254
0.740623 0.368499 -0.196037
0.175154 0.368499 -0.128394
0.379816 0.368499 -0.008705
0.231182 0.332441 0.052873
-0.131668 0.368499 0.100545
0.51316 0.332441 0.247101
0.343382 0.332441 -0.186872
-0.711106 0.332441 0.189376
-0.218989 0.368499 -0.251251
0.372563 0.332441 -0.121238
0.739923 0.332441 0.189043
-0.268712 0.368499 -0.230648
-0.675328 0.368499 -0.033336
0.563023 0.368499 0.126275
0.671745 0.332441 -0.146854
-0.509373 0.332441 0.121047
-0.386663 0.332441 0.111394
0.880072 0.332441 0.193489
-0.646868 0.368499 -0.270148
0.56743 0.368499 -0.021846
-0.622 0.368499 -0.04222
0.880478 0.332441 0.241912
-0.471761 0.368499 0.09588
0.120823 0.368499 -0.190154
0.623852 0.368499 -0.129124
0.587483 0.368499 -0.121857
0.737755 0.332441 -0.0843
-0.743368 0.332441 0.200561
0.841468 0.332441 0.055357
0.161433 0.368499 0.082736
-0.158529 0.332441 0.07163
0.576267 0.332441 -0.26664
-0.271329 0.332441 -0.196355
0.619456 0.332441 0.083458
0.727921 0.368499 0.24026
0.819655 0.368499 -0.196544
-0.72243 0.332441 -0.067338
-0.76451 0.332441 0.23858
