0.204758 0.486385 0.405298
-0.297768 0.434498 0.388485
-0.155529 0.483611 0.405298
0.284245 0.442144 0.368928
0.258111 0.456826 0.368928
0.010774 0.480945 0.405298
0.015188 0.507239 0.390597
-0.061965 0.478989 0.368928
0.263374 0.507239 0.381786
0.174048 0.507239 0.369171
0.328239 0.451369 0.368928
0.132153 0.474071 0.368928
-0.031268 0.494909 0.368928
0.173584 0.482097 0.405298
0.084403 0.450666 0.405298
0.255015 0.446203 0.405298
0.291539 0.507239 0.39672
-0.158607 0.453066 0.368928
-0.085696 0.434498 0.399807
-0.288558 0.507239 0.396533
0.043083 0.434498 0.380456
-0.113056 0.476261 0.368928
0.087054 0.438629 0.368928
-0.045034 0.447034 0.368928
0.280047 0.496076 0.368928
-0.204929 0.452829 0.368928
0.061157 0.447412 0.368928
-0.333909 0.454851 0.368928
-0.260491 0.434498 0.385902
-0.089185 0.471877 0.368928
0.093991 0.507239 0.372223
0.003184 0.459507 0.405298
0.320631 0.44908 0.405298
-0.092666 0.477864 0.405298
0.271672 0.463329 0.405298
0.149561 0.445588 0.368928
0.369382 0.507239 0.395184
0.369845 0.434498 0.400251
-0.262878 0.507239 0.382947
-0.299694 0.507239 0.377749
0.008627 0.501369 0.368928
-0.168037 0.448852 0.405298
-0.192417 0.434498 0.39021
0.215774 0.819781 0.368928
0.100235 0.753933 0.368928
-0.120631 0.822452 0.369537
-0.213506 0.805613 0.368928
0.266852 0.749711 0.379696
0.054157 0.822452 0.381929
-0.148188 0.749711 0.368992
0.177206 0.749938 0.368928
0.126768 0.821746 0.368928
0.380799 0.816748 0.405298
-0.021009 0.781598 0.368928
-0.300904 0.822452 0.388899
-0.081044 0.749711 0.390437
0.329749 0.752209 0.405298
0.275899 0.822452 0.376374
0.381581 0.749711 0.374987
-0.067571 0.822452 0.395288
0.035336 0.770018 0.405298
-0.301938 0.762921 0.405298
-0.185014 0.822452 0.40352
0.333371 0.822452 0.402464
-0.167735 0.795852 0.368928
-0.001482 0.822452 0.376841
-0.174894 0.764368 0.405298
0.307108 0.759887 0.368928
-0.120857 0.749711 0.405078
0.175348 0.807056 0.368928
0.047708 0.752543 0.368928
-0.112494 0.781187 0.368928
-0.063816 0.79161 0.368928
0.233812 0.782066 0.368928
0.093989 0.797925 0.368928
-0.336048 0.822452 0.369248
-0.340501 0.78068 0.405298
-0.107768 0.816932 0.405298
0.021198 0.794135 0.368928
0.174274 0.769171 0.405298
0.116209 0.819337 0.405298
0.340718 0.749711 0.371591
0.310874 0.822452 0.373183
0.137928 0.749711 0.372228
-0.188411 0.749711 0.376971
-0.246971 0.799099 0.368928
-0.098344 0.774689 0.405298
-0.150133 0.822452 0.40077
0.053911 0.793052 0.368928
-0.270029 0.822452 0.38076
0.115708 0.760016 0.405298
-0.286407 0.749711 0.37296
-0.21141 0.774826 0.368928
-0.319119 0.803901 0.405298
0.20608 0.769578 0.368928
-0.044649 0.815175 0.368928
0.309677 0.788804 0.368928
-0.234261 0.749711 0.382367
0.199246 0.796097 0.405298
-0.100908 0.749711 0.370056
-0.237042 0.77351 0.405298
0.268808 0.822452 0.404287
0.083297 0.822452 0.375413
0.121313 0.794762 0.368928
-0.29748 0.804107 0.368928
0.368996 0.815814 0.368928
0.024628 0.822452 0.369183
0.207714 0.822452 0.39444
-0.23972 0.822452 0.383591
0.007349 0.77318 0.368928
0.258095 0.770229 0.368928
0.180464 0.822452 0.391909
-0.146083 0.784628 0.368928
0.245715 0.77511 0.405298
-0.194892 0.821127 0.368928
0.232026 0.822452 0.38629
-0.305606 0.773707 0.368928
0.345926 0.800738 0.368928
-0.072281 0.813373 0.368928
-0.104273 0.803017 0.368928
0.160312 0.765467 0.368928
0.256008 0.793012 0.368928
0.039166 0.822452 0.398983
0.289999 0.749711 0.379257
-0.009221 0.822452 0.404023
-0.107641 0.794914 0.405298
0.104256 0.82166 0.368928
-0.251589 0.749711 0.403006
0.151467 0.822452 0.392445
0.095979 0.802544 0.405298
0.028369 0.749711 0.402354
-0.035299 0.778818 0.405298
-0.016508 0.809138 0.368928
-0.401772 0.822452 0.222578
-0.401794 -0.183313 -0.201217
-0.401794 0.819193 -0.464687
-0.377546 0.298231 0.062556
-0.401794 -0.604678 -0.059036
-0.401794 0.467745 -0.28684
-0.401794 0.11794 -0.447783
-0.377546 -0.058783 0.12975
-0.401794 -0.370293 0.16636
-0.377546 0.101629 -0.163175
-0.401794 0.581955 0.043272
-0.401794 -0.556561 -0.302367
-0.377546 0.372047 0.281027
-0.401794 -0.376512 -0.07121
-0.401794 0.719805 -0.259864
-0.401794 -0.291139 -0.445441
-0.401794 0.140088 0.216622
-0.401794 0.322551 -0.140583
-0.401794 0.790672 -0.007861
-0.377546 0.60619 0.244799
-0.401794 0.612633 -0.436702
-0.377546 -0.393033 0.357098
-0.401794 0.107705 0.027173
-0.377546 -0.364993 -0.270677
-0.401794 -0.059336 0.320607
-0.377546 -0.200159 -0.01271
-0.377546 -0.024205 -0.324185
-0.377546 0.229883 -0.307384
-0.401794 0.572872 -0.144149
-0.401794 -0.213144 0.238618
-0.377546 -0.039699 -0.057539
-0.377546 0.450448 0.138634
-0.401794 -0.460898 -0.433038
-0.401794 -0.514781 0.251308
-0.377546 0.4405 -0.017415
-0.401794 0.439628 -0.456999
-0.401794 -0.13074 -0.461679
-0.401794 -0.472592 0.045261
-0.401794 0.703617 0.125747
-0.398441 0.822452 -0.155934
-0.401794 -0.506158 -0.165376
-0.377546 -0.188807 -0.338763
-0.401794 -0.037814 -0.189875
-0.377546 0.21347 -0.066448
-0.397771 0.249612 -0.467599
-0.377546 0.702054 -0.105808
-0.401794 0.27771 0.18996
-0.377546 -0.316823 0.051553
-0.401794 0.101914 -0.318134
-0.377546 0.446776 -0.156041
-0.377546 0.82008 -0.339591
-0.377546 0.245629 0.323919
-0.401794 0.34683 -0.360295
-0.379039 0.822452 0.349474
-0.377546 0.499056 0.325179
-0.401794 0.600419 -0.295998
-0.377546 -0.181202 0.116463
-0.377546 0.016834 0.226659
-0.401794 -0.002906 -0.443239
-0.389979 0.822452 0.105525
-0.401794 0.713431 0.280486
-0.377546 -0.280935 -0.144319
-0.400904 -0.632376 0.308076
-0.401794 0.189411 0.112727
-0.377546 -0.277412 0.329059
-0.401794 -0.621741 -0.175254
-0.401794 -0.544574 0.141931
-0.377546 0.212733 -0.196294
-0.377546 0.34889 -0.250871
-0.401794 0.726785 -0.39629
-0.401794 0.133207 0.327262
-0.401794 0.061023 0.128641
-0.377546 -0.14018 -0.100688
-0.377546 -0.479406 -0.060316
-0.401794 0.527051 -0.37453
-0.401794 -0.176336 0.343811
-0.401794 -0.584565 0.045144
-0.377546 -0.099517 0.228355
-0.401794 -0.264528 -0.272327
-0.377546 0.675368 0.007591
-0.377546 0.596723 0.142375
-0.377546 0.000223 0.04554
-0.401794 -0.39744 -0.17153
-0.377546 -0.45754 -0.334455
-0.377546 -0.104516 0.039196
-0.377546 0.341163 -0.02895
-0.377546 0.077181 -0.066435
-0.401794 -0.271739 0.154479
-0.401794 -0.583931 -0.425424
-0.401794 0.516502 0.206363
-0.377546 -0.382625 0.259613
-0.377546 -0.118842 -0.272475
-0.377546 0.526552 -0.063369
-0.401794 -0.328106 -0.356991
-0.401794 0.35971 0.141575
-0.401794 0.650791 -0.193498
-0.401794 -0.457474 -0.245987
-0.384513 0.822452 -0.246448
-0.377546 -0.458381 0.169479
-0.377546 0.535334 -0.230916
-0.377546 0.036886 0.315545
-0.401794 -0.289287 -0.045628
-0.401794 0.029731 -0.25042
-0.377546 0.170721 -0.375665
-0.377546 0.395023 0.060496
-0.401794 -0.107808 -0.368484
-0.377546 0.622375 -0.064987
-0.401794 0.484768 0.061178
-0.401794 0.227307 0.019506
-0.401794 -0.299023 0.236326
-0.377546 0.358351 -0.46337
-0.401794 -0.377587 -0.449578
-0.377546 0.673596 -0.33101
-0.377546 0.046229 -0.379488
-0.401794 0.399463 -0.085793
-0.401794 -0.394905 0.016074
-0.401794 0.266774 -0.382022
-0.377546 0.434564 0.226924
-0.382399 0.686478 -0.467599
-0.401794 0.138288 -0.232802
-0.377546 -0.407448 0.09743
-0.401794 0.520933 -0.465877
-0.377546 -0.621877 -0.258374
-0.377546 0.705598 0.203228
-0.377546 0.423257 -0.349013
-0.377546 -0.466376 0.322188
-0.401794 0.147904 -0.1044
-0.401794 -0.551044 0.332051
-0.401794 0.7464 -0.164549
-0.401794 -0.521236 -0.370098
-0.377546 -0.109322 -0.17903
-0.377546 -0.249669 -0.385813
-0.377546 0.01651 -0.142828
-0.401794 -0.210431 -0.113292
-0.401794 -0.130458 -0.027744
-0.377546 -0.61759 -0.338674
-0.401794 0.188783 0.278289
-0.401794 0.27172 -0.233747
-0.401794 0.428954 0.321555
-0.401794 0.644148 0.306056
-0.400255 0.822452 -0.074425
-0.380777 -0.527186 -0.467599
-0.377546 -0.556169 -0.117169
-0.377546 0.127126 0.147243
-0.401794 -0.314599 -0.219717
-0.401794 0.281304 -0.062782
-0.377546 0.766939 0.149661
-0.377546 0.30389 -0.30667
-0.377546 0.602577 -0.363362
-0.401794 -0.144962 0.277673
-0.401794 -0.256663 0.080553
-0.377546 0.577603 0.311615
-0.401794 -0.533768 -0.235208
-0.401794 -0.164033 0.187474
-0.401794 0.390368 -0.198808
-0.377546 0.346579 0.21496
-0.377546 0.141285 -0.030126
-0.377546 0.538428 0.100142
-0.401794 -0.539086 -0.031541
-0.377546 -0.065024 -0.466691
-0.377546 -0.04351 -0.256715
-0.377546 0.096938 0.272995
-0.401794 0.02474 -0.027706
-0.401794 -0.598576 0.240308
-0.377546 0.263852 0.256894
-0.401794 -0.188585 0.051869
-0.401794 0.260421 0.115217
-0.401794 -0.399782 -0.384208
-0.401794 0.749617 0.33875
-0.377546 0.245574 -0.136116
-0.401794 -0.211825 -0.453438
-0.377546 -0.063149 -0.128681
-0.377546 0.665251 0.076122
-0.377546 0.470485 -0.401414
-0.401794 -0.432393 -0.107967
-0.377546 0.166679 0.047185
-0.377546 0.752341 -0.33958
-0.401794 0.185693 -0.435931
-0.377546 0.745169 -0.049435
-0.377546 0.517655 0.009605
-0.377546 -0.45387 0.249666
-0.401794 0.639746 0.185471
-0.377546 0.460205 -0.089386
-0.401794 -0.039456 -0.389009
-0.401794 0.737246 0.052504
-0.377546 -0.003607 0.164209
-0.401794 0.513388 -0.169627
-0.401794 0.316196 0.302732
-0.377546 -0.342329 -0.124149
-0.377546 0.39476 -0.410337
-0.377546 0.064468 0.068013
-0.401794 0.289335 0.002984
-0.401794 -0.116548 0.116418
-0.377546 -0.525692 0.071452
-0.401794 0.401157 -0.294334
-0.377546 -0.205755 -0.268331
-0.401794 0.538144 0.268389
-0.377546 -0.257183 -0.20281
-0.377546 -0.046982 0.263223
-0.377546 -0.260606 0.004721
-0.401794 0.450443 -0.216432
-0.401794 0.033368 -0.320915
-0.401794 0.206235 0.172756
-0.377546 0.642311 -0.123798
-0.401794 0.178986 -0.281592
-0.377546 0.379021 0.351942
-0.401794 0.078388 0.213898
-0.377546 0.617635 -0.239367
-0.401794 -0.418364 -0.293406
-0.401794 0.568548 -0.016358
-0.401794 0.767301 -0.100942
-0.377546 -0.158502 -0.408381
-0.401794 0.820744 0.293262
-0.39904 0.822452 0.043607
-0.401794 0.10147 -0.381291
-0.401794 -0.330172 0.121497
-0.401794 -0.046811 0.073951
-0.401794 0.12536 0.092487
-0.401794 0.57627 0.193105
-0.401794 0.541483 -0.306282
-0.377546 -0.592387 0.172668
-0.377546 -0.209566 0.29305
-0.401794 0.7519 0.231893
-0.401794 -0.328857 0.287805
-0.377546 0.773678 -0.213234
-0.401794 0.06315 -0.200856
-0.377546 0.064408 -0.451328
-0.377546 -0.504944 -0.288763
-0.401794 0.352287 0.02296
-0.377546 -0.171677 -0.149753
-0.401794 -0.425873 -0.040956
-0.377546 0.379649 -0.134281
-0.401794 0.664595 -0.279573
-0.401794 -0.057378 0.197587
-0.401794 0.514499 0.149002
-0.377546 -0.475729 0.114994
-0.401794 0.153051 -0.168283
-0.377546 -0.281062 -0.335973
-0.401794 0.305321 -0.439076
-0.401794 0.472219 0.262
-0.377546 0.403492 0.17947
-0.401794 -0.071434 -0.304505
-0.377546 0.022118 -0.079527
-0.401794 0.581837 -0.202935
-0.401794 -0.319932 -0.29453
-0.377546 -0.351123 -0.027053
-0.401794 -0.232009 -0.052436
-0.377546 -0.40666 0.2018
-0.401794 0.66857 -0.044172
-0.401794 0.649274 -0.394277
-0.377546 0.621081 -0.009108
-0.401794 0.008536 0.109907
-0.377546 -0.630153 0.071479
-0.377546 0.477416 -0.335766
-0.401794 -0.508462 -0.103136
-0.401794 -0.214504 0.153127
-0.377546 -0.073849 -0.0066
-0.401794 -0.480609 -0.011004
-0.401794 0.282118 -0.177755
-0.401794 -0.143077 -0.320419
-0.377546 0.505165 -0.121309
-0.377546 -0.265299 -0.091965
-0.401794 0.224224 0.224254
-0.401794 0.764112 0.099938
-0.401794 -0.4061 -0.225347
-0.377546 0.150642 -0.321243
-0.377546 0.065711 -0.283014
-0.401794 0.575426 -0.077183
-0.377546 0.216841 0.072789
-0.401794 0.338642 -0.077276
-0.401794 0.317024 0.10833
-0.401794 0.704597 -0.199055
-0.377546 -0.34331 -0.178198
-0.377546 -0.594816 -0.012216
-0.401794 0.563403 -0.415837
-0.401794 0.041083 0.268077
-0.377546 0.596666 0.08901
-0.377546 0.33469 -0.186541
-0.401794 -0.312682 0.002308
-0.401794 0.394294 -0.027964
-0.387088 0.822452 0.171413
-0.401794 -0.349831 0.215483
-0.401794 -0.134077 -0.227671
-0.401794 -0.415929 0.315699
-0.377546 -0.146655 0.073506
-0.377546 -0.091917 -0.0789
-0.401794 -0.590421 0.101153
-0.377546 -0.095498 0.290579
-0.401794 -0.016908 -0.105638
-0.401794 0.642056 0.116892
-0.401794 -0.46814 -0.379955
-0.401794 -0.371806 -0.32778
-0.377546 0.320832 0.169235
-0.401794 0.20281 -0.117875
-0.377546 -0.627261 -0.40894
-0.401794 -0.264124 0.284698
-0.377546 0.23082 -0.423264
-0.377546 -0.450753 -0.150374
-0.377546 0.67674 0.252448
-0.382446 0.57549 -0.467599
-0.401794 0.06767 -0.111049
-0.401794 0.715292 -0.312536
-0.377546 0.428178 -0.257679
-0.377546 0.682272 -0.156356
-0.377546 0.40039 0.121435
-0.401794 -0.238029 -0.16173
-0.385689 -0.426442 -0.467599
-0.377546 -0.521308 0.206687
-0.377546 -0.606897 -0.103825
-0.377546 0.18889 -0.003468
-0.377546 -0.023516 0.000678
-0.377546 0.088853 0.330756
-0.377546 -0.494884 -0.214107
-0.401794 0.212023 -0.359941
-0.401794 -0.309455 -0.092549
-0.401794 0.466711 0.179613
-0.401794 0.691668 0.333169
-0.401794 0.60671 0.346539
-0.401794 0.767114 0.291831
-0.377546 0.36142 -0.319
-0.377546 0.328919 -0.400256
-0.377546 -0.19006 -0.064855
-0.377546 -0.257421 0.2233
-0.401794 -0.557044 0.277779
-0.377546 0.04911 0.008335
-0.377546 0.669052 -0.23639
-0.377546 0.124115 -0.273835
-0.377546 -0.54722 0.011019
-0.377546 0.324117 0.258984
-0.401794 0.002436 -0.363177
-0.401794 -0.595439 -0.377782
-0.377546 0.346583 0.070542
-0.401794 0.490697 -0.040407
-0.377546 -0.171224 0.23228
-0.401794 0.448113 0.024269
-0.377546 -0.233425 -0.319031
-0.401794 0.219696 -0.238024
-0.401794 0.01448 -0.203477
-0.401794 -0.556161 -0.175713
-0.377546 -0.360216 0.073654
-0.401794 0.635928 0.045766
-0.401794 -0.448967 -0.198096
-0.401794 -0.075055 -0.221155
-0.377546 -0.312703 0.195694
-0.401794 0.13932 0.279239
-0.401794 0.433632 0.096495
-0.401794 0.263059 -0.280786
-0.401794 -0.018374 0.296127
-0.377546 -0.331711 0.328735
-0.401794 0.498524 -0.250477
-0.377546 0.085611 -0.234808
-0.377546 0.558945 0.229737
-0.377546 0.488942 -0.204413
-0.377546 -0.419214 0.143396
-0.377546 0.777438 0.030189
-0.377546 -0.125491 0.341231
-0.401794 0.685437 -0.423868
-0.401794 -0.111796 0.162779
-0.377546 0.085355 0.167844
-0.377546 -0.339666 -0.461531
-0.401794 -0.583047 -0.249899
-0.401794 -0.474725 0.283291
-0.401794 0.537879 0.0576
-0.401794 -0.449108 0.207762
-0.401794 -0.560103 0.195106
-0.377546 0.169979 0.313913
-0.401794 -0.430966 0.064284
-0.401794 0.14719 -0.411256
-0.401794 -0.466458 -0.292603
-0.401794 0.813186 -0.37749
-0.377546 -0.16588 0.020773
-0.377546 0.306434 0.35141
-0.377546 0.176608 0.197024
-0.377546 -0.200708 -0.392748
-0.377546 0.801982 -0.12198
-0.401794 0.405586 0.264102
-0.377869 0.642099 -0.467599
-0.377546 0.243889 -0.033937
-0.377546 0.278201 0.152746
-0.401794 -0.187022 -0.300467
-0.377546 0.591728 -0.110539
-0.401794 -0.226919 -0.237877
-0.401794 0.614044 -0.168904
-0.377546 0.719568 0.00716
-0.401794 0.288543 -0.112381
-0.377546 0.083674 -0.019164
-0.401794 -0.120047 -0.418852
-0.377546 0.388793 0.227612
-0.377546 0.549364 0.16074
-0.401794 -0.622823 -0.446112
-0.401794 0.681935 0.172977
-0.401794 0.753772 -0.287613
-0.401794 -0.504768 -0.423666
-0.377546 -0.567841 -0.337073
-0.377546 0.792647 0.075976
-0.394648 0.822452 -0.199535
-0.377546 0.30639 -0.222707
-0.401794 0.783102 -0.0555
-0.401794 -0.236548 0.193583
-0.401794 0.334975 -0.284415
-0.377546 0.225071 0.279425
-0.377546 -0.221345 0.088873
-0.401794 -0.421339 -0.346348
-0.401794 -0.612626 -0.30288
-0.401794 -0.50447 0.158774
-0.401794 0.436139 -0.121543
-0.377546 -0.517941 0.317664
-0.377546 0.407368 0.010733
-0.377546 0.093784 0.109834
-0.401794 -0.589242 -0.135175
-0.401794 0.163021 0.149099
-0.401794 -0.375183 0.113126
-0.377546 -0.292855 -0.3847
-0.401794 -0.014846 0.247616
-0.377546 -0.247147 0.128666
-0.401794 0.240005 -0.096115
-0.401794 -0.512896 0.020511
-0.377546 0.732801 -0.431589
-0.401794 0.502915 0.10244
-0.401794 0.019507 0.191236
-0.401794 0.725034 -0.078532
-0.401794 0.608886 0.28172
-0.377546 0.245949 -0.350125
-0.377546 0.435023 -0.30433
-0.401794 0.107266 -0.198006
-0.377546 0.004018 -0.274455
-0.401794 0.709009 -0.030559
-0.401794 0.028068 -0.409513
-0.377546 0.0389 0.160883
-0.377546 -0.626704 0.219397
-0.401794 -0.158862 -0.359932
-0.377546 0.242794 0.191377
-0.377546 0.265129 0.028185
-0.387044 -0.174535 -0.467599
-0.377546 0.724793 0.098034
-0.377546 -0.40386 -0.127998
-0.377546 0.474249 -0.460554
-0.401794 -0.364017 -0.230291
-0.401794 0.639479 -0.324727
-0.401794 0.569556 -0.373881
-0.39865 -0.485042 -0.467599
-0.400355 0.822452 -0.304137
-0.377546 0.064517 -0.33587
-0.377546 -0.08265 0.075272
-0.377546 0.187413 -0.162608
-0.401794 0.264564 0.069929
-0.377546 0.641477 0.219872
-0.401794 -0.314118 -0.160028
-0.401794 -0.073021 -0.049361
-0.401794 -0.097042 -0.133801
-0.401794 0.388364 -0.366393
-0.377546 0.213354 0.137184
-0.401794 -0.223805 0.340476
-0.401794 0.436395 -0.403736
-0.401794 0.109322 -0.088133
-0.401794 -0.573898 0.36713
-0.377546 -0.018228 0.33302
-0.377546 -0.609823 -0.207087
-0.401794 -0.572398 -0.465542
-0.401794 -0.030784 -0.144975
-0.401794 -0.254396 -0.465134
-0.401794 0.202284 0.324177
-0.401794 -0.049895 -0.348665
-0.377546 -0.130917 0.194644
-0.377546 0.16342 -0.074329
-0.377546 -0.584725 0.329165
-0.401794 -0.519744 0.10858
-0.377546 -0.090718 -0.339463
-0.377546 0.657573 0.340974
-0.401794 -0.284831 0.041323
-0.401794 -0.054649 -0.429447
-0.401794 0.39189 -0.464671
-0.401794 -0.62743 0.160064
-0.401794 0.388053 0.315692
-0.401794 0.710373 -0.138322
-0.401794 0.174889 -0.213757
-0.401794 0.357414 0.246499
-0.377546 0.555864 -0.336334
-0.401794 0.030621 0.059088
-0.377546 -0.22081 0.044213
-0.401794 -0.630807 -0.135224
-0.377546 0.503792 0.271983
-0.401794 0.351901 -0.424074
-0.401794 0.796025 -0.430842
-0.377546 0.295505 -0.36568
-0.377546 -0.288835 -0.240412
-0.401794 0.667918 -0.102931
-0.401794 -0.428894 0.27683
-0.401794 0.381902 -0.25121
-0.377546 -0.319265 -0.059452
-0.377546 -0.08085 0.345582
-0.401794 0.528546 -0.024938
-0.377546 -0.100702 -0.446822
-0.377546 0.129731 0.247831
-0.377546 -0.549859 -0.263777
-0.401794 0.182299 0.238182
-0.401794 -0.381735 0.293775
-0.401794 0.113936 0.185582
-0.377546 0.728093 -0.221455
-0.401794 0.245172 -0.196367
-0.401794 0.372411 0.103139
-0.401794 0.185602 -0.035666
-0.401794 -0.276287 -0.176756
-0.397429 0.161041 -0.467599
-0.377546 -0.312507 0.091661
-0.377546 -0.609318 0.131351
-0.401794 0.589242 -0.254546
-0.401794 -0.469214 -0.091579
-0.377546 0.555733 -0.171313
-0.401794 0.338554 -0.220527
-0.401794 0.752935 0.005977
-0.401794 -0.62967 0.268021
-0.401794 0.183798 -0.331486
-0.377546 0.549003 -0.268534
-0.401794 -0.57817 -0.09019
-0.377546 0.820764 0.261579
-0.401794 0.317079 0.200595
-0.401794 -0.166498 0.144335
-0.377546 -0.167841 0.29933
-0.377546 -0.456414 0.018266
-0.377546 0.820895 0.000822
-0.389267 0.206098 -0.467599
-0.377546 -0.480085 0.213032
-0.377546 0.105742 0.058482
-0.401794 -0.35576 0.022274
-0.377546 -0.152293 -0.052842
-0.401794 0.141838 -0.351302
-0.377546 0.285747 0.309748
-0.401794 0.288538 -0.333721
-0.377546 -0.290728 0.268637
-0.401794 0.505469 -0.322446
-0.401794 -0.555853 0.07873
-0.377546 0.729346 0.171856
-0.377546 -0.625746 0.338959
-0.377546 0.289993 -0.147938
-0.377546 -0.013983 0.088886
-0.401794 0.008884 0.00813
-0.377546 0.553749 -0.120079
-0.401794 0.52926 0.319488
-0.377546 -0.310739 0.145279
-0.401794 0.505244 -0.430031
-0.377546 -0.454465 -0.027112
-0.401794 0.159444 0.017412
-0.401794 0.70708 0.233831
-0.377546 0.334448 -0.107575
-0.401794 -0.184424 -0.424536
-0.377546 -0.377038 -0.20269
-0.401794 -0.351759 0.256343
-0.377546 0.45454 0.0647
-0.377546 -0.443294 -0.0746
-0.401794 -0.112952 0.076645
-0.401794 -0.07482 0.251217
-0.377546 -0.273983 0.18469
-0.377546 -0.512806 0.356941
-0.377546 -0.535014 -0.071707
-0.401794 0.564825 0.114869
-0.401794 0.429846 -0.061801
-0.377546 -0.371919 -0.149801
-0.401794 0.538505 -0.090815
-0.377546 -0.386814 -0.35726
-0.377546 -0.494355 -0.357037
-0.401794 0.115069 -0.044473
-0.401794 0.799361 -0.273433
-0.401794 0.480642 -0.373367
-0.401794 0.759604 0.194236
-0.377546 0.125902 -0.124505
-0.377546 -0.180211 -0.23964
-0.401794 0.772768 -0.379767
-0.377546 -0.507568 -0.023472
-0.401794 -0.433267 0.117263
-0.401794 0.764367 -0.466
-0.377546 0.369911 -0.086455
-0.401794 -0.233105 -0.014227
-0.377546 0.298815 -0.038985
-0.401794 0.786863 0.247317
-0.377546 -0.086115 0.190961
-0.377546 0.026446 -0.440383
-0.377546 0.640749 -0.363841
-0.377546 -0.236316 -0.127364
-0.377546 -0.349563 0.145519
-0.401794 -0.168548 -0.027359
-0.377546 0.72889 0.255506
-0.401794 -0.248254 -0.418619
-0.377546 0.484701 -0.163352
-0.377546 0.28501 -0.26129
-0.401794 0.066021 0.038696
-0.377546 0.065915 0.250927
-0.377546 -0.080823 -0.264274
-0.401794 -0.550874 0.232034
-0.377546 0.419752 0.293707
-0.377546 -0.137187 0.14444
-0.377546 0.481514 0.204828
-0.401794 0.215655 -0.398273
-0.377546 0.726762 0.30648
-0.377546 -0.417548 0.238644
-0.401794 -0.138341 -0.129751
-0.377546 0.713987 -0.370281
-0.401794 -0.504162 -0.258641
-0.401794 -0.388946 -0.021196
-0.377546 0.316354 0.01323
-0.377546 0.015847 0.282107
-0.377546 -0.451808 0.084258
-0.401794 0.048657 -0.062195
-0.377546 -0.529596 -0.186725
-0.401794 0.222647 -0.166334
-0.401794 0.0969 0.14162
-0.401794 0.68917 0.060398
-0.377546 -0.427245 -0.376218
-0.382173 0.319723 -0.467599
-0.401794 -0.246477 0.029551
-0.401794 0.408306 0.148843
-0.377546 0.621011 -0.196506
-0.401794 -0.325586 0.169565
-0.377546 -0.53152 0.167533
-0.377546 0.394169 -0.170655
-0.377546 -0.216392 -0.180091
-0.401794 0.087444 -0.415829
-0.377546 0.344913 0.113119
-0.401794 -0.030675 0.13283
-0.377546 -0.056016 0.169029
-0.401794 -0.495181 0.334374
-0.401794 -0.018739 0.18801
-0.401794 -0.126622 0.009238
-0.377546 0.271774 -0.089288
-0.401794 -0.019823 -0.296393
-0.401794 -0.468622 0.143292
-0.401794 0.237496 0.152845
-0.377546 -0.068943 -0.193799
-0.401794 -0.359381 0.333034
-0.377546 -0.395983 0.062223
-0.389079 0.729629 -0.467599
-0.401794 -0.601722 0.203451
-0.377546 0.461851 0.103561
-0.401794 -0.478912 -0.140532
-0.377546 0.509013 0.0454
-0.401794 -0.136908 -0.176837
-0.377546 0.033791 0.123844
-0.377546 -0.220554 -0.423589
-0.401794 0.459624 0.301456
-0.377546 0.574735 0.010428
-0.401794 0.544685 0.014305
-0.377546 0.821498 -0.420723
-0.378712 -0.017496 -0.467599
-0.401794 0.069029 0.311905
-0.401794 0.631085 -0.263118
-0.377546 0.054004 0.201654
-0.377546 -0.594436 -0.282606
-0.377546 0.740359 -0.104899
-0.401794 0.223847 0.100762
-0.377546 0.005195 -0.23807
-0.401794 0.653685 0.270939
-0.377546 -0.556088 0.105834
-0.401794 -0.398011 -0.260771
-0.401794 0.043462 -0.140403
-0.401794 0.418254 0.205483
-0.401794 -0.483953 0.089382
-0.401794 0.747621 -0.200733
-0.401794 -0.228177 -0.283081
-0.377546 0.692151 -0.056931
-0.377546 0.103515 -0.344886
-0.401794 0.631325 -0.039727
-0.401794 0.542686 -0.20515
-0.401794 -0.528569 -0.325091
-0.401794 -0.303398 0.313315
-0.401794 0.509611 -0.284769
-0.401794 0.190419 0.069252
-0.401794 0.004113 -0.1664
-0.401794 0.494232 0.023306
-0.377546 -0.353791 0.187159
-0.401794 -0.219007 -0.341309
-0.377546 -0.576872 0.21691
-0.377546 0.042994 -0.167052
-0.377546 -0.31041 0.365769
-0.401794 -0.423569 -0.410991
-0.401794 -0.17479 -0.109766
-0.377546 0.242043 -0.224144
-0.401794 -0.108316 -0.058389
-0.377546 0.051765 -0.035263
-0.377546 -0.423739 -0.205956
-0.401794 0.422891 0.062453
-0.401794 0.61544 0.217504
-0.401794 0.07941 -0.1447
-0.377546 -0.51953 -0.142962
-0.377546 -0.475583 -0.407259
-0.377546 0.000636 -0.051135
-0.401794 0.455584 -0.321577
-0.377546 0.53216 -0.399982
-0.377546 0.021459 0.086641
-0.377546 0.231407 -0.271906
-0.377546 -0.424338 -0.320595
-0.401794 0.601009 0.013363
-0.401794 -0.13182 0.044313
-0.377546 -0.621214 0.037184
-0.377546 0.435431 -0.429538
-0.401794 0.223234 -0.018561
-0.377546 -0.352461 -0.365664
-0.377546 0.163741 0.114216
-0.401794 0.500319 -0.096064
-0.377546 0.666154 0.194589
-0.377546 0.28252 -0.413129
-0.377546 0.294059 0.21198
-0.401794 -0.349401 -0.099472
-0.401794 0.355209 0.300387
-0.377546 -0.294432 -0.291744
-0.377546 -0.421788 0.025063
-0.377546 0.132087 -0.204324
-0.401794 0.027435 -0.465969
-0.377546 -0.186109 0.174551
-0.401794 -0.294385 0.109699
-0.401794 -0.104392 0.326798
-0.401794 -0.342647 -0.435897
-0.377546 0.645499 0.16066
-0.401794 -0.560284 -0.37753
-0.401794 0.458721 0.218991
-0.377546 -0.477216 -0.183739
-0.377546 0.493278 0.367115
-0.401794 0.359198 -0.113275
-0.377546 0.114814 0.214199
-0.401794 0.07103 -0.360409
-0.377546 -0.47139 -0.267219
-0.401794 -0.589204 0.291848
-0.377546 0.540484 0.198079
-0.401794 -0.305608 -0.413488
-0.377546 0.490233 -0.301055
-0.377546 -0.19779 0.258687
-0.377546 0.761309 -0.144161
-0.377546 0.582131 -0.432741
-0.377546 -0.243198 0.168087
-0.401794 -0.022699 0.035079
-0.377546 -0.35745 0.300463
-0.377546 0.530478 -0.442576
-0.377546 -0.116287 -0.394004
-0.377546 0.480862 0.158854
-0.377546 0.723491 -0.174824
-0.401794 -0.142967 -0.265722
-0.377546 0.697461 -0.271145
-0.401794 -0.57362 -0.043287
-0.377546 0.787492 -0.245193
-0.401794 -0.26813 -0.306939
-0.401794 0.779018 -0.311548
-0.401794 0.13814 0.044897
-0.377546 -0.048922 -0.222124
-0.377546 -0.2432 0.323413
-0.377546 0.713813 0.060403
-0.377546 -0.33022 -0.238774
-0.377546 0.082665 0.020625
-0.401794 0.021428 -0.104083
-0.377546 0.142127 -0.443662
-0.401794 -0.606857 0.009113
-0.377546 0.443323 0.186827
-0.401794 -0.19603 0.313425
-0.401794 -0.480786 0.245877
-0.401794 -0.386168 -0.416241
-0.401794 0.187487 -0.087078
-0.401794 -0.434813 0.163302
-0.377546 -0.629554 -0.008451
-0.377546 0.186021 0.15926
-0.401794 0.360332 0.175871
-0.401794 0.136593 -0.301481
-0.401794 -0.144807 0.326675
-0.401794 -0.357777 -0.293743
-0.401794 -0.087283 -0.169155
-0.401794 0.723833 -0.348233
-0.377546 -0.308568 -0.116631
-0.401794 0.361954 -0.390935
-0.401794 -0.06693 -0.082966
-0.377546 0.130273 0.303439
-0.377546 -0.19482 0.207639
-0.401794 -0.3375 -0.393032
-0.401794 -0.477796 0.18925
-0.377546 -0.041058 -0.10279
-0.401794 0.101369 -0.266596
-0.401794 0.500533 0.301298
-0.377546 0.40697 0.33061
-0.401794 0.475927 0.122992
-0.401794 -0.18405 0.092918
-0.377546 0.812438 -0.04396
-0.401794 0.313205 0.238014
-0.401794 -0.081194 0.042977
-0.401794 -0.575281 0.156188
-0.377546 -0.613573 0.292393
-0.377546 -0.14652 -0.291855
-0.377546 0.37587 -0.273931
-0.401794 0.363673 -0.054626
-0.377546 -0.322456 0.234776
-0.377546 0.012362 -0.384386
-0.401794 -0.112897 -0.091715
-0.401794 0.668011 0.029646
-0.377546 0.602441 -0.329773
-0.401794 0.731841 0.148801
-0.401794 -0.008718 -0.025564
-0.377546 -0.375446 0.034455
-0.377546 0.351704 0.332545
-0.401794 -0.143017 0.244227
-0.377546 -0.138418 -0.153381
-0.377546 0.183471 0.344522
-0.401794 -0.590867 -0.337745
-0.401794 0.299525 -0.279172
-0.401794 -0.191433 0.0086
-0.401794 0.252026 -0.313673
-0.377546 0.51127 0.07873
-0.377546 0.741772 -0.307902
-0.377546 -0.113459 -0.009567
-0.377546 -0.137127 -0.35265
-0.401794 -0.238535 -0.095345
-0.401794 -0.097981 -0.284388
-0.377546 0.747365 -0.386558
-0.377546 0.156451 -0.284522
-0.377546 -0.415425 -0.246062
-0.377546 0.596391 0.182613
-0.377546 -0.051571 -0.293619
-0.401794 0.804006 0.130443
-0.401794 0.635154 -0.225031
-0.401794 -0.15424 -0.082981
-0.377546 -0.486366 -0.31622
-0.377546 -0.279365 0.09225
-0.377546 -0.361738 0.367986
-0.377546 0.548499 0.037672
-0.401794 -0.52494 0.2963
-0.377546 0.301782 0.129571
-0.401794 0.143833 -0.063366
-0.401794 0.193398 -0.184925
-0.377546 0.246334 0.227669
-0.401794 -0.307363 -0.264061
-0.401794 -0.232583 0.294223
-0.385282 0.608306 -0.467599
-0.377546 -0.095194 -0.230379
-0.401794 -0.27681 -0.221819
-0.377546 0.798934 -0.077506
-0.401794 -0.231933 0.112589
-0.377546 -0.46145 -0.458908
-0.377546 -0.374396 -0.003923
-0.401794 0.292513 0.33424
-0.377546 0.181085 -0.113836
-0.377546 -0.207216 -0.211567
-0.401794 0.085354 0.075075
-0.401794 0.551955 -0.447245
-0.401794 0.61425 0.155602
-0.401794 0.400255 -0.141825
-0.401794 0.681443 0.288196
-0.401794 -0.331967 -0.037695
-0.377546 -0.013837 0.209354
-0.377546 -0.245736 -0.248995
-0.377546 0.629218 0.27372
-0.377546 0.342306 -0.14988
-0.401794 -0.421306 -0.14112
-0.401794 0.470024 -0.190359
-0.401794 0.63486 0.007775
-0.401794 -0.078012 0.09656
-0.377546 0.079708 -0.382287
-0.377546 -0.225901 -0.363564
-0.377546 0.74611 -0.248569
-0.377546 0.774282 -0.022077
-0.401794 0.55982 0.330626
-0.401794 -0.053654 -0.014451
-0.377546 0.06178 0.10038
-0.377546 0.583145 0.267683
-0.377546 0.609224 0.304218
-0.401794 0.687122 -0.248184
-0.401794 0.353214 -0.175478
-0.401794 0.573707 0.245432
-0.377546 0.787476 -0.364037
-0.377546 0.127019 -0.367202
-0.377546 0.681287 0.314355
-0.377546 -0.626601 0.181512
-0.377546 -0.581167 0.255628
-0.377546 0.273063 -0.010971
-0.401794 -0.458213 -0.057118
-0.377546 0.150711 0.169403
-0.377546 0.419864 -0.389916
-0.377546 -0.050828 0.094979
-0.401794 0.181468 -0.245422
-0.401794 0.074207 0.270642
-0.377546 0.029638 -0.294176
-0.377546 0.655591 -0.027217
-0.377546 0.098335 -0.43933
-0.401794 0.63967 -0.087256
-0.377546 0.670286 -0.397971
-0.401794 0.017796 0.306037
-0.377546 -0.478263 0.065786
-0.377546 0.00609 -0.33528
-0.401794 -0.093779 -0.39746
-0.401794 -0.091759 -0.017882
-0.401794 0.07269 -0.038406
-0.377546 0.783474 -0.17902
-0.401794 -0.367466 -0.183195
-0.401794 0.744092 -0.125691
-0.377546 -0.400183 -0.282704
-0.401794 -0.294285 0.179043
-0.401794 0.801678 0.340453
-0.377546 0.815516 0.31676
-0.377546 0.411353 -0.197944
-0.377546 -0.578471 -0.213856
-0.377546 -0.288734 -0.193638
-0.401794 0.461862 -0.06314
-0.401794 0.530826 0.176564
-0.377546 0.157456 0.228277
-0.377546 -0.619317 -0.152683
-0.377546 -0.577752 0.025428
-0.401794 -0.176935 -0.386316
-0.377546 0.043987 -0.119577
-0.401794 0.819151 -0.110223
-0.377546 -0.498325 -0.443441
-0.377546 -0.16698 -0.188348
-0.401794 0.495482 -0.139705
-0.401794 -0.54723 -0.445885
-0.377546 0.676547 0.105982
-0.377546 -0.203234 0.3378
-0.377546 0.55154 -0.043539
-0.401794 -0.17681 0.279249
-0.401794 0.317317 0.070446
-0.401794 0.157083 0.089844
-0.401794 0.520334 0.237954
-0.401794 0.622083 -0.127691
-0.377546 0.405149 -0.440404
-0.377546 0.710502 0.145091
-0.377546 0.428446 -0.082266
-0.377546 0.167484 -0.413978
-0.401794 0.38572 0.042296
-0.401794 0.796678 -0.337885
-0.401794 0.057589 -0.397976
-0.377546 0.50101 -0.372147
-0.377546 0.478421 0.293541
-0.401794 0.621118 -0.350548
-0.377546 0.253913 0.292504
-0.377546 0.052807 0.342919
-0.377546 0.552802 0.282527
-0.401794 0.061369 -0.251591
-0.401794 -0.348915 -0.258202
-0.401794 0.716967 0.027316
-0.401794 0.308827 -0.08781
-0.377546 0.748107 0.211967
-0.377546 -0.016338 -0.083092
-0.401794 -0.490772 -0.043548
-0.401794 0.020591 0.152217
-0.377546 -0.546881 -0.213419
-0.401794 -0.343401 -0.20636
-0.377546 -0.359971 0.237622
-0.401794 -0.006914 -0.39898
-0.377546 -0.537004 0.246709
-0.377546 0.159104 0.282869
-0.401794 0.134634 0.128689
-0.377546 0.63821 -0.154962
-0.377546 -0.159035 -0.439793
-0.401794 -0.529588 0.187634
-0.401794 -0.36059 -0.13223
-0.401794 0.675735 0.231814
-0.401794 0.773918 0.069118
-0.377546 -0.412408 -0.097789
-0.401794 0.353808 -0.013564
-0.377546 -0.47122 -0.122214
-0.377546 0.120591 -0.467445
-0.377546 0.121483 0.350791
-0.401794 -0.273545 -0.380345
-0.377546 0.410976 -0.038588
-0.377546 -0.308382 -0.461246
-0.401794 -0.012474 0.064634
-0.401794 0.435084 0.27449
-0.401794 -0.540042 0.035944
-0.401794 -0.055239 0.281061
-0.377546 0.582532 -0.287892
-0.401794 0.31888 0.139464
-0.401794 0.054488 -0.434448
-0.377546 -0.329385 0.01248
-0.401794 -0.396667 0.21859
-0.377546 -0.251536 -0.052024
-0.377546 -0.290234 -0.073338
-0.377546 0.03336 -0.208148
-0.377546 0.187331 -0.263954
-0.377546 0.374165 0.154569
-0.377546 0.461107 -0.128471
-0.377546 0.323222 -0.330989
-0.401794 -0.020628 -0.265349
-0.401794 0.377342 -0.329982
-0.377546 -0.050329 0.3035
-0.377546 -0.335703 -0.280816
-0.377546 0.619444 -0.293114
-0.377546 -0.22334 0.222309
-0.401794 -0.36949 0.052736
-0.401794 -0.133816 -0.386161
-0.401794 -0.187824 -0.261505
-0.401794 -0.420187 -0.441966
-0.377546 -0.546259 -0.364503
-0.377546 -0.050447 -0.156826
-0.401794 -0.509802 0.051228
-0.377546 0.209468 -0.330515
-0.377546 0.590896 -0.150309
-0.377546 -0.161682 0.267701
-0.401794 0.727494 0.210741
-0.401794 0.429894 0.173415
-0.377546 -0.444023 -0.424387
-0.377546 0.241311 -0.169469
-0.377546 0.47613 -0.232361
-0.377546 -0.40539 0.280275
-0.377546 0.128998 0.028358
-0.401794 0.441015 -0.271711
-0.377546 -0.430635 -0.278711
-0.401794 0.215651 0.296526
-0.377546 0.495922 -0.061147
-0.377546 -0.3671 -0.106004
-0.377546 0.405548 -0.117801
-0.377546 -0.387027 -0.234418
-0.377546 0.490267 -0.004244
-0.377546 -0.256685 -0.164147
-0.401794 0.053842 0.172309
-0.377546 -0.173859 -0.090983
-0.377546 0.586872 0.21704
-0.377546 -0.124504 -0.317773
-0.377546 0.821553 0.065762
-0.401794 0.061613 -0.005648
-0.401794 0.777933 0.321064
-0.401794 0.598088 0.069326
-0.377546 0.641089 0.098206
-0.401794 -0.053831 0.228929
-0.401794 -0.607514 0.334848
-0.401794 0.500356 0.179522
-0.401794 -0.451169 -0.002618
-0.401794 -0.271649 -0.128116
-0.377546 0.82174 -0.276238
-0.377546 -0.091416 -0.301845
-0.377546 -0.496962 0.010845
-0.401794 0.045889 -0.285142
-0.401794 -0.266962 -0.348052
-0.401794 0.66288 -0.34612
-0.377546 0.759668 -0.416456
-0.401794 -0.02765 -0.218583
-0.401794 -0.297628 -0.361718
-0.377546 0.283105 -0.196112
-0.377546 -0.136734 0.310164
-0.401794 0.283335 0.243802
-0.377546 -0.448638 0.135694
-0.377546 -0.020879 -0.129523
-0.401794 -0.555766 -0.407591
-0.401794 -0.618551 0.08964
-0.377546 0.328747 -0.363272
-0.401794 0.01818 0.248103
-0.377546 0.255053 0.133073
-0.377546 -0.509897 -0.384449
-0.401794 -0.130088 0.21679
-0.377546 -0.380488 -0.390942
-0.377546 0.467829 0.321951
-0.377546 0.647276 -0.274026
-0.377546 -0.022258 -0.180488
-0.377546 0.031867 -0.351177
-0.401794 0.717132 0.081622
-0.377546 -0.112365 0.098806
-0.401794 -0.536047 -0.115566
-0.377546 0.598857 0.049467
-0.377546 -0.376398 0.327436
-0.401794 -0.570409 0.123666
-0.377546 0.243199 -0.070992
-0.401794 -0.268814 0.209641
-0.377546 0.692213 -0.186318
-0.401794 0.64555 0.242005
-0.377546 -0.285442 -0.028343
-0.377546 -0.080129 0.150855
-0.377546 0.448565 -0.38092
-0.377546 0.704476 0.347681
-0.377546 -0.359472 0.10528
-0.401794 0.09517 -0.005959
-0.401794 -0.516972 -0.198833
-0.377546 -0.554367 -0.023051
-0.401794 0.59475 0.106382
-0.401794 0.758106 0.134549
-0.401794 0.696613 -0.288579
-0.377546 0.056404 -0.228516
-0.377546 0.377721 0.00706
-0.377546 -0.406222 -0.023629
-0.401794 0.31044 -0.02598
-0.401794 -0.388986 -0.098333
-0.377546 0.426466 0.080708
-0.401794 -0.086354 0.217128
-0.377546 -0.121127 -0.128068
-0.377546 0.332198 -0.061225
-0.401794 -0.114905 -0.20488
-0.377546 0.210986 -0.381632
-0.401794 0.362064 0.062862
-0.401794 0.499609 0.351064
-0.377546 -0.223046 -0.037723
-0.401794 0.257499 0.336392
-0.401794 -0.432824 0.246576
-0.401794 0.396457 0.077631
-0.377546 0.556802 0.347554
-0.377546 0.525388 -0.157325
-0.401794 -0.029472 -0.071333
-0.377546 -0.539485 -0.304015
-0.401794 0.570815 -0.30163
-0.401794 0.035746 0.341307
-0.377546 -0.128297 0.281459
-0.377546 0.588209 -0.187101
-0.377546 0.247981 0.065962
-0.377546 -0.253979 0.063721
-0.377546 0.432804 0.031749
-0.377546 0.795615 0.157044
-0.401794 -0.086715 -0.105542
-0.377546 0.178406 0.081249
-0.377546 0.202482 0.101935
-0.377546 -0.598456 -0.075066
-0.377546 -0.007382 0.134881
-0.377546 0.610385 -0.391878
-0.401794 -0.60863 -0.273405
-0.377546 0.246126 0.00554
-0.401794 0.188963 0.018443
-0.401794 0.674124 0.122661
-0.401794 0.133515 -0.139525
-0.401794 -0.399764 0.164714
-0.401794 0.810178 0.193864
-0.401794 -0.055448 -0.243207
-0.377546 -0.160441 -0.330774
-0.377546 0.583182 -0.219615
-0.401794 0.181828 -0.138557
-0.377546 0.21248 0.043669
-0.401794 -0.115462 -0.331794
-0.377546 -0.044315 0.207909
-0.401794 0.65777 -0.250036
-0.377546 -0.015728 -0.375721
-0.401794 0.455067 0.335012
-0.377546 0.377141 -0.354201
-0.401794 -0.624502 -0.381964
-0.401794 -0.434573 0.338378
-0.401794 0.580028 -0.172586
-0.377546 0.355735 0.042716
-0.377546 -0.515722 0.142879
-0.377546 0.017619 0.340666
-0.401794 -0.233871 -0.390146
-0.377546 0.124004 -0.240822
-0.401794 0.035222 0.020872
-0.401794 0.542477 -0.161712
-0.377546 -0.003135 0.258987
-0.401794 -0.520463 -0.293777
-0.377546 0.519291 -0.297883
-0.401794 -0.561298 -0.205897
-0.377546 0.806686 -0.446279
-0.401794 0.11394 0.244114
-0.401794 -0.374768 0.081376
-0.401794 -0.047019 -0.45755
-0.401794 0.237425 0.269072
-0.401794 0.092254 0.293482
-0.401794 0.119893 -0.171779
-0.377546 -0.234622 0.017837
-0.377546 0.141563 0.094119
-0.377546 -0.202695 -0.304068
-0.401794 0.573261 0.164168
-0.401794 0.64241 -0.422545
-0.401794 -0.298187 -0.332638
-0.377546 0.664498 -0.297458
-0.401794 -0.210183 0.071315
-0.401794 0.553712 0.088018
-0.377546 0.067708 0.143176
-0.401794 -0.193216 0.132932
-0.401794 0.544655 0.145566
-0.377546 0.605501 -0.265695
-0.401794 0.513783 -0.202977
-0.401794 0.419417 -0.211586
-0.377546 0.574751 -0.061485
-0.377546 0.470113 0.246444
-0.377546 -0.128599 0.238045
-0.401794 -0.168754 -0.228929
-0.377546 -0.344728 0.044181
-0.401794 0.771316 -0.228679
-0.401794 0.259122 -0.341725
-0.401794 0.547805 -0.252961
-0.377546 -0.156668 -0.017228
-0.377546 0.554431 -0.370111
-0.401794 -0.621203 0.058746
-0.377546 0.762246 0.349514
-0.401794 -0.00458 -0.133137
-0.377546 0.547819 -0.000816
-0.377546 -0.042273 -0.438652
-0.401794 -0.397732 -0.048541
-0.401794 0.214493 -0.307454
-0.377546 0.679604 0.039743
-0.401794 -0.445403 -0.362004
-0.401794 0.430318 0.124996
-0.377546 -0.559958 0.155768
-0.377546 0.078656 -0.100364
-0.377546 -0.390806 0.147284
-0.377546 0.45093 -0.201136
-0.377546 -0.143376 -0.21552
-0.401794 -0.323189 0.258494
-0.401794 -0.553499 -0.002884
-0.401794 0.228936 -0.046633
-0.377546 0.134075 0.193049
-0.401794 -0.266491 0.318559
-0.401794 -0.317371 -0.191269
-0.377546 -0.441159 0.194898
-0.400244 -0.604064 -0.467599
-0.377546 -0.492172 0.184723
-0.401794 -0.600685 -0.030783
-0.401794 0.719258 -0.438082
-0.401794 0.444288 0.243591
-0.401794 0.601002 -0.098754
-0.377546 0.659754 -0.181479
-0.377546 -0.506991 -0.243926
-0.377546 0.294567 -0.069753
-0.401794 -0.511234 -0.456819
-0.377546 0.217355 -0.004799
-0.401794 -0.002382 -0.322962
-0.401794 -0.086055 -0.449803
-0.401794 0.676353 -0.016775
-0.377546 0.115505 -0.393235
-0.377546 0.071372 -0.164835
-0.377546 -0.092261 -0.119691
-0.401794 0.808121 0.072106
-0.377546 -0.513688 0.266073
-0.377546 -0.322838 -0.015156
-0.401794 0.545106 0.224081
-0.377546 -0.581067 0.13387
-0.401794 0.403195 0.230591
-0.401794 -0.313219 0.348932
-0.377546 -0.001511 -0.199775
-0.377546 -0.48478 0.272674
-0.377546 0.440605 0.341584
-0.401794 -0.005602 0.340395
-0.377546 -0.285336 0.218735
-0.377546 0.69474 -0.027681
-0.377546 -0.08415 -0.386565
-0.401794 -0.024813 0.098573
-0.401794 -0.471993 -0.351951
-0.401794 0.746205 0.259575
-0.401794 -0.317115 0.077909
-0.401794 -0.195286 -0.036477
-0.401794 0.260954 -0.409647
-0.401794 -0.472217 0.357326
-0.401794 0.320337 0.344556
-0.377546 0.612384 -0.035952
-0.401794 0.074197 -0.325237
-0.401794 0.360298 0.204059
-0.377546 -0.316816 0.279299
-0.401794 -0.536989 -0.270146
-0.401794 0.66584 -0.314809
-0.401794 -0.294396 0.282486
-0.377546 0.799846 0.293411
-0.377546 -0.097911 -0.153347
-0.401794 -0.243067 -0.204316
-0.377546 -0.022887 -0.23712
-0.401794 0.163383 -0.387806
-0.377546 -0.025715 0.059618
-0.401794 -0.158403 0.065615
-0.377546 -0.250379 0.288041
-0.377546 0.352151 -0.216888
-0.401794 -0.298962 -0.13647
-0.401794 -0.057986 0.143736
-0.377546 0.216044 0.321629
-0.401794 -0.205286 -0.085786
-0.401794 -0.306782 0.209449
-0.377546 0.376362 0.186282
-0.377546 -0.419999 -0.059124
-0.377546 -0.609971 -0.046154
-0.401794 0.448153 -0.096274
-0.401794 0.416238 -0.368219
-0.377546 -0.3912 -0.446967
-0.377546 0.043227 -0.253413
-0.377546 -0.295304 0.069302
-0.401794 0.487429 -0.464515
-0.377546 -0.505465 -0.116565
-0.401794 -0.40215 0.074519
-0.377546 -0.384162 0.185342
-0.401794 -0.452872 -0.130613
-0.377546 0.792737 0.354759
-0.377546 0.227746 -0.102198
-0.377546 -0.601159 -0.180631
-0.377546 -0.086569 -0.047571
-0.401794 0.45894 0.050815
-0.377546 -0.249985 0.250084
-0.401794 0.253062 0.202764
-0.377546 0.501422 -0.466236
-0.377546 0.556556 -0.211767
-0.401794 0.466305 -0.414198
-0.377546 0.172868 -0.339282
-0.401794 0.450279 -0.02661
-0.401794 0.584294 0.294479
-0.401794 0.693623 0.209183
-0.377546 0.63141 -0.337777
-0.377546 -0.541428 -0.161702
-0.401794 0.11078 -0.123739
-0.401794 0.408014 -0.411757
-0.398434 0.663946 -0.467599
-0.401794 0.111447 -0.355511
-0.377546 -0.315036 -0.173199
-0.401794 0.612513 0.12805
-0.377546 -0.101921 -0.419252
-0.401794 0.242189 -0.369494
-0.401794 -0.627263 -0.246363
-0.400731 0.822452 0.016084
-0.377546 -0.316888 -0.398172
-0.401794 -0.394441 0.265227
-0.401794 -0.023644 -0.423789
-0.377546 -0.445439 -0.108372
-0.377546 0.395765 -0.015035
-0.401794 0.002044 0.270911
-0.377546 0.186121 0.13019
-0.401794 0.332727 0.177988
-0.377546 0.385315 -0.238714
-0.377546 0.695969 0.086532
-0.401794 -0.415311 0.036214
-0.401794 -0.33959 -0.332049
-0.377546 -0.625492 -0.22963
-0.401794 0.812621 -0.404935
-0.377546 0.440146 -0.054119
-0.377546 0.267686 0.178093
-0.401794 0.690168 -0.166461
-0.401794 -0.027149 -0.363995
-0.401794 0.349592 -0.323823
-0.377546 0.049271 -0.414755
-0.401794 -0.522327 -0.072986
-0.377546 -0.485578 -0.151368
-0.401794 0.076218 -0.176566
-0.377546 0.020917 0.004127
-0.377546 -0.064625 -0.07051
-0.401794 0.212658 -0.208937
-0.401794 -0.523385 0.344133
-0.377546 0.497884 -0.399313
-0.401794 -0.429678 -0.266119
-0.377546 -0.176026 0.052972
-0.377546 -0.535841 -0.044405
-0.377546 -0.553971 -0.463356
-0.377546 0.816191 0.133459
-0.377546 0.058281 -0.30928
-0.377546 0.800147 -0.221021
-0.377546 0.712665 -0.080127
-0.377546 0.329914 -0.29854
-0.401794 -0.432657 -0.068154
-0.377546 0.31096 -0.274308
-0.377546 0.688609 -0.353738
-0.401794 0.588047 -0.393877
-0.401794 0.689366 -0.339827
-0.377546 -0.208263 0.142444
-0.377546 0.631386 0.019641
-0.401794 0.71881 0.331281
-0.377546 0.641307 -0.311581
-0.401794 0.32389 -0.192058
-0.401794 0.218269 0.060774
-0.377546 -0.152008 -0.382086
-0.401794 0.68728 -0.067962
-0.401794 0.803137 0.367487
-0.401794 0.092707 -0.292229
-0.401794 -0.601792 -0.198198
-0.401794 0.636061 -0.297902
-0.401794 0.739504 -0.420158
-0.401794 0.386294 0.168371
-0.401794 0.252836 -0.166407
-0.401794 0.051557 -0.341683
-0.377546 -0.40305 0.331785
-0.377546 0.194132 -0.215866
-0.377546 0.740672 0.330968
-0.401794 0.141018 0.251417
-0.377546 0.348567 -0.277852
-0.377546 0.48854 -0.095079
-0.377546 -0.447465 0.27587
-0.377546 0.745187 0.074169
-0.401794 0.279638 -0.142307
-0.377546 0.193947 0.217659
-0.377546 0.271968 -0.16796
-0.401794 0.356771 -0.240352
-0.401794 0.801893 -0.032325
-0.377546 0.361466 -0.183832
-0.401794 0.802749 -0.137936
-0.401794 0.481216 -0.31082
-0.377546 0.721005 -0.142922
-0.377546 -0.4191 0.177984
-0.394038 -0.104965 -0.467599
-0.377546 -0.03194 0.121349
-0.401794 0.009363 -0.080092
-0.377546 -0.58303 -0.125457
-0.401794 0.292431 -0.30544
-0.401794 -0.292848 -0.019021
-0.377546 0.605615 0.335135
-0.377546 -0.190818 0.03056
-0.401794 0.514568 -0.347639
-0.377546 0.522218 0.29142
-0.401794 -0.085059 0.29508
-0.377546 0.232183 0.353042
-0.377546 -0.457103 -0.377294
-0.377546 -0.07287 0.214213
-0.377546 -0.200472 -0.118598
-0.401794 0.67359 -0.383146
-0.377546 0.818989 0.211806
-0.377546 -0.349097 -0.216054
-0.401794 0.174371 0.337926
-0.377546 0.62485 0.055636
-0.401794 -0.507302 -0.011967
-0.377546 0.702289 0.279583
-0.377546 -0.552115 0.343169
-0.377546 0.345582 0.284463
-0.401794 0.16851 0.295624
-0.377546 -0.446836 -0.299893
-0.401794 0.305441 -0.370626
-0.377546 -0.377102 -0.318089
-0.377546 0.25862 -0.264909
-0.377546 0.263045 -0.394969
-0.401794 -0.185351 0.254036
-0.401794 0.574906 -0.228637
-0.377546 -0.386092 0.114301
-0.401794 0.722032 0.179948
-0.401794 0.750282 -0.365585
-0.377546 0.181964 0.269303
-0.401794 0.049392 -0.091757
-0.377546 -0.305216 0.023479
-0.377546 0.031758 0.260856
-0.377546 0.322698 -0.246546
-0.377546 0.368938 0.092912
-0.401794 -0.423172 0.202132
-0.401794 -0.558081 -0.341633
-0.401794 -0.209758 -0.314134
-0.377546 0.398037 -0.371058
-0.401794 0.674417 -0.128634
-0.401794 0.085317 -0.07339
-0.401794 0.252197 0.247074
-0.401794 -0.167148 0.031346
-0.377546 0.504613 0.145078
-0.377546 0.280078 -0.225627
-0.401794 -0.05622 0.111591
-0.377546 0.447585 -0.280048
-0.377546 0.33868 0.149724
-0.377546 0.564021 0.09356
-0.377546 0.555944 0.120434
-0.377546 -0.076406 0.319547
-0.377546 0.540128 0.258136
-0.401794 -0.583975 0.183852
-0.401794 0.263832 -0.082545
-0.401794 0.136558 0.004317
-0.377546 -0.568646 -0.288032
-0.377546 0.741505 0.142812
-0.401794 -0.167646 0.313565
-0.377546 -0.236816 -0.27377
-0.401794 0.376032 -0.413571
-0.401794 0.242356 -0.26454
-0.401794 0.271043 0.044429
-0.387582 -0.364726 -0.467599
-0.401794 0.785616 0.036067
-0.401794 -0.368038 0.140206
-0.401794 -0.20704 0.029699
-0.377546 -0.504199 -0.068857
-0.377546 -0.21912 -0.244087
-0.377546 -0.173896 0.150986
-0.401794 -0.326628 -0.456638
-0.377546 0.814397 -0.387321
-0.401794 0.486727 0.150885
-0.401794 0.592084 -0.027843
-0.377546 0.708038 -0.319236
-0.401794 0.048016 -0.175504
-0.377546 0.118449 -0.017366
-0.377546 0.389215 0.033129
-0.388271 -0.229142 -0.467599
-0.401794 -0.079967 -0.254572
-0.377546 0.139092 -0.083842
-0.377546 -0.273739 -0.269544
-0.377546 -0.199855 -0.364963
-0.377546 0.36373 0.234788
-0.401794 0.168892 -0.352864
-0.401794 -0.429915 -0.385362
-0.401794 -0.512051 -0.345728
-0.401794 -0.04963 -0.106864
-0.401794 0.261776 0.162238
-0.377546 0.651713 0.259556
-0.401794 0.808371 -0.178861
-0.377546 -0.068833 0.243944
-0.377546 0.275851 -0.348641
-0.401794 -0.62864 -0.418236
-0.401794 -0.08113 0.182997
-0.377546 -0.625438 0.250503
-0.377546 -0.619278 -0.309375
-0.401794 0.68744 0.262929
-0.377546 0.774516 -0.106794
-0.401794 0.087537 -0.441789
-0.377546 0.005664 0.305947
-0.401794 0.070919 0.100805
-0.401794 0.614181 -0.209814
-0.401794 0.337936 -0.401665
-0.377546 0.725553 0.224709
-0.377546 -0.168531 -0.305512
-0.377546 0.409955 -0.296695
-0.401794 -0.203234 0.211109
-0.377546 -0.129879 -0.416049
-0.377546 -0.403996 -0.189202
-0.388771 0.797008 -0.467599
-0.377546 -0.341245 -0.095513
-0.377546 -0.584938 -0.052723
-0.401794 0.427129 -0.30875
-0.401794 0.547888 -0.136412
-0.377546 -0.122892 0.057395
-0.401794 0.286861 0.155948
-0.401794 0.149883 -0.436977
-0.377546 -0.457951 -0.237016
-0.377546 0.002571 0.189382
-0.401794 0.249013 0.090571
-0.377546 0.427103 0.106534
-0.377546 -0.531711 0.032812
-0.401794 0.071246 0.238702
-0.401794 -0.148013 -0.008822
-0.377546 -0.00369 -0.308526
-0.401794 0.113465 0.3473
-0.401794 0.515406 0.039466
-0.377546 0.688527 0.167352
-0.377546 -0.623394 -0.454728
-0.377546 0.324615 0.304544
-0.401794 -0.132379 0.137308
-0.401794 -0.517457 0.082972
-0.377546 -0.092363 0.016544
-0.401794 -0.463184 -0.219497
-0.401794 -0.345792 0.189947
-0.401794 0.33164 -0.258954
-0.401794 -0.068447 -0.393267
-0.377546 0.787246 -0.149157
-0.401794 -0.046393 -0.039061
-0.377546 0.760836 0.008735
-0.401794 -0.157008 -0.416615
-0.401794 0.345461 0.104807
-0.377546 0.032704 0.051028
-0.401794 0.309954 -0.230215
-0.401794 0.519538 0.079543
-0.377546 0.641167 0.298303
-0.377546 -0.56424 0.187934
-0.401794 0.28581 0.111799
-0.377546 0.727598 -0.404507
-0.377546 0.796688 0.232424
-0.401794 -0.388446 0.350312
-0.377546 0.513308 0.105038
-0.377546 0.398452 0.085844
-0.401794 -0.176417 -0.323732
-0.377546 0.299966 0.037048
-0.377546 -0.008165 -0.151699
-0.401794 0.627433 0.325395
-0.377546 0.358736 -0.398336
-0.388584 0.543963 -0.467599
-0.401794 -0.065168 -0.136463
-0.401794 -0.383436 -0.14366
-0.377546 -0.466346 0.351848
-0.401794 -0.499026 0.271409
-0.377546 0.455902 -0.356458
-0.377546 0.558655 -0.422701
-0.377546 0.625777 -0.431763
-0.377546 0.669518 0.226812
-0.377546 -0.328964 -0.375639
-0.377546 -0.148801 0.212839
-0.401794 -0.580987 0.074353
-0.401794 -0.019698 0.007615
-0.401794 -0.460944 0.100391
-0.377546 0.762714 0.259953
-0.377546 0.261416 0.107411
-0.401794 -0.158921 -0.447642
