0.932211 0.21828 -0.253513
0.949977 -0.138144 -0.162031
0.932211 -0.100173 -0.044751
0.949977 0.189315 0.154365
0.949977 0.190896 -0.041572
0.949977 -0.092375 0.17024
0.932211 -0.068725 0.115319
0.949977 -0.10361 -0.122529
0.932211 -0.16388 0.090642
0.949977 0.145464 0.063561
0.932211 -0.08289 -0.072389
0.932211 0.052529 -0.017698
0.932211 0.062801 0.074438
0.932211 -0.013973 0.139129
0.949977 0.132435 0.12444
0.932211 -0.198106 -0.108618
0.932211 -0.218028 -0.204456
0.949977 0.014615 -0.057933
0.932211 -0.014256 -0.098108
0.949977 0.026853 0.075449
0.949977 0.045413 0.157403
0.932211 0.101327 -0.024622
0.932211 -0.118433 0.16445
0.932211 -0.160679 -0.138068
0.932211 0.240537 0.091426
0.932211 0.018397 -0.220257
0.932211 -0.047204 0.031118
0.932211 -0.05358 -0.083857
0.932211 -0.178283 0.1806
0.932211 0.102053 -0.221367
0.949977 0.005458 0.110129
0.932211 -0.138383 0.192417
0.949977 -0.18829 0.076538
0.932211 -0.165294 0.129519
0.932211 -0.129615 0.05416
0.949977 -0.00611 -0.177597
0.949977 0.062301 -0.118897
0.949977 0.126414 -0.085279
0.949977 0.076128 -0.238116
0.949977 -0.17553 -0.02082
0.932211 0.155269 -0.225519
0.949977 -0.005316 0.039975
0.932211 -0.115201 -0.102512
0.932211 0.053809 -0.205
0.949977 0.01282 0.215811
0.949977 -0.21245 -0.052687
0.949977 -0.077638 -0.236426
0.932211 -0.166184 -0.256503
0.932211 -0.017951 -0.229061
0.949977 0.236264 -0.222351
0.932211 0.177275 0.179119
0.949977 0.19089 -0.112771
0.949977 -0.09416 0.213826
0.932211 -0.156597 -0.096433
0.949977 0.130263 -0.174625
0.949977 0.137864 0.167552
0.932211 -0.104938 -0.203262
0.949977 0.036994 0.201411
0.949977 0.149581 -0.11969
0.949977 0.006625 0.189288
0.949977 0.237735 -0.174139
0.949977 -0.208547 -0.090476
0.932211 0.162049 -0.15941
0.949977 -0.027144 0.097128
0.949977 -0.063207 -0.10175
0.932211 -0.00146 0.068389
0.949977 -0.141756 0.102873
0.949977 0.047972 -0.157176
0.932211 0.105876 -0.130757
0.932211 -0.225294 -0.072717
0.932211 -0.227507 -0.025711
0.949977 -0.012925 -0.020184
0.949977 0.104941 0.04064
0.949977 0.090885 0.1986
0.932211 -0.186502 0.146705
0.932211 -0.115797 0.102697
0.932211 -0.058599 -0.237975
0.932211 0.15438 -0.016981
0.932211 -0.054563 0.005015
0.932211 -0.131473 -0.011174
0.932211 0.124492 0.145594
0.949977 0.144611 -0.201314
0.949977 0.236834 -0.026373
0.932211 -0.033004 0.078
0.932211 -0.188888 -0.158391
0.949977 0.166278 0.080121
0.949977 -0.171146 -0.238854
0.949977 0.205713 0.117709
0.949977 0.10456 -0.098395
0.932211 -0.099049 0.148037
0.932211 0.057389 -0.045168
0.949977 0.018079 -0.194715
0.949977 0.175293 0.032563
0.949977 0.226717 0.047489
0.949977 -0.142997 -0.053059
0.932211 0.118476 0.105556
0.932211 -0.093674 0.117071
0.932211 0.0562 0.203725
0.949977 -0.07642 0.097598
0.949977 0.227533 -0.053618
0.949977 -0.226559 -0.160137
0.949977 0.168369 0.218291
0.949977 -0.042394 -0.164918
0.949977 0.107216 -0.237698
0.932211 -0.011376 0.011369
0.949977 -0.220162 0.059617
0.932211 -0.218134 -0.124934
0.949977 -0.17355 -0.118412
0.949977 0.030288 0.118072
0.949977 0.060267 -0.189351
0.949977 0.180629 -0.135694
0.932211 -0.170596 0.217242
0.949977 -0.057304 -0.063484
0.949977 -0.166961 0.168801
0.932211 0.038929 -0.131173
0.949977 0.106137 -0.045086
0.932211 -0.038684 0.138624
0.932211 0.052412 0.022316
0.932211 -0.053822 0.207154
0.932211 0.125272 -0.243879
0.932211 -0.082472 -0.165694
0.932211 -0.15062 -0.186851
0.932211 0.225309 -0.097274
0.932211 0.088436 0.080452
0.932211 0.173607 -0.087663
0.932211 0.190304 -0.222655
0.932211 0.084916 -0.093864
0.949977 0.122497 0.205216
0.932211 0.005676 -0.140466
0.932211 -0.151673 -0.216934
0.949977 0.247911 0.154551
0.932211 0.177478 0.100944
0.932211 0.069894 0.148751
0.949977 0.158646 -0.05881
0.949977 -0.080704 0.007349
0.932211 0.242788 -0.255214
0.949977 0.21127 0.211162
0.949977 -0.171025 0.104098
0.949977 0.25036 -0.203527
0.932211 -0.125074 -0.051175
0.949977 0.048793 -0.263506
0.932211 0.217822 -0.158424
0.949977 0.143496 -0.239138
0.932211 0.204104 -0.191839
0.949977 -0.208967 -0.020261
0.932211 0.008004 -0.181892
0.949977 0.233269 0.132265
0.949977 -0.209428 0.203679
0.932211 -0.19072 -0.201851
0.949977 -0.182566 -0.183703
0.932211 0.08293 0.171439
0.932211 -0.122195 0.141885
0.949977 -0.138927 0.13502
0.932211 0.128935 0.078133
0.932211 -0.159334 0.02061
0.932211 -0.212852 -0.168522
0.949977 -0.093691 0.073967
0.949977 0.115626 -0.120364
0.932211 -0.133321 -0.201662
0.932211 0.246564 -0.074057
0.949977 0.232879 0.172044
0.932211 0.022672 0.046598
0.949977 -0.088083 -0.028199
0.949977 -0.09016 -0.08432
0.949977 -0.149005 -0.07934
0.949977 0.110003 0.120522
0.932211 0.224846 0.00814
0.932211 0.132677 0.040271
0.949977 0.154819 0.124962
0.932211 -0.036978 0.106548
0.932211 -0.009406 -0.064349
0.932211 -0.193319 -0.012782
0.932211 0.09389 0.147905
0.932211 0.067359 0.042943
0.932211 -0.13976 -0.130322
0.949977 0.162984 -0.034061
0.932211 0.038149 -0.250632
0.932211 -0.184989 0.041081
0.932211 0.030411 -0.01505
0.932211 0.032023 0.156864
0.949977 -0.106933 -0.157102
0.949977 -0.048343 0.056781
0.932211 -0.147751 -0.026292
0.949977 0.08624 0.028782
0.932211 0.14144 -0.037614
0.949977 0.042746 -0.026539
0.949977 0.160419 0.158146
0.949977 -0.204266 0.012057
0.949977 -0.122697 0.038197
0.949977 0.087423 -0.012231
0.949977 -0.135375 0.205324
0.932211 0.197241 -0.029727
0.932211 0.160016 -0.26307
0.932211 -0.045278 -0.210747
0.932211 -0.04744 -0.026571
0.932211 -0.215787 0.158209
0.949977 -0.097847 0.027866
0.932211 0.174071 0.002524
0.949977 0.095452 -0.193197
0.949977 -0.222514 -0.136427
0.932211 0.177893 0.149837
0.932211 -0.011943 0.11767
0.932211 -0.201351 0.177957
0.949977 -0.123749 -0.259151
0.932211 0.222221 -0.213182
0.932211 0.205373 0.087082
0.932211 0.075941 0.1257
0.932211 0.185427 0.201789
0.932211 -0.09543 0.18897
0.949977 0.113916 -0.203906
0.932211 0.235979 -0.14726
0.932211 0.088883 -0.165805
0.932211 -0.004281 0.185013
0.949977 -0.025666 -0.001283
0.949977 -0.087217 -0.176165
0.949977 0.197442 0.025506
0.949977 0.008792 0.063251
0.932211 0.115475 -0.08117
0.932211 -0.14369 0.079447
0.949977 0.052223 0.070414
0.949977 0.029906 -0.101647
0.949977 -0.216498 -0.22655
0.932211 -0.064248 0.090331
0.932211 0.197362 0.162064
0.932211 0.121064 -0.031693
0.932211 0.151347 0.028153
0.949977 0.148507 0.042876
0.932211 0.083903 0.103175
0.949977 -0.010102 -0.053436
0.949977 -0.002221 0.017329
0.932211 0.019835 0.083818
0.949977 0.213241 -0.147057
0.932211 -0.066541 -0.129202
0.949977 -0.206774 0.115141
0.949977 -0.024767 -0.098839
0.949977 0.197224 -0.003752
0.949977 0.184512 0.123586
0.932211 0.231969 0.161479
0.949977 0.206838 0.177379
0.949977 0.184014 0.092925
0.932211 -0.157689 0.185407
0.949977 -0.117694 0.215794
0.932211 0.079564 0.201365
0.949977 0.210128 -0.183334
0.932211 -0.063993 0.169291
0.949977 -0.192244 -0.220364
0.932211 -0.099683 0.037663
0.932211 -0.030312 -0.083045
0.932211 0.120141 -0.211678
0.932211 0.136542 -0.00718
0.949977 -0.002318 0.171011
0.949977 -0.096762 -0.229546
0.932211 0.016132 0.127911
0.949977 -0.212643 -0.116881
0.949977 -0.107246 0.098093
0.949977 0.192731 -0.092644
0.932211 0.239149 -0.035717
0.949977 -0.086131 -0.156005
0.949977 -0.021858 -0.157684
0.949977 0.001642 -0.131837
0.949977 -0.047681 0.141687
0.932211 0.091915 -0.074986
0.932211 0.020163 -0.099176
0.949977 -0.206328 0.146953
0.949977 0.108404 -0.177743
0.932211 0.047846 -0.225636
0.932211 0.183899 0.03616
0.949977 -0.053237 -0.245573
0.949977 0.177551 0.011144
0.949977 -0.157368 -0.172765
0.949977 0.044925 -0.203216
0.949977 0.033086 0.176276
0.932211 -0.086724 -0.122816
0.949977 -0.034218 0.220628
0.932211 0.185828 -0.103368
0.949977 0.026264 -0.215972
0.949977 -0.107382 0.151256
0.932211 -0.144899 0.034223
0.949977 -0.173203 0.009395
0.949977 0.06187 0.19703
0.932211 0.005278 -0.027271
0.932211 -0.080286 -0.228159
0.949977 -0.160632 -0.146647
0.949977 0.036684 -0.177047
0.949977 -0.209846 -0.202451
0.932211 0.112996 0.018726
0.932211 0.129815 -0.128692
0.932211 -0.18734 0.096907
0.932211 0.046319 0.040939
0.932211 -0.083363 0.069989
0.932211 0.068478 -0.029111
0.949977 -0.184945 -0.151472
0.949977 0.232964 0.019755
0.949977 -0.118817 0.060225
0.932211 0.10784 0.089295
0.932211 -0.097618 -0.152701
0.949977 0.215927 -0.091608
0.949977 -0.118561 0.019252
0.932211 -0.019998 -0.173443
0.949977 -0.062076 0.178544
0.932211 -0.180925 -0.140724
0.932211 0.044116 -0.078139
0.949977 -0.211259 0.18442
0.949977 0.20376 -0.127212
0.932211 0.140007 0.123384
0.932211 0.250079 0.145697
0.949977 0.130144 0.185271
0.932211 0.214156 -0.234482
0.949977 0.04574 0.106505
0.932211 -0.156232 -0.047479
0.949977 0.044739 -0.086908
0.949977 0.050531 0.029489
0.949977 -0.213756 0.092165
0.949977 0.105136 0.178062
0.949977 -0.10941 -0.176144
0.949977 0.079769 -0.256966
0.949977 -0.034476 -0.018316
0.949977 0.022169 -0.237743
0.932211 -0.143074 -0.167198
0.932211 -0.200893 0.119067
0.932211 0.160108 0.166436
0.949977 -0.100643 -0.208788
0.949977 0.070204 -0.100472
0.949977 -0.040994 0.039217
0.949977 -0.066447 0.050953
0.949977 0.053848 -0.245188
0.932211 0.114107 -0.147873
0.932211 0.095788 -0.047293
0.932211 -0.18434 -0.055819
0.949977 -0.050192 -0.115466
-0.933193 0.106449 0.048247
-0.933193 -0.072003 -0.016575
-0.933193 0.065469 -0.137714
-0.933193 -0.011847 0.104513
-0.915427 -0.074969 -0.144148
-0.915427 0.191962 -0.163559
-0.933193 0.157752 0.153411
-0.915427 0.144382 -0.057391
-0.933193 -0.172065 -0.193839
-0.933193 -0.121912 0.086263
-0.915427 0.037056 -0.032904
-0.933193 0.067641 0.192558
-0.933193 -0.153672 0.178966
-0.915427 -0.157928 -0.058049
-0.915427 0.03408 -0.225802
-0.915427 0.117895 -0.202271
-0.915427 0.188102 0.04908
-0.915427 -0.173275 0.025947
-0.915427 -0.027148 -0.080598
-0.915427 -0.080475 0.157651
-0.915427 0.064785 0.110343
-0.933193 0.189134 -0.259092
-0.933193 -0.011843 0.025155
-0.933193 0.210204 -0.01637
-0.915427 -0.097144 -0.211671
-0.933193 -0.000956 -0.158863
-0.915427 0.207476 -0.097753
-0.933193 -0.13823 -0.131832
-0.915427 0.000201 0.20747
-0.915427 0.214584 0.127173
-0.933193 -0.099154 -0.07809
-0.933193 0.129935 -0.138978
-0.915427 0.046227 0.05067
-0.915427 -0.087735 0.039325
-0.933193 0.087608 -0.082303
-0.933193 0.027813 -0.090708
-0.915427 0.141932 0.090892
-0.915427 0.098534 -0.021684
-0.915427 -0.205141 0.160013
-0.933193 0.017008 0.15581
-0.933193 -0.030293 -0.218677
-0.915427 -0.185498 -0.10583
-0.933193 -0.133916 -0.012586
-0.915427 -0.183629 0.079329
-0.933193 -0.223709 0.046509
-0.933193 0.160409 0.002789
-0.915427 0.111635 0.134812
-0.933193 -0.069469 0.089569
-0.933193 0.222158 -0.207908
-0.915427 -0.013763 -0.029468
-0.915427 -0.206768 -0.043961
-0.933193 -0.153763 0.125723
-0.915427 0.060536 -0.183103
-0.933193 -0.031389 0.162663
-0.915427 0.204168 0.174298
-0.915427 -0.032184 0.064793
-0.933193 -0.145296 -0.233587
-0.915427 -0.209301 -0.170941
-0.933193 0.157506 -0.220158
-0.933193 0.189333 0.092431
-0.933193 0.061197 0.001943
-0.915427 0.226697 0.025231
-0.915427 0.246569 -0.160819
-0.933193 0.241274 0.080548
-0.933193 -0.201545 -0.004846
-0.915427 -0.053838 -0.181876
-0.933193 0.163512 -0.111755
-0.915427 -0.129963 -0.170305
-0.915427 0.160848 0.203149
-0.933193 0.221862 -0.061375
-0.915427 -0.049637 0.20768
-0.915427 -0.034056 -0.136238
-0.915427 0.026481 0.094825
-0.915427 0.028409 -0.134164
-0.915427 -0.10475 -0.035089
-0.933193 0.073045 -0.217587
-0.933193 0.181306 -0.061409
-0.933193 0.118472 -0.238828
-0.915427 -0.065497 -0.251887
-0.915427 0.068971 0.150032
-0.915427 -0.049164 0.118934
-0.933193 -0.047373 -0.051374
-0.915427 0.126514 0.183498
-0.933193 -0.11326 0.144655
-0.915427 0.089401 0.078986
-0.933193 -0.200042 0.203559
-0.915427 0.101433 -0.15862
-0.933193 -0.09879 0.193826
-0.933193 0.120689 0.004444
-0.915427 -0.127028 -0.099525
-0.933193 0.027586 0.022095
-0.915427 0.155502 -0.175714
-0.933193 0.066392 -0.04969
-0.933193 0.218055 -0.129703
-0.933193 -0.199163 -0.136322
-0.933193 -0.195595 -0.246276
-0.915427 0.111867 -0.111679
-0.915427 0.151344 0.043523
-0.915427 -0.164752 0.209652
-0.933193 -0.168073 -0.026748
-0.915427 0.078245 0.029324
-0.933193 -0.03754 -0.003866
-0.915427 -0.185825 0.12764
-0.915427 -0.097168 0.003265
-0.933193 -0.149139 0.062349
-0.933193 -0.046174 0.036181
-0.933193 -0.084236 -0.175252
-0.915427 -0.21875 -0.212383
-0.915427 0.133606 -0.023633
-0.915427 0.163409 0.123773
-0.915427 0.143734 -0.255268
-0.915427 -0.175184 -0.224156
-0.933193 0.103916 -0.051483
-0.933193 -0.064624 -0.214429
-0.915427 -0.013099 0.134143
-0.915427 0.055353 -0.077207
-0.933193 -0.135159 0.021705
-0.933193 -0.027858 -0.254514
-0.915427 0.00396 -0.106908
-0.915427 0.218148 -0.248273
-0.915427 0.026055 0.128546
-0.933193 0.23566 -0.093341
-0.915427 0.025915 -0.16771
-0.933193 -0.075447 0.129247
-0.915427 0.097798 0.200074
-0.933193 0.02276 0.065549
-0.915427 -0.016865 -0.194365
-0.933193 0.222291 0.052647
-0.933193 -0.091105 -0.109914
-0.933193 -0.010881 -0.058359
-0.933193 -0.213622 0.133942
-0.915427 0.046843 0.210366
-0.915427 -0.098561 0.072346
-0.933193 0.173208 -0.026779
-0.933193 0.014496 -0.018478
-0.915427 0.186326 -0.003281
-0.933193 0.161801 0.067584
-0.915427 0.246112 -0.118531
-0.915427 -0.212356 -0.08935
-0.915427 -0.124305 0.112114
-0.933193 -0.174233 -0.078052
-0.915427 -0.144006 0.155106
-0.933193 -0.021532 -0.108506
-0.915427 -0.121585 0.182307
-0.933193 0.011991 -0.189022
-0.915427 -0.162096 -0.140584
-0.933193 0.224783 -0.173519
-0.933193 -0.029991 0.223475
-0.915427 0.201733 -0.046353
-0.915427 0.176894 -0.197765
-0.933193 -0.00642 0.055311
-0.915427 0.207209 0.075104
-0.915427 -0.158306 0.096411
-0.915427 0.191032 -0.133108
-0.933193 0.186521 0.132483
-0.933193 0.021943 -0.249713
-0.933193 -0.126765 -0.06542
-0.933193 0.187758 -0.219863
-0.933193 0.115102 0.077233
-0.933193 0.21117 0.197321
-0.933193 -0.084522 -0.236715
-0.915427 0.179394 -0.087682
-0.933193 -0.076578 -0.058712
-0.933193 -0.039282 0.08745
-0.915427 -0.117329 0.03987
-0.915427 -0.008697 -0.000347
-0.933193 0.095982 0.176659
-0.915427 -0.14902 -0.198273
-0.915427 -0.137627 -0.26311
-0.915427 0.018214 0.184296
-0.915427 -0.069392 0.016449
-0.933193 -0.101414 0.108993
-0.933193 -0.115003 -0.226304
-0.933193 0.025893 -0.053086
-0.933193 -0.197105 0.035083
-0.915427 -0.115533 -0.129908
-0.915427 0.086364 -0.199211
-0.933193 0.046937 -0.205675
-0.933193 0.062049 -0.243976
-0.915427 -0.047088 0.179339
-0.933193 0.123238 0.153561
-0.933193 0.043063 0.11248
-0.933193 -0.058112 0.151291
-0.915427 -0.172635 0.152277
-0.933193 -0.185815 -0.052683
-0.933193 0.083411 0.099636
-0.915427 -0.078104 0.188212
-0.915427 0.107225 -0.073949
-0.933193 0.159203 0.181928
-0.933193 0.178698 0.030032
-0.933193 0.054612 0.165517
-0.915427 -0.004886 -0.225904
-0.915427 -0.010654 0.083458
-0.933193 0.128951 -0.099442
-0.933193 0.162175 0.095786
-0.933193 0.128358 0.122558
-0.915427 -0.144558 0.041816
-0.933193 0.1216 -0.181932
-0.933193 0.23121 0.005171
-0.915427 0.04363 -0.103835
-0.915427 -0.121541 -0.199718
-0.915427 0.057001 0.084373
-0.915427 -0.171802 0.055045
-0.933193 -0.209152 0.097602
-0.933193 -0.194858 -0.207969
-0.933193 -0.22043 0.177009
-0.933193 0.249771 0.200192
-0.933193 0.180511 0.203265
-0.933193 0.212363 0.156443
-0.915427 0.03127 -0.193502
-0.915427 0.14413 -0.112146
-0.915427 0.070927 0.05963
-0.915427 0.240522 0.112124
-0.933193 -0.14891 -0.166885
-0.915427 -0.068228 0.070381
-0.933193 0.083606 -0.165755
-0.915427 -0.206678 0.055193
-0.915427 -0.104086 -0.167297
-0.933193 0.132552 0.040901
-0.915427 -0.039063 0.018594
-0.915427 0.002456 -0.133639
-0.933193 -0.021127 0.18625
-0.915427 -0.130083 -0.047419
-0.933193 0.132425 -0.215532
-0.915427 -0.184002 -0.174059
-0.933193 0.159062 -0.073811
-0.933193 0.06352 -0.024387
-0.915427 0.21063 -0.223968
-0.915427 -0.184036 -0.000234
-0.915427 0.236858 0.063067
-0.933193 0.13818 0.203779
-0.915427 0.225846 -0.146514
-0.915427 0.17795 0.075174
-0.933193 -0.036997 -0.187724
-0.933193 -0.166289 0.009606
-0.915427 0.2108 0.002348
-0.915427 0.109347 0.018019
-0.915427 0.140243 0.158041
-0.933193 0.084751 0.142431
-0.915427 -0.144204 0.001523
-0.915427 0.199633 0.107285
-0.933193 0.060881 0.030199
-0.915427 -0.135187 0.075486
-0.933193 -0.182471 0.096314
-0.915427 0.003575 -0.046923
-0.915427 0.091234 0.114714
-0.915427 -0.221258 0.118793
-0.933193 0.179395 -0.181019
-0.915427 -0.080908 0.10199
-0.915427 -0.151228 -0.026591
-0.915427 -0.170358 0.176828
-0.915427 -0.211064 -0.261462
-0.933193 0.057344 -0.113098
-0.933193 0.114641 0.198091
-0.933193 0.147792 -0.161188
-0.915427 -0.186044 -0.031599
-0.915427 -0.209416 -0.123837
-0.915427 0.148026 -0.207095
-0.933193 0.098627 -0.209501
-0.915427 0.159055 -0.013139
-0.915427 0.024505 0.037748
-0.915427 -0.042282 -0.246327
-0.933193 -0.148055 -0.110166
-0.933193 -0.087406 -0.198808
-0.915427 -0.096451 0.140089
-0.933193 -0.087643 -0.034417
-0.933193 0.237056 -0.226365
-0.933193 -0.098906 0.170113
-0.933193 0.046681 0.07254
-0.915427 -0.059674 -0.007076
-0.915427 -0.020451 -0.155457
-0.933193 -0.1535 -0.26096
-0.933193 -0.082424 0.024539
-0.933193 -0.197068 0.179155
-0.933193 0.083931 0.209369
-0.933193 -0.065793 0.048791
-0.915427 0.223727 -0.188536
-0.915427 0.237024 -0.209757
-0.933193 0.222056 0.093575
-0.915427 0.042392 0.022337
-0.933193 0.016547 0.105781
-0.933193 0.112518 -0.030054
-0.933193 0.05792 0.130112
-0.915427 0.028684 -0.011483
-0.933193 -0.137852 -0.187035
-0.915427 0.091346 -0.096378
-0.933193 -0.046746 -0.143239
-0.915427 0.058588 -0.218131
-0.933193 0.199642 -0.144678
-0.933193 -0.027068 0.137013
-0.933193 -0.095255 0.058635
-0.915427 -0.026556 0.042837
-0.933193 0.109786 -0.125565
-0.933193 0.154975 -0.189736
-0.915427 0.013447 -0.08636
-0.933193 -0.149408 -0.046918
-0.933193 0.163391 -0.047666
-0.915427 0.110902 0.090514
-0.933193 -0.218585 0.068486
-0.933193 0.135831 0.063204
-0.915427 -0.16874 -0.246167
-0.933193 0.098141 -0.007931
-0.933193 0.22968 0.120522
-0.915427 -0.198402 0.109078
-0.933193 0.092216 0.065601
-0.933193 0.005368 0.001995
-0.915427 0.201423 0.031124
-0.915427 0.143674 0.135981
-0.933193 0.15317 0.220311
-0.933193 0.146186 -0.01877
-0.933193 -0.172477 -0.102387
-0.915427 0.070096 0.179423
-0.915427 0.22242 0.186897
-0.933193 0.000725 0.076971
-0.915427 -0.059197 0.098382
-0.915427 0.195815 -0.1866
-0.933193 -0.109898 0.00127
-0.915427 -0.002614 0.113381
-0.933193 0.214661 0.020937
-0.933193 -0.032133 -0.025072
-0.915427 -0.048255 -0.086345
-0.915427 0.17498 -0.149776
-0.933193 0.076409 0.16395
-0.933193 -0.170832 0.077861
-0.915427 -0.106462 0.203813
-0.915427 -0.076539 -0.028561
-0.933193 -0.043363 0.059445
-0.933193 0.104372 -0.096008
-0.933193 0.042984 -0.184387
-0.933193 -0.110264 -0.051446
-0.933193 -0.060745 0.203159
-0.933193 -0.002744 0.163966
-0.915427 -0.205779 -0.240192
-0.933193 0.007044 -0.122752
-0.933193 0.23529 0.167649
-0.915427 -0.123172 -0.017214
-0.933193 0.085927 0.020509
-0.933193 -0.152467 0.211639
-0.933193 0.116834 -0.260008
-0.933193 -0.134498 0.161797
-0.915427 0.074846 -0.026445
-0.915427 -0.089424 -0.084118
-0.933193 0.030771 0.138965
-0.915427 -0.204656 0.07726
-0.915427 0.151117 -0.03543
-0.933193 0.040918 -0.234781
-0.915427 -0.162627 -0.078546
-0.915427 0.191705 0.204131
-0.933193 0.102211 0.128809
-0.915427 -0.100688 -0.232331
-0.933193 -0.224215 -0.021629
-0.915427 0.129537 -0.238162
-0.933193 0.035916 0.207049
-0.915427 0.012111 0.144154
-0.915427 -0.050579 -0.04079
-0.915427 0.033346 -0.061251
-0.933193 -0.147259 0.096214
-0.915427 -0.18006 -0.151285
-0.933193 0.136172 -0.050177
-0.915427 -0.209733 0.198544
-0.933193 0.042288 -0.075743
-0.915427 0.105102 -0.241281
-0.933193 -0.133602 0.120686
-0.915427 0.11274 -0.176005
-0.933193 -0.130103 -0.150864
-0.933193 -0.05447 0.109793
-0.915427 0.1024 0.062808
-0.915427 0.179383 0.140199
-0.915427 -0.135057 -0.071827
-0.933193 0.156336 0.13144
-0.933193 0.192081 0.160037
-0.915427 -0.019287 -0.240622
-0.915427 0.228839 -0.107408
-0.933193 -0.200297 0.149573
-0.915427 -0.007372 -0.068027
-0.915427 0.111245 -0.044281
-0.933193 -0.165463 -0.23014
-0.933193 0.027223 0.179789
-0.915427 0.105412 0.038364
-0.933193 0.032523 -0.14316
-0.933193 0.077191 -0.19588
-0.915427 -0.111968 0.096035
-0.915427 0.050941 0.190558
-0.933193 -0.205922 0.222911
-0.933193 -0.213844 -0.220702
-0.933193 -0.165893 -0.131719
-0.915427 -0.019637 -0.117931
-0.933193 -0.113186 -0.164553
-0.915427 -0.191161 -0.086505
-0.915427 -0.05882 -0.221907
-0.915427 0.223349 0.166793
-0.915427 -0.115659 -0.150842
-0.915427 0.014501 -0.027833
-0.933193 -0.209184 -0.159069
-0.915427 0.135116 -0.075164
-0.933193 0.192703 0.072691
-0.915427 -0.148503 -0.101021
-0.933193 0.089098 -0.03808
-0.933193 -0.007908 -0.255457
-0.915427 -0.137873 -0.228302
-0.915427 0.085249 0.162358
-0.933193 0.126498 0.102748
-0.933193 -0.052309 0.009421
-0.915427 0.149205 0.187059
-0.915427 0.218265 0.043162
-0.933193 0.222723 -0.240889
-0.933193 -0.066508 -0.142218
-0.915427 -0.160407 0.136778
-0.933193 -0.025505 -0.135487
-0.933193 0.204373 -0.105638
-0.915427 -0.048079 -0.20065
-0.915427 -0.189199 -0.125113
-0.933193 0.109698 -0.157374
-0.933193 0.05708 0.09875
-0.933193 -0.17912 0.122981
-0.933193 -0.219581 0.204047
-0.915427 0.121151 -0.15839
-0.933193 -0.203107 0.117511
-0.933193 0.119404 0.023854
-0.933193 -0.014694 0.211551
-0.915427 -0.187178 0.167189
-0.915427 0.014774 -0.203578
-0.933193 -0.006932 0.129834
-0.933193 -0.172324 0.215416
-0.915427 -0.118427 0.065951
-0.933193 -0.034142 -0.083201
-0.915427 0.159939 0.146444
-0.933193 -0.031025 0.105341
-0.915427 0.056249 -0.239634
-0.915427 0.134185 0.056156
-0.915427 -0.141618 -0.138132
-0.915427 -0.097878 -0.122542
-0.933193 -0.003404 -0.138754
-0.933193 0.223321 0.138508
-0.933193 -0.1354 -0.217296
-0.933193 -0.156295 -0.011781
-0.915427 0.13876 0.109639
-0.933193 0.00621 0.210509
-0.933193 0.025417 -0.002935
-0.915427 -0.040408 0.13577
-0.915427 0.120615 -0.009856
-0.915427 -0.103232 0.053997
-0.933193 -0.182779 0.022739
-0.473504 0.085898 -0.021645
-0.446855 -0.078934 0.11475
-0.446855 -0.076373 -0.152419
-0.459891 0.134602 -0.251758
-0.446855 0.068908 0.125778
-0.473504 -0.052417 -0.016317
-0.473504 0.16045 -0.127546
-0.473504 0.208538 0.001251
-0.473504 0.166233 0.197395
-0.473504 0.038888 -0.135164
-0.473504 -0.13954 0.215066
-0.446855 -0.165777 -0.001193
-0.473504 -0.171087 -0.125053
-0.446855 0.17529 0.09372
-0.446855 0.013953 0.046477
-0.473504 -0.007903 0.171719
-0.473504 -0.165454 0.130712
-0.446855 0.205219 -0.198652
-0.446855 0.086625 0.214275
-0.473504 -0.155298 -0.208895
-0.446855 -0.106536 -0.074386
-0.446855 0.103726 -0.177247
-0.473504 0.094002 0.058463
-0.446855 0.020441 -0.068047
-0.473504 -0.119496 0.058829
-0.446855 0.176658 -0.060443
-0.473504 0.237813 0.159234
-0.446855 0.089344 -0.08785
-0.473504 -0.037433 -0.099633
-0.473504 -0.220534 -0.070588
-0.473504 -0.011112 -0.184197
-0.446855 -0.20541 0.213901
-0.446855 0.146392 0.01678
-0.446855 -0.226905 0.11651
-0.446855 -0.093902 -0.220663
-0.446855 -0.072046 0.182305
-0.473504 -0.186167 0.056544
-0.446855 0.071284 -0.241192
-0.473504 -0.05092 0.049132
-0.473504 0.125503 0.141818
-0.446855 0.001724 0.117063
-0.446855 -0.106974 -0.007949
-0.446855 0.225432 0.209659
-0.473504 0.029575 -0.01672
-0.473504 0.04479 -0.19157
-0.446855 0.190573 0.148178
-0.473504 -0.118858 0.160349
-0.473504 0.149457 -0.19264
-0.446855 0.035919 0.191721
-0.446855 -0.173966 -0.06659
-0.446855 0.061001 0.020622
-0.473504 -0.120953 -0.164927
-0.446855 0.233993 0.09805
-0.473504 0.093012 -0.132708
-0.473504 0.211053 -0.152908
-0.473504 0.07716 0.169259
-0.446855 0.12681 -0.037243
-0.467282 -0.128492 -0.251758
-0.473504 0.048264 0.088125
-0.446855 -0.043712 -0.212097
-0.473504 0.144492 0.059891
-0.446855 -0.13829 0.098061
-0.473504 0.007569 0.223104
-0.446855 0.225187 -0.040564
-0.446855 -0.027578 -0.140235
-0.446855 -0.027896 -0.049723
-0.473504 -0.192754 0.175079
-0.473359 -0.041204 0.223476
-0.473504 0.200727 0.062179
-0.449619 -0.098387 0.223476
-0.473504 -0.087362 -0.109456
-0.446855 0.128233 0.186185
-0.446855 -0.194283 -0.215885
-0.446855 -0.181618 -0.162971
-0.473504 -0.035413 0.105177
-0.473504 0.128243 -0.086187
-0.473504 -0.066849 -0.06084
-0.473504 0.058293 -0.064474
-0.473504 -0.014206 0.020865
-0.446855 0.213899 -0.087766
-0.473504 0.036931 0.147715
-0.473504 -0.142567 -0.02872
-0.446855 -0.150761 0.181058
-0.473504 0.162941 -0.027704
-0.446855 -0.203113 -0.101312
-0.473504 -0.059318 0.143339
-0.446855 -0.182375 0.090178
-0.446855 0.133939 0.109298
-0.446855 -0.078422 0.023822
-0.446855 0.019596 -0.162239
-0.473504 -0.137889 -0.083258
-0.473504 0.099198 -0.225368
-0.473504 -0.083657 0.079445
-0.446855 0.067162 -0.150886
-0.473504 0.182579 -0.091951
-0.473504 0.247969 -0.079217
-0.473504 -0.051916 -0.178895
-0.446855 0.141838 -0.152774
-0.446855 0.015395 -0.114506
-0.446855 0.234997 0.038031
-0.473504 -0.12561 -0.123775
-0.473504 0.162602 0.125593
-0.473504 -0.1121 0.120426
-0.446855 -0.149397 0.053322
-0.473504 0.204916 0.182595
-0.473504 -0.209686 -0.173967
-0.446855 0.187853 0.022892
-0.473504 -0.220125 0.081692
-0.473504 0.057524 0.219837
-0.466756 0.120711 0.223476
-0.473504 -0.206214 0.001354
-0.473504 0.23214 -0.210692
-0.446855 0.093062 0.087587
-0.446855 -0.067171 -0.089651
-0.446855 0.035326 -0.218157
-0.446855 0.053669 0.058592
-0.473504 -0.197945 -0.039207
-0.446855 -0.032147 0.136775
-0.473504 0.186982 -0.219394
-0.446855 0.002223 -0.014814
-0.446855 -0.056252 0.079058
-0.446855 -0.013358 0.205579
-0.473504 -0.00088 -0.04625
-0.446855 0.152364 -0.101709
-0.473504 -0.127993 0.009068
-0.473504 0.03337 0.0283
-0.473504 0.197472 -0.042419
-0.446855 -0.034972 0.004872
-0.446855 0.245295 -0.159416
-0.473504 0.237717 0.066732
-0.446855 0.022381 0.082721
-0.473504 -0.001029 -0.134432
-0.473504 -0.179741 0.217166
-0.446855 -0.181118 0.150804
-0.473504 -0.16168 0.029117
-0.446855 -0.13125 -0.188039
-0.446855 0.069025 -0.197821
-0.446855 -0.074576 -0.027351
-0.473504 0.053486 -0.102068
-0.446855 0.089846 -0.045079
-0.473504 0.235409 0.123169
-0.446855 0.052802 -0.019134
-0.473504 0.030386 -0.240965
-0.446855 0.163015 0.170356
-0.446855 0.155796 0.218144
-0.473504 -0.22205 0.197705
-0.446855 -0.157379 -0.097664
-0.446855 -0.196909 0.022318
-0.446855 -0.091412 -0.183973
-0.473504 -0.070934 0.20546
-0.446855 -0.088383 0.148121
-0.446855 0.220809 -0.121695
-0.473504 -0.211905 0.144147
-0.446855 0.170981 -0.193843
-0.473504 0.126412 -0.124198
-0.473504 -0.121297 -0.21164
-0.473504 -0.083478 0.003189
-0.468004 -0.09448 -0.251758
-0.456877 0.19611 0.223476
-0.473504 -0.109044 0.20021
-0.473504 0.086813 0.115022
-0.473504 -0.201522 0.109853
-0.446855 0.177074 -0.13979
-0.473504 -0.007008 0.087071
-0.463549 0.176201 -0.251758
-0.446855 0.207341 0.11827
-0.473504 -0.224565 -0.239836
-0.446855 0.076351 -0.118849
-0.446855 0.11597 0.003554
-0.446855 0.195079 -0.02294
-0.473504 0.165193 -0.163638
-0.473504 -0.074506 -0.202744
-0.473504 0.161853 0.02817
-0.473504 -0.104337 -0.026842
-0.446855 -0.109209 -0.114203
-0.446855 0.112058 0.052874
-0.446855 -0.149129 0.144167
-0.446855 -0.132514 -0.22664
-0.473504 -0.188036 -0.09025
-0.473504 -0.034606 0.190342
-0.473504 -0.024537 -0.068596
-0.446855 -0.165896 -0.191418
-0.447284 0.029059 0.223476
-0.446855 -0.142167 -0.060126
-0.473504 -0.019492 -0.224471
-0.473504 0.10815 -0.046509
-0.446855 -0.153813 -0.13025
-0.473504 0.074672 0.009306
-0.473504 -0.158088 0.071855
-0.473504 -0.059088 -0.124026
-0.446855 -0.192883 -0.022648
-0.446855 -0.219019 -0.196075
-0.473504 0.202241 0.093621
-0.448363 -0.156462 0.223476
-0.446855 0.237879 -0.19507
-0.473504 -0.109615 -0.057725
-0.473504 -0.089718 -0.140626
-0.473504 0.132783 0.007868
-0.446855 0.091647 0.162054
-0.446855 -0.032092 -0.183218
-0.446855 0.00805 0.178071
-0.473504 0.141592 0.095468
-0.473504 -0.08581 0.163712
-0.446855 0.20239 -0.235751
-0.446855 0.058743 -0.08012
-0.473504 -0.016223 -0.009889
-0.446855 -0.050454 0.210807
-0.473504 0.088571 -0.17533
-0.446855 0.032089 0.112508
-0.473504 0.138077 -0.057099
-0.446855 0.214524 0.074364
-0.446855 0.080921 -0.007042
-0.473504 -0.017161 0.137753
-0.473504 0.205722 -0.111748
-0.446855 0.213884 0.17099
-0.446855 0.009109 -0.190713
-0.446855 -0.024656 -0.106471
-0.446855 0.109451 -0.110524
-0.446855 0.160633 -0.013533
-0.473504 -0.052979 -0.224011
-0.473504 0.05226 -0.162515
-0.473504 0.117665 -0.018155
-0.446855 0.13664 -0.188181
-0.446855 0.079877 0.044473
-0.473504 0.174571 0.0763
-0.473504 0.005141 0.056126
-0.473504 -0.172852 -0.172607
-0.446855 0.141597 0.04723
-0.473504 0.240283 -0.001794
-0.446855 -0.19184 -0.135171
-0.446855 0.127541 0.080387
-0.473504 0.040807 0.058665
-0.446855 -0.133788 0.020435
-0.446855 -0.130191 -0.030236
-0.446855 0.216714 -0.166306
-0.446855 -0.039558 0.053787
-0.473504 0.110609 0.082579
-0.473504 0.050237 0.117311
-0.446855 0.12024 -0.077339
-0.473504 0.090884 -0.076273
-0.473504 0.093281 0.204897
-0.473504 0.112563 -0.19962
-0.473504 0.19453 0.137438
-0.446855 0.181261 -0.103301
-0.446855 0.177322 0.195832
-0.446855 -0.161987 -0.241136
-0.473504 0.197113 0.028807
-0.446855 -0.204771 0.072088
-0.446855 -0.010508 0.031096
-0.473504 -0.19845 -0.227789
-0.473504 0.031187 -0.084098
-0.473504 0.046261 0.191527
-0.446855 -0.121883 -0.139817
-0.473504 0.153431 0.166629
-0.446855 -0.012855 -0.216699
-0.446855 0.063974 0.196568
-0.446855 0.045041 -0.106988
-0.446855 0.116148 0.139789
-0.446855 0.036798 -0.185215
-0.446855 0.113845 -0.149432
-0.446855 0.156709 0.132422
-0.455628 0.096808 -0.251758
-0.446855 -0.029008 0.164708
-0.473504 -0.170358 -0.044473
-0.446855 0.185786 0.067757
-0.446855 -0.003185 0.144632
-0.470853 0.221665 0.223476
-0.446855 -0.074017 -0.116731
-0.446855 -0.178932 0.061549
-0.446855 -0.05813 -0.238352
-0.446855 0.031013 0.142891
-0.446855 0.239385 0.138771
-0.446855 -0.06234 -0.055246
-0.446855 0.223412 0.012999
-0.473504 0.08666 0.143372
-0.446855 -0.203126 -0.066309
-0.473504 0.103156 -0.100913
-0.446855 -0.118869 0.205313
-0.473504 -0.074594 -0.163513
-0.473504 0.153684 -0.2197
-0.473504 0.177001 -0.193982
-0.446855 -0.110249 0.125776
-0.473504 0.007264 0.003779
-0.446855 -0.032196 0.101155
-0.473504 -0.195535 0.027157
-0.473504 0.250294 0.183275
-0.446855 0.094543 0.114621
-0.446855 -0.070564 -0.204483
-0.473504 0.113392 0.11045
-0.473504 -0.061053 0.024204
-0.473504 -0.150198 0.177868
-0.446855 0.000957 -0.043842
-0.473504 0.020372 0.082558
-0.473504 -0.040779 -0.143406
-0.473504 -0.079244 0.114808
-0.473504 0.177572 0.103786
-0.446855 -0.093211 0.092569
-0.446855 -0.219187 -0.122173
-0.473504 -0.04299 0.163943
-0.446855 -0.093912 0.196888
-0.473504 -0.093739 -0.078607
-0.473504 0.229002 0.042178
-0.473504 0.011224 0.144681
-0.473504 0.135108 0.035812
-0.446855 -0.034017 -0.020884
-0.473504 -0.222789 -0.095928
-0.446855 0.192682 -0.174526
-0.473504 0.174042 -0.004897
-0.473504 0.036064 -0.052257
-0.446855 -0.080555 0.049048
-0.446855 -0.00317 -0.151335
-0.473504 0.150393 -0.098195
-0.446855 -0.194327 -0.245962
-0.446855 0.161295 -0.170681
-0.446855 0.233632 -0.016952
-0.473504 0.193372 -0.133403
-0.446855 -0.124515 0.052893
-0.473504 -0.13009 0.137223
-0.446855 -0.124913 -0.095281
-0.446855 -0.154529 -0.154777
-0.446855 0.147584 -0.234575
-0.473504 0.212034 -0.224653
-0.473504 -0.045457 -0.048989
-0.473504 -0.074261 -0.027294
-0.446855 0.238935 0.189299
-0.460675 0.054213 -0.251758
-0.473504 -0.141778 -0.052967
-0.473504 0.078987 -0.102364
-0.473504 0.06967 0.197701
-0.446855 0.034009 0.167613
-0.446855 -0.126549 -0.163454
-0.446855 -0.216778 -0.024709
-0.446855 0.074953 0.069583
-0.446855 -0.070235 0.00132
-0.446855 0.213878 -0.061623
-0.473504 -0.063162 0.182877
-0.446855 0.090945 -0.207276
-0.473504 0.072123 0.088133
-0.473504 -0.028622 -0.122896
-0.473504 -0.00288 -0.110665
-0.473504 -0.09632 0.053271
-0.446855 0.247426 -0.075173
-0.446855 -0.189918 0.112525
-0.446855 -0.00088 0.086624
-0.446855 -0.006763 -0.066083
-0.446855 0.166461 -0.08165
-0.446855 0.169416 0.008347
-0.473504 -0.066297 -0.099195
-0.449257 -0.028277 0.223476
-0.473504 -0.215902 0.057599
-0.446855 -0.067857 0.159149
-0.446855 -0.171072 -0.030808
-0.446855 0.089799 -0.156114
-0.446855 0.209709 0.031705
-0.473504 0.227041 0.01724
-0.446855 -0.204683 -0.161757
-0.473504 0.191885 0.163695
-0.446855 0.24171 -0.136784
-0.46744 -0.112785 0.223476
-0.446855 0.2371 0.060785
-0.446855 -0.006443 0.006321
-0.473504 -0.138929 0.029521
-0.446855 0.094927 -0.230895
-0.473504 -0.098684 -0.213206
-0.473504 -0.064042 0.0675
-0.446855 0.220942 -0.214783
-0.473504 0.104057 -0.152332
-0.473504 -0.164139 -0.24294
-0.446855 -0.136787 0.162958
-0.446855 -0.084203 -0.240917
-0.446855 0.188737 -0.079623
-0.473504 0.121291 0.163768
-0.473504 0.068364 0.130692
-0.473504 -0.103517 0.178688
-0.473504 -0.135046 -0.231463
-0.446855 -0.183417 -0.086678
-0.473504 -0.033528 0.035364
-0.473504 0.07781 -0.231196
-0.473504 0.213417 0.202898
-0.446855 0.201382 0.09712
-0.446855 0.115441 0.025496
-0.469891 -0.219485 0.223476
-0.446855 0.11742 -0.248259
-0.446855 -0.151625 0.122527
-0.446855 -0.160026 0.099096
-0.473504 -0.111337 -0.141501
-0.473504 0.146538 -0.01364
-0.446855 0.154916 0.100829
-0.446855 -0.048111 -0.133602
-0.460065 -0.210357 -0.251758
-0.473504 -0.147096 -0.125032
-0.473504 -0.107481 -0.095125
-0.473504 0.025665 -0.11823
-0.473504 -0.007014 -0.163121
-0.473504 -0.157859 0.050416
-0.473504 0.242261 0.08791
-0.473504 0.013179 -0.072572
-0.446855 0.146325 0.070181
-0.446855 -0.194792 0.167181
-0.470796 0.111804 -0.251758
-0.446855 -0.149202 -0.040007
-0.446855 -0.079846 0.212893
-0.446855 0.041718 -0.067179
-0.446855 0.153128 0.1971
-0.473504 0.057945 0.160377
-0.446855 0.055855 -0.176004
-0.446855 -0.196265 -0.043521
-0.446855 -0.092066 -0.039169
-0.473504 0.130327 -0.23635
-0.446855 0.113382 0.201024
-0.473504 -0.108286 0.002359
-0.446855 -0.001769 0.060059
-0.473504 -0.026237 0.079585
-0.473504 0.031726 -0.160671
-0.473504 -0.185332 0.122614
-0.473504 0.176549 0.147494
-0.446979 0.17567 0.223476
-0.473504 -0.108403 -0.181156
-0.473504 0.07982 -0.059003
-0.446855 0.116102 -0.019954
-0.473504 -0.128851 0.195603
-0.466065 0.089741 0.223476
-0.473504 -0.029021 -0.193799
-0.446855 -0.215547 0.089218
-0.446855 -0.127119 -0.006435
-0.473504 -0.175803 -0.074215
-0.446855 0.04769 -0.234015
-0.446855 0.088718 0.026426
-0.473504 -0.108948 0.14287
-0.446855 0.227025 0.122135
-0.462474 -0.058046 0.223476
-0.473504 0.020771 -0.034653
-0.446855 0.16845 -0.244303
-0.473504 0.066228 -0.018934
-0.473504 0.036411 -0.209549
-0.446855 -0.186158 0.043099
-0.473504 -0.220731 0.114644
-0.473504 -0.191664 0.201369
-0.457218 -0.010157 0.223476
-0.473504 -0.139432 -0.102981
-0.473504 0.009623 0.203432
-0.446855 -0.134417 0.192186
-0.473504 0.014087 0.024093
-0.473504 0.224237 -0.118578
-0.473504 0.128693 -0.039802
-0.446855 0.053463 0.038771
-0.446855 0.177809 0.133302
-0.473504 0.109484 -0.070121
-0.446855 -0.016237 0.125382
-0.446855 -0.225175 0.043667
-0.473504 -0.040059 0.065742
-0.446855 -0.148879 -0.02046
-0.473504 0.060231 -0.203517
-0.446855 0.087213 -0.068454
-0.473504 -0.2205 0.01456
-0.473504 0.192947 0.11555
-0.446855 -0.127033 -0.076083
-0.473504 -0.184169 0.101422
-0.470991 0.070495 -0.251758
-0.446855 0.154334 -0.203526
-0.448179 -0.226531 0.223476
-0.473504 -0.20136 -0.071499
-0.446855 -0.074342 -0.175217
-0.446855 -0.093664 -0.088491
-0.446855 0.104411 0.176251
-0.473504 -0.183101 -0.15658
-0.473504 0.250786 -0.218149
-0.446855 -0.166187 0.044461
-0.473504 -0.128833 -0.182189
-0.446855 0.013899 0.000124
-0.473504 -0.050495 0.206957
-0.466168 0.030481 0.223476
-0.446855 -0.187644 0.207361
-0.446855 0.192189 -0.004251
0.021716 0.034587 -0.062378
-0.004932 -0.017791 0.175523
-0.004932 -0.107645 -0.192215
0.021716 0.120676 0.083259
0.021716 -0.091373 0.030876
-0.004932 0.165903 -0.247861
-0.004932 -0.155862 0.161206
-0.004932 0.045652 -0.184845
-0.004932 0.156269 -0.069111
0.021716 0.0994 0.202112
0.021716 -0.130399 -0.083118
-0.004932 0.008944 0.066636
0.021716 -0.038376 -0.12542
-0.004932 0.203698 0.056201
0.021716 0.131044 -0.151798
0.021716 -0.179014 0.04265
-0.004932 0.173427 0.16799
-0.004932 0.089634 0.008355
-0.004932 -0.083612 0.12029
-0.004932 -0.029373 -0.020794
0.021716 0.044646 0.133305
-0.004932 -0.204988 -0.087036
0.021716 -0.096756 0.198661
0.021716 0.158367 0.003092
-0.004932 -0.156468 -0.021101
-0.004932 -0.181272 -0.166729
-0.004932 0.189273 -0.174948
-0.004932 0.064344 -0.120913
0.021716 0.105977 -0.218788
-0.004932 -0.02386 -0.195991
0.021716 0.209346 -0.035449
-0.004932 -0.074059 -0.070417
0.021716 -0.184246 0.111031
0.021716 0.020098 0.003551
0.021716 -0.125837 0.085087
0.021716 0.101029 -0.080193
0.021716 0.185643 -0.121075
-0.004932 -0.112992 -0.132215
-0.004932 0.072078 0.065334
0.021716 -0.049464 0.070933
-0.004932 -0.153243 -0.22507
0.021716 0.108611 0.138144
0.005079 -0.145274 0.223476
0.021716 -0.063427 -0.22501
0.021716 0.20816 0.104829
-0.004932 0.221347 -0.24582
-0.004932 0.051274 0.198124
0.021716 -0.091905 -0.025825
0.021716 -0.025112 -0.072659
0.021716 0.018877 -0.132039
-0.004932 -0.02997 0.121437
0.021716 -0.190574 -0.251742
-0.004852 0.15526 0.223476
-0.004932 0.163612 0.099804
-0.004932 0.215274 -0.07931
-0.004932 0.22648 0.157032
-0.004932 0.083233 -0.042361
-0.004932 -0.160549 -0.11928
0.021716 -0.043957 0.018557
0.021716 -0.194359 -0.036654
0.021716 0.225167 0.01397
0.021716 -0.048181 0.202403
0.021716 0.002683 0.209197
-0.004932 -0.141748 0.031576
0.021716 -0.056944 -0.168709
-0.004932 -0.203729 0.072377
0.021716 -0.109262 0.154236
0.021716 -0.191803 0.189986
-0.004932 0.119343 -0.116464
0.021716 0.04208 0.087118
-0.004932 -0.068119 0.171581
0.021716 0.070584 -0.157018
0.021716 0.149887 -0.192582
0.021716 0.017217 -0.21919
-0.004932 -0.085453 0.069309
0.021716 0.130826 0.039671
0.021716 0.114298 -0.024421
0.021716 -0.143018 -0.189186
-0.004932 0.099943 -0.184052
-0.004932 0.044839 0.030811
0.021716 -0.128498 -0.000951
0.021716 0.189691 -0.209936
0.021716 -0.106887 -0.22648
-0.004932 0.07682 0.150521
-0.004932 0.227901 -0.155624
-0.004932 0.022831 -0.029331
0.021716 -0.000118 0.134872
-0.004932 -0.012221 0.025552
0.021716 0.150583 0.140113
-0.004932 0.1772 -0.031954
0.021716 -0.077312 -0.102443
-0.004932 -0.225498 -0.180107
-0.004932 0.162788 0.037957
0.021716 0.19866 0.196869
-0.004932 -0.00147 -0.16112
-0.004932 -0.162933 0.079319
0.021716 -0.187421 -0.134035
0.021716 0.164675 0.068282
0.021716 -0.105206 -0.161969
-0.004932 0.101905 0.10677
0.021716 0.247121 0.190021
-0.004932 -0.127995 0.114768
-0.004932 -0.217854 0.128758
-0.004932 0.05312 -0.22389
-0.004932 -0.012172 -0.098724
0.021716 -0.129494 -0.043674
-0.004932 0.023245 0.113897
-0.004932 0.238992 0.091594
-0.004932 0.155364 -0.131326
-0.004932 0.116063 0.179442
-0.004932 -0.140095 -0.159709
0.021716 -0.137992 0.18267
0.021716 0.147734 0.178933
-0.004932 0.039231 0.161479
0.001529 -0.076223 0.223476
-0.004932 -0.159272 -0.081359
0.021716 -0.042442 0.145373
-0.004932 0.058601 -0.074519
0.021716 -0.006354 -0.034313
-0.004932 0.129771 -0.235052
0.021716 0.090146 0.046
-0.004932 -0.010018 -0.236762
0.021716 0.048324 -0.023282
-0.004932 -0.089775 0.000235
0.021716 -0.196093 -0.214875
0.021716 -0.020592 0.094112
-0.004932 -0.103982 -0.0487
0.021716 -0.079693 0.093908
-0.004932 0.181261 0.131664
-0.004932 -0.050711 0.04241
0.021716 -0.055561 -0.02653
0.021716 0.002592 -0.1855
0.021716 0.22293 -0.179663
0.005887 0.075002 0.223476
0.021716 0.077652 0.105718
0.021716 0.073323 -0.203967
0.021716 0.221126 -0.102109
0.021716 0.223564 -0.220694
-0.004932 0.034585 -0.10067
-0.004932 -0.050657 -0.145396
0.021716 0.001721 0.043967
-0.004932 -0.190426 0.166493
0.021716 0.137375 -0.081185
0.021716 -0.199949 -0.178992
-0.004932 -0.186327 -0.057354
-0.004932 -0.216219 -0.026182
0.021716 -0.149101 -0.137901
-0.004932 0.129272 0.131151
0.021716 -0.164954 -0.060531
-0.004932 -0.186759 -0.00546
0.021716 0.074515 -0.101173
0.021716 -0.217152 0.032874
-0.004932 -0.085293 -0.236035
0.021716 0.208747 0.146449
0.021716 0.017686 0.163438
0.021716 0.070869 0.169917
0.021716 -0.087629 -0.19428
-0.004932 -0.050685 -0.109772
-0.004932 0.061063 0.116678
0.021716 -0.156306 0.018428
-0.004932 0.122443 0.012336
-0.004932 -0.016537 -0.13177
-0.004932 -0.04669 0.089965
-0.004932 0.23531 0.125524
0.021716 -0.075867 0.137585
-0.004932 0.20055 -0.132752
-0.00141 -0.039164 0.223476
-0.004932 0.052917 -0.151707
-0.004932 -0.10991 0.048097
0.021716 0.231796 -0.058749
-0.004932 -0.183313 0.129349
-0.004932 -0.111986 0.188512
-0.002275 0.106181 0.223476
0.021716 -0.090477 -0.060383
-0.004932 -0.066197 -0.207494
0.019743 -0.116612 0.223476
-0.004932 0.128505 -0.168923
-0.004932 -0.131478 -0.106371
0.021716 0.212067 -0.148825
-0.004932 -0.033467 -0.057863
-0.004932 -0.159633 -0.192485
0.021716 -0.189796 0.011083
-0.004932 0.013638 -0.197979
0.021716 0.206779 0.072484
-0.000286 0.033475 0.223476
-0.004932 -0.066266 -0.038889
0.021716 -0.081347 -0.133417
0.021716 0.142571 -0.121306
0.021716 0.161553 -0.223439
-0.004932 0.014694 0.198623
-0.004932 0.019552 -0.067417
-0.004932 0.236407 -0.125821
-0.004932 -0.059351 -0.004329
0.021716 0.178091 0.03861
-0.004932 0.0892 -0.238818
0.021716 -0.154501 0.067028
-0.004932 0.04184 -0.005488
0.021716 0.14471 -0.026646
0.021716 0.170102 0.222597
0.021716 -0.151485 -0.239617
0.021716 0.198196 -0.082304
-0.004932 0.159713 -0.168424
0.021716 -0.039556 -0.206629
-0.004932 0.113958 -0.076197
0.021716 -0.168972 -0.174398
-0.004932 -0.148179 -0.053675
0.021716 -0.192352 -0.091412
0.021716 0.100299 -0.158785
0.021716 0.17811 -0.181963
-0.004932 -0.085471 -0.120916
0.021716 -0.054442 -0.068191
0.021716 0.108323 -0.109518
-0.004932 -0.153358 0.196793
-0.004932 -0.200916 -0.125715
-0.004932 0.101117 0.039268
0.021716 -0.01665 0.162716
0.021716 -0.207423 0.092825
-0.004932 0.201138 0.094431
-0.004932 0.185706 -0.068407
0.021716 -0.218629 -0.013906
0.021716 0.032012 -0.186496
-0.004932 0.143349 0.190452
0.021716 0.07943 0.001541
-0.004932 0.233375 0.062814
0.021716 0.243994 0.117102
-0.004932 0.047333 -0.045248
0.021716 0.179361 0.144886
-0.004932 -0.168897 0.048849
0.021716 0.071577 -0.044175
0.021716 -0.179526 0.140512
-0.004932 -0.038419 -0.24288
0.021716 -0.043864 0.111447
-0.004932 0.221429 -0.190927
-0.004932 0.120409 -0.204464
0.021716 0.181676 -0.043466
0.021716 -0.122456 -0.112463
0.021716 0.077602 0.139776
-0.004932 0.011675 0.153442
-0.004932 -0.136062 0.059818
0.021716 0.061599 0.046183
-0.004932 -0.117478 0.14814
-0.004932 0.215254 0.011798
0.021716 -0.010774 -0.157287
0.021716 0.178727 0.176463
-0.004932 -0.204616 -0.209944
-0.004932 0.0078 0.005462
-0.004932 -0.08355 0.036535
-0.004932 0.197598 -0.215132
-0.004932 -0.160526 0.010056
-0.004932 0.123589 -0.023693
0.021716 -0.016108 0.066294
0.021716 -0.135379 0.037877
-0.004932 -0.122842 -0.069488
0.021716 -0.020748 -0.010218
0.021716 0.003071 -0.060716
0.021716 -0.082709 0.061127
-0.004932 -0.096952 0.094849
0.021716 0.031045 -0.092838
0.021716 -0.203677 0.057325
-0.004932 0.217162 -0.032778
-0.004932 0.080982 -0.096241
0.021716 0.014403 0.090276
-0.004932 0.092283 -0.210782
-0.004932 0.195795 0.204098
0.021716 -0.151915 -0.100648
0.021716 0.04648 -0.134599
0.021716 -0.015676 -0.109518
0.021716 0.058814 0.198719
0.021716 -0.108082 0.126569
-0.004932 0.04449 0.063306
-0.004932 0.190983 0.031652
0.021716 -0.158019 0.201852
0.021716 0.242317 -0.122469
0.021716 -0.219907 0.134796
0.021716 0.0843 0.079219
-0.004932 -0.062429 -0.171035
0.021716 0.083224 -0.233853
-0.004932 0.041806 0.093916
0.021716 0.123939 0.16561
0.021716 -0.160841 0.097164
-0.004932 0.016721 -0.136872
-0.004932 -0.060627 0.134694
-0.004932 0.02604 -0.166125
-0.004932 0.248836 0.207646
-0.004932 0.152898 0.150345
-0.004932 -0.192312 0.194623
-0.004932 -0.089981 0.155826
-0.004932 0.175987 -0.114014
-0.004932 -0.226243 0.023428
-0.004932 -0.127474 -0.218084
0.021716 0.057367 -0.076294
-0.004932 -0.179481 -0.218656
0.021716 -0.008639 -0.21298
0.021716 0.085586 -0.135082
0.021716 -0.117235 -0.195102
0.021716 0.016215 -0.162853
-0.004932 0.071613 0.176394
0.021716 0.205905 -0.003897
0.021716 -0.132273 -0.157886
0.014076 -0.181129 0.223476
-0.004932 0.210245 0.177359
0.021716 0.087168 -0.1812
0.021716 -0.085544 0.164747
-0.004932 0.24134 -0.022243
0.021716 0.107051 -0.055125
0.018875 0.12087 0.223476
-0.004932 0.043392 0.13535
0.021716 -0.169005 -0.032473
-0.004932 0.064136 0.013955
0.021716 0.125302 -0.202103
-0.004932 0.201218 -0.100589
-0.004932 0.190444 -0.240983
0.021716 0.135026 0.104251
-0.004932 -0.026738 -0.158603
0.021716 0.117999 -0.242818
-0.004932 -0.068438 0.200198
-0.004932 -0.17047 0.10353
-0.004932 0.244633 -0.071819
-0.004932 0.175169 -0.147043
0.021716 -0.035073 -0.150577
0.021716 0.061962 -0.18118
0.00599 -0.110581 -0.251758
-0.004932 0.126753 0.20962
-0.004932 0.023211 0.046329
0.021716 0.112204 -0.135647
0.021716 0.085071 -0.022566
0.021716 0.128525 -0.004213
0.021716 -0.058819 -0.144155
-0.004932 0.159253 -0.015166
0.021716 0.10123 0.112388
-0.004932 -0.027546 0.050378
-0.004932 0.157526 0.125769
-0.004932 -0.179144 -0.136849
-0.004932 -0.123526 0.219221
0.021716 0.000489 0.019684
-0.004932 0.019157 -0.221551
0.021716 -0.005684 -0.0875
0.021716 0.046768 0.171548
0.021716 -0.112653 0.046005
0.021716 -0.177266 0.17077
-0.004932 0.221094 0.039581
-0.004932 -0.201807 -0.183286
0.021716 -0.055909 0.165109
-0.004932 -0.03241 -0.219756
0.021716 0.239433 -0.198678
-0.004932 -0.145984 0.099192
-0.004932 -0.096578 0.213024
0.021716 0.115501 0.060105
-0.004932 -0.005695 -0.019387
-0.004932 -0.003274 0.086823
-0.004932 0.156887 0.077241
0.021716 -0.22456 -0.197727
-0.004932 -0.013467 0.138155
-0.004932 -0.007607 0.205934
-0.004932 -0.141233 0.14293
0.021716 0.225814 0.180633
-0.004932 -0.210436 0.040488
0.021716 -0.099202 -0.112574
-0.004932 -0.103203 -0.169477
-0.004932 0.134135 -0.062269
0.021716 -0.119762 0.200575
0.021716 -0.063529 0.048324
0.021716 -0.060684 -0.11966
0.021716 0.119438 0.188206
-0.004932 -0.033817 0.017543
0.021716 0.142467 0.075895
-0.004932 0.145261 0.023068
-0.004932 -0.169796 -0.24543
0.021716 0.046422 -0.239988
-0.004932 -0.185605 0.086362
0.021716 -0.05705 -0.090909
0.021716 -0.195881 -0.155088
-0.004932 -0.203722 0.11101
-0.004932 -0.132914 -0.037087
-0.004932 -0.061709 0.062042
0.021716 -0.185478 0.087891
-0.004932 -0.067105 0.099204
0.021716 -0.098706 0.076788
0.021716 0.024731 0.213041
-0.002788 0.115203 -0.251758
-0.004932 -0.18214 -0.113776
0.016485 0.170305 -0.251758
-0.004932 -0.142759 -0.003062
-0.004932 0.016519 0.17668
-0.004932 -0.089629 -0.214572
-0.004932 -0.058922 0.01747
0.021716 0.056937 0.07118
0.021716 0.173746 -0.023183
-0.004932 0.163092 0.19942
0.021716 0.000919 -0.233414
0.011378 -0.056593 0.223476
0.021716 0.205087 -0.194799
-0.004932 0.00178 0.116142
0.021716 0.09116 0.177251
-0.004932 0.064993 -0.205944
-0.004932 -0.221374 -0.116955
0.021716 0.193724 0.055496
-0.004932 -0.176363 -0.028884
-0.004932 0.100158 -0.1628
-0.004932 0.1034 -0.049067
-0.004932 0.208613 -0.164528
0.002205 0.012399 0.223476
0.021716 0.128715 0.016821
-0.004932 -0.108687 -0.227542
0.021716 0.048845 0.112758
0.021716 -0.110043 0.098834
-0.004932 0.068282 -0.027704
0.021716 -0.127661 -0.224072
0.016501 -0.028419 0.223476
0.021716 0.229607 0.145726
0.021716 -0.020296 -0.135882
-0.004932 -0.17476 0.180235
0.021716 0.05813 0.153504
0.021716 0.15054 0.022293
0.021716 0.081213 0.027313
-0.004932 0.145317 -0.149405
0.006748 0.052918 0.223476
-0.004932 0.0821 0.100936
-0.004932 0.100478 -0.102625
0.021716 0.048785 -0.002814
-0.004932 0.145882 0.170195
-0.004932 0.095991 0.059016
-0.004932 0.054301 -0.094456
0.021716 -0.170219 -0.250619
-0.004932 -0.025374 0.101591
-0.004932 0.09196 0.175523
0.021716 0.164131 0.19098
0.021716 -0.198397 -0.013813
0.021716 0.232149 -0.240486
0.021716 0.103789 -0.198689
0.021716 -0.101878 -0.008346
-0.004932 -0.077735 -0.102392
0.021716 -0.156081 -0.159036
0.021716 0.127186 -0.102716
0.021716 0.237335 -0.090365
0.021716 -0.115636 -0.13114
-0.004932 -0.160965 0.216521
0.021716 -0.039559 -0.003827
-0.004932 0.102098 -0.126279
0.021716 -0.017042 -0.182746
