0.39011 -0.026398 -0.377243
-0.012336 -0.57334 -0.377243
0.14152 -0.690154 -0.368354
0.276047 0.170259 -0.377243
0.280792 -0.023799 -0.368354
0.229747 0.059153 -0.377243
-0.219751 0.503217 -0.377243
-0.094205 -0.125794 -0.368354
-0.299845 -0.565726 -0.377243
-0.22381 0.015095 -0.377243
0.085445 0.416659 -0.377243
-0.287325 0.734179 -0.377243
-0.013937 0.649497 -0.377243
0.157378 0.686286 -0.368354
0.222722 0.625717 -0.377243
-0.098637 0.262035 -0.377243
0.257642 -0.463596 -0.368354
0.252331 0.721016 -0.368354
0.202969 -0.22341 -0.368354
0.087125 0.610687 -0.377243
-0.216825 -0.217006 -0.368354
-0.357661 -0.359485 -0.368354
0.132695 0.301102 -0.368354
-0.305363 0.002476 -0.368354
-0.015404 -0.653226 -0.368354
0.360024 0.579617 -0.368354
0.087471 0.564541 -0.368354
-0.016474 0.700484 -0.377243
0.180894 0.643725 -0.377243
0.128008 0.037413 -0.377243
-0.155498 0.345505 -0.368354
0.002318 -0.026527 -0.377243
0.027675 0.255044 -0.368354
-0.389022 0.462608 -0.368354
-0.33786 0.352857 -0.377243
-0.104225 0.695109 -0.368354
0.213798 0.406387 -0.377243
-0.108479 0.597522 -0.368354
0.337779 -0.497194 -0.377243
0.382646 -0.388578 -0.377243
0.055332 0.118807 -0.368354
-0.26421 0.686674 -0.377243
0.246034 0.028949 -0.368354
0.29914 0.576776 -0.377243
0.301218 -0.183583 -0.368354
-0.06947 0.104882 -0.377243
-0.085918 -0.341261 -0.377243
0.045723 0.466785 -0.377243
0.282049 0.697745 -0.377243
-0.322875 -0.624788 -0.377243
-0.223783 -0.248888 -0.377243
0.225316 -0.711704 -0.368354
-0.175837 -0.466483 -0.377243
0.323545 -0.369427 -0.368354
0.37075 0.272945 -0.377243
-0.073229 -0.479939 -0.377243
0.112552 -0.196896 -0.368354
-0.372064 -0.018669 -0.368354
0.11818 0.370314 -0.368354
0.392431 0.35651 -0.377243
0.133861 -0.455908 -0.368354
-0.385247 0.514181 -0.377243
0.36767 -0.463983 -0.368354
-0.116606 -0.193186 -0.377243
-0.208013 -0.091432 -0.377243
-0.210683 -0.722657 -0.368354
0.251533 0.643055 -0.368354
-0.024241 0.096704 -0.377243
-0.323674 -0.499632 -0.377243
-0.340194 -0.700357 -0.368354
-0.153954 0.2473 -0.368354
-0.115638 0.740181 -0.368354
-0.135149 0.024688 -0.377243
-0.257398 -0.694298 -0.377243
-0.001208 -0.252946 -0.368354
0.009227 -0.459054 -0.368354
-0.05713 -0.44622 -0.368354
-0.363344 0.712833 -0.377243
0.223921 -0.517157 -0.368354
0.37679 0.306614 -0.377243
0.186796 -0.168039 -0.377243
-0.051129 0.338467 -0.377243
0.223768 -0.418424 -0.368354
0.068811 0.742472 -0.368354
0.106909 -0.090903 -0.368354
0.329859 0.465296 -0.368354
-0.003185 0.14477 -0.368354
0.187522 0.085826 -0.368354
-0.140674 0.661535 -0.377243
0.325464 0.28355 -0.377243
0.362094 -0.359934 -0.377243
-0.390732 -0.485047 -0.377243
-0.310443 0.374709 -0.377243
-0.073467 -0.710299 -0.377243
-0.105429 0.223986 -0.368354
0.003695 0.427031 -0.368354
0.346731 0.385924 -0.377243
0.167212 -0.142101 -0.377243
0.001025 0.352839 -0.377243
-0.199161 0.575747 -0.377243
0.104372 -0.426435 -0.377243
0.032959 -0.273199 -0.377243
0.166593 -0.096825 -0.377243
-0.182947 -0.113625 -0.377243
-0.020254 0.507549 -0.368354
-0.155021 -0.622056 -0.368354
0.300922 0.303935 -0.368354
-0.365433 -0.28129 -0.368354
-0.400752 -0.102913 -0.375807
-0.177231 0.417466 -0.368354
-0.244904 0.137141 -0.377243
0.043652 0.053227 -0.368354
0.284138 -0.543411 -0.377243
-0.154655 0.472838 -0.368354
0.349179 -0.262859 -0.377243
-0.196695 0.472829 -0.368354
-0.206558 0.049807 -0.368354
-0.021373 0.268137 -0.368354
0.143779 0.210748 -0.377243
-0.051418 -0.238149 -0.377243
0.223758 0.598468 -0.377243
0.02276 0.282994 -0.377243
-0.076115 0.516929 -0.377243
0.28517 0.353805 -0.377243
0.001586 -0.702222 -0.377243
-0.038437 -0.415773 -0.377243
-0.028133 -0.371818 -0.377243
-0.055852 0.406679 -0.368354
-0.074556 0.28638 -0.368354
-0.215532 -0.500867 -0.377243
-0.383241 -0.197833 -0.377243
0.281025 -0.161945 -0.377243
-0.084349 -0.603267 -0.377243
0.353473 -0.524831 -0.368354
-0.203619 -0.295075 -0.368354
0.079285 -0.244873 -0.377243
0.276187 0.666454 -0.368354
-0.061718 0.711717 -0.377243
0.283171 0.090113 -0.377243
0.129546 -0.170114 -0.377243
0.35964 0.550996 -0.377243
-0.275491 0.342 -0.368354
-0.0776 -0.367766 -0.377243
-0.317176 -0.13105 -0.377243
-0.199999 0.600811 -0.368354
0.325932 -0.165713 -0.377243
0.02596 0.339133 -0.377243
0.344436 -0.039195 -0.368354
-0.35045 -0.54621 -0.377243
-0.193791 -0.038262 -0.377243
-0.333739 0.171599 -0.377243
-0.316781 0.081981 -0.368354
0.172873 0.371244 -0.368354
-0.263974 0.153128 -0.368354
0.03393 -0.584866 -0.368354
-0.340248 0.24659 -0.377243
0.104729 -0.23793 -0.368354
0.034231 0.583918 -0.377243
0.197877 -0.473154 -0.377243
0.064602 -0.747815 -0.368354
0.312799 -0.4613 -0.368354
0.081405 -0.321274 -0.377243
-0.40013 0.057374 -0.377243
0.310107 -0.668562 -0.368354
0.235382 0.422405 -0.368354
-0.118055 -0.153894 -0.368354
-0.00216 0.542791 -0.377243
-0.382963 0.731422 -0.377243
-0.229308 -0.075407 -0.377243
0.144903 0.011371 -0.377243
0.030402 0.198146 -0.368354
0.241034 0.111458 -0.377243
-0.243562 -0.315726 -0.377243
-0.171697 0.265671 -0.377243
0.312903 -0.311932 -0.377243
-0.224973 0.357731 -0.368354
-0.369 -0.058287 -0.368354
0.362936 -0.586131 -0.377243
0.21193 -0.31925 -0.377243
-0.364398 0.273165 -0.368354
0.390483 0.168292 -0.377243
-0.148976 -0.49133 -0.377243
0.160315 0.425141 -0.377243
0.286298 -0.490529 -0.377243
0.196284 -0.517206 -0.368354
0.108309 -0.470937 -0.377243
-0.000557 -0.31667 -0.368354
0.225237 -0.457835 -0.368354
-0.278011 0.508061 -0.377243
0.217872 -0.056738 -0.368354
-0.151727 0.732681 -0.377243
-0.107029 -0.516189 -0.368354
0.379029 0.378259 -0.377243
0.15322 0.345791 -0.368354
0.346308 -0.752514 -0.368354
-0.243297 -0.363652 -0.377243
-0.193324 -0.205159 -0.377243
-0.07588 0.202946 -0.377243
-0.304407 -0.057701 -0.377243
0.10338 0.155164 -0.377243
-0.013728 0.219179 -0.368354
-0.003862 -0.755225 -0.368354
-0.05911 -0.018815 -0.377243
0.277885 -0.692472 -0.377243
0.309769 -0.281786 -0.368354
0.19969 0.471515 -0.368354
0.040518 -0.295655 -0.368354
0.299132 -0.581757 -0.377243
-0.195116 -0.612685 -0.368354
-0.363027 -0.694194 -0.377243
-0.198415 -0.250871 -0.377243
0.131122 0.601847 -0.377243
0.076565 0.25536 -0.377243
0.074541 0.472677 -0.377243
-0.183923 0.734496 -0.377243
0.391601 0.000584 -0.377243
0.040247 0.711218 -0.368354
0.35871 0.646797 -0.368354
-0.176061 0.034082 -0.377243
-0.277632 0.06361 -0.377243
0.225607 0.254868 -0.368354
-0.007045 -0.224582 -0.377243
-0.011958 0.244743 -0.368354
-0.039388 -0.218117 -0.368354
0.14663 0.169267 -0.368354
-0.398379 0.020472 -0.368354
0.326248 0.087186 -0.368354
0.281163 0.192964 -0.368354
-0.368522 -0.118547 -0.368354
-0.18794 0.173764 -0.368354
-0.366836 0.645042 -0.368354
-0.067254 0.033547 -0.377243
-0.063009 -0.336832 -0.368354
0.107107 -0.638739 -0.368354
-0.099029 -0.493715 -0.377243
-0.112162 0.716899 -0.377243
-0.199296 -0.660124 -0.368354
-0.070637 0.546977 -0.377243
0.218484 0.54983 -0.377243
-0.245833 0.320109 -0.368354
0.074055 -0.386402 -0.368354
-0.400752 0.143148 -0.370201
-0.112026 -0.804115 -0.403908
0.00209 -0.813831 0.084846
0.335055 -0.813831 -0.037947
0.089504 -0.813831 -0.195734
-0.174541 -0.778278 -0.129935
-0.369757 -0.813831 -0.298339
-0.202669 -0.778278 0.198479
0.196226 -0.813831 0.214228
0.206305 -0.813831 -0.378684
-0.000112 -0.813831 0.293189
0.321697 -0.778278 -0.228202
0.153887 -0.778278 -0.027944
-0.256 -0.813831 0.021
-0.282591 -0.813831 0.345413
-0.024415 -0.813831 -0.085634
0.316454 -0.778278 0.111024
-0.071992 -0.813831 -0.257865
-0.221289 -0.813831 -0.280234
-0.31719 -0.778278 -0.159746
-0.131475 -0.778278 0.071621
0.324499 -0.813831 0.311781
0.230491 -0.813831 -0.139227
0.188947 -0.813831 0.344998
-0.276778 -0.813831 -0.397921
0.137557 -0.813831 0.096098
-0.131542 -0.813831 0.299003
-0.309082 -0.813831 0.142101
-0.078016 -0.778278 0.186623
0.192863 -0.778278 -0.262242
0.061045 -0.778278 0.195337
0.081347 -0.813831 -0.304638
0.252528 -0.778278 0.021173
0.333991 -0.778278 -0.333059
-0.318147 -0.813831 -0.062265
-0.139088 -0.778278 -0.033012
0.293258 -0.778278 0.210568
-0.3722 -0.813831 0.060391
0.094217 -0.778278 0.340149
-0.306745 -0.778278 0.236698
0.107638 -0.813831 -0.401943
0.042705 -0.778278 -0.020354
0.340177 -0.813831 -0.138133
-0.025204 -0.778278 -0.175537
-0.026202 -0.813831 -0.360726
0.090939 -0.778278 -0.102012
-0.050969 -0.778278 -0.001158
-0.154585 -0.778278 -0.219359
0.232127 -0.813831 0.110863
-0.137659 -0.778278 -0.318804
0.016001 -0.778278 -0.254696
-0.20634 -0.813831 0.102836
-0.229988 -0.813831 -0.063567
-0.073474 -0.778278 0.352172
-0.292679 -0.778278 -0.247297
0.123385 -0.778278 0.259134
0.239732 -0.778278 -0.061308
-0.228549 -0.813831 -0.182058
0.358292 -0.813831 0.041783
-0.226415 -0.813831 0.28494
-0.10706 -0.813831 -0.099558
0.308892 -0.810396 -0.403908
0.160625 -0.778278 -0.162174
-0.354874 -0.778278 0.340341
0.101619 -0.778278 0.033948
0.00295 -0.813831 0.374313
0.319809 -0.813831 0.391727
0.14902 -0.778278 -0.328345
-0.283069 -0.778278 -0.327791
-0.188162 -0.778278 0.343417
-0.141064 -0.813831 0.146134
0.133537 -0.778278 0.168221
-0.067621 -0.813831 0.119113
0.25242 -0.813831 -0.230035
0.270654 -0.813831 -0.309653
-0.285992 -0.778278 0.080072
0.243844 -0.778278 0.308569
-0.098649 -0.813831 -0.185062
-0.017614 -0.813831 0.210833
0.178026 -0.778278 0.046746
-0.390082 -0.813831 -0.114528
-0.371331 -0.813831 0.227915
-0.070682 -0.813831 0.259539
-0.19376 -0.778278 0.027228
0.369372 -0.778278 0.259114
-0.351173 -0.778278 -0.009516
0.03786 -0.813831 -0.394152
-0.360671 -0.813831 -0.203059
0.080076 -0.778278 0.112307
-0.272199 -0.778278 -0.107177
-0.367908 -0.778278 0.168978
0.06541 -0.813831 0.272041
-0.169752 -0.813831 -0.367763
0.027899 -0.813831 -0.155418
0.250784 -0.813831 0.252073
-0.170227 -0.778278 0.258621
0.240296 -0.813831 0.395181
-0.2465 -0.778278 0.140105
0.144389 -0.813831 -0.091623
0.123975 -0.778278 -0.237301
0.047084 -0.813831 0.038466
0.283252 -0.778278 -0.150245
-0.083169 -0.813831 -0.330493
0.244248 -0.778278 0.162829
0.365934 -0.813831 0.166437
-0.100617 -0.813831 0.017236
0.36837 -0.778278 0.345143
0.181198 -0.778278 0.285223
-0.231027 -0.813831 -0.353787
0.205714 -0.813831 -0.022572
0.195886 -0.813831 -0.203236
0.186034 -0.778278 0.132815
-0.351957 -0.813831 0.289479
0.346617 -0.813831 -0.272399
-0.148997 -0.813831 0.212736
0.110885 -0.813831 0.387874
0.300398 -0.813831 -0.090848
0.045235 -0.813831 -0.081606
0.040534 -0.813831 0.142271
0.2961 -0.813831 0.044746
0.105125 -0.813831 -0.021161
-0.298282 -0.778278 0.299148
-0.001481 -0.813831 -0.305607
-0.188413 -0.778278 0.402736
0.209018 -0.778278 -0.331464
-0.231621 -0.813831 0.383992
-0.054795 -0.778278 0.057686
-0.152197 -0.813831 -0.274342
-0.173752 -0.813831 -0.078599
-0.267919 -0.778278 -0.023513
-0.247586 -0.813831 0.208307
-0.063393 -0.778278 -0.057721
0.036418 -0.778278 0.341736
-0.117086 -0.813831 0.365404
-0.053274 -0.813831 -0.140307
-0.216657 -0.778278 -0.225322
0.148834 -0.813831 -0.274528
-0.312901 -0.813831 0.016317
0.369243 -0.778278 -0.005522
0.31214 -0.778278 0.003628
0.116889 -0.813831 0.302599
0.00905 -0.778278 0.245285
0.296529 -0.778278 0.356073
0.02089 -0.813831 -0.21044
0.199927 -0.813831 -0.092964
0.301661 -0.813831 0.169273
0.002596 -0.778278 -0.117979
0.376295 -0.778278 -0.220218
-0.089802 -0.778278 0.299632
0.398536 -0.813831 0.373684
-0.372655 -0.813831 -0.062067
0.102304 -0.813831 0.19633
-0.045271 -0.778278 -0.22607
-0.340012 -0.778278 0.086112
0.101222 -0.813831 -0.142685
0.378152 -0.813831 -0.346619
-0.040984 -0.778278 -0.315643
-0.311623 -0.813831 -0.116748
0.287541 -0.778278 0.269138
0.342882 -0.778278 -0.077651
-0.273674 -0.778278 -0.196928
-0.400752 -0.813035 -0.005339
0.305485 -0.778278 -0.279333
-0.242739 -0.778278 0.340409
0.153142 -0.813831 -0.371559
-0.369478 -0.813831 -0.351794
-0.330808 -0.813831 -0.25833
-0.19044 -0.778278 -0.330505
-0.370479 -0.778278 -0.252124
-0.330867 -0.778278 -0.304397
-0.193569 -0.813831 0.160589
0.225377 -0.778278 0.072546
-0.091191 -0.813831 0.070674
-0.158928 -0.813831 -0.181108
-0.112474 -0.778278 0.12047
0.0021 -0.813831 -0.040574
-0.107854 -0.778278 0.250688
-0.094895 -0.778278 -0.289278
0.060033 -0.813831 0.377236
-0.156581 -0.813831 0.020066
-0.370215 -0.813831 0.131323
-0.302826 -0.778278 0.185018
0.004368 -0.778278 0.133987
-0.093225 -0.778278 0.399566
0.376793 -0.813831 -0.102198
-0.224192 -0.778278 -0.142146
-0.255804 -0.778278 0.41157
0.106168 -0.813831 0.138054
0.047196 -0.813831 -0.343963
0.159974 -0.778278 0.211594
-0.311598 -0.778278 0.366467
0.256051 -0.813831 -0.018744
0.249536 -0.813831 0.345711
0.062954 -0.778278 -0.218713
-0.278926 -0.813831 -0.292923
0.29341 -0.813831 -0.356622
-0.308463 -0.813831 -0.198644
0.007765 -0.778278 -0.353278
0.036048 -0.778278 -0.299933
-0.166154 -0.813831 0.074089
0.359946 -0.813831 0.226127
0.22548 -0.813831 -0.289805
-0.045814 -0.778278 0.230084
0.142041 -0.778278 0.329167
-0.026607 -0.778278 0.338038
-0.094802 -0.813831 -0.045721
-0.225286 -0.778278 0.075065
0.226467 -0.778278 0.229263
0.132575 -0.813831 0.021715
-0.362319 -0.778278 -0.139095
0.047378 -0.813831 -0.264474
0.155562 -0.813831 0.264586
0.05332 -0.778278 0.070485
-0.125084 -0.813831 -0.144806
-0.158029 -0.778278 0.173811
0.344621 -0.778278 0.07118
-0.273848 -0.813831 -0.146387
-0.280654 -0.813831 0.25561
-0.200501 -0.778278 -0.051356
-0.188194 -0.778278 -0.282893
-0.329766 -0.813831 0.204625
-0.31357 -0.813831 -0.33524
0.230135 -0.778278 -0.207923
-0.040896 -0.813831 0.028551
-0.229937 -0.813831 -0.111382
0.164337 -0.813831 0.163231
0.101857 -0.778278 -0.331811
0.329007 -0.778278 -0.167011
0.277329 -0.813831 -0.180627
0.011209 -0.778278 -0.070148
-0.016633 -0.813831 -0.238639
-0.195949 -0.813831 0.242083
-0.024038 -0.813831 0.145186
0.207401 -0.813831 0.03848
-0.345226 -0.813831 0.391224
0.122544 -0.778278 -0.289759
-0.008786 -0.809702 -0.403908
-0.252046 -0.813831 0.093091
0.16692 -0.778278 -0.111778
0.241427 -0.813831 0.202932
-0.140002 -0.778278 0.327791
0.285778 -0.778278 0.072848
-0.177507 -0.813831 0.292442
0.082299 -0.778278 -0.167019
-0.055595 -0.778278 -0.103269
-0.061286 -0.813831 0.306675
0.207834 -0.778278 0.382147
-0.311868 -0.813831 0.066833
-0.173746 -0.813831 -0.032844
0.179956 -0.813831 0.394148
0.391465 -0.813831 -0.263995
0.354175 -0.813831 0.098799
-0.161646 -0.813831 0.358764
0.018557 -0.778278 0.017607
0.042857 -0.813831 0.215819
0.292666 -0.778278 -0.064686
-0.130965 -0.778278 -0.111739
-0.141341 -0.778278 0.376873
0.092583 -0.813831 -0.063885
0.169415 -0.778278 0.090429
0.035265 -0.778278 -0.180942
-0.115729 -0.813831 0.182571
-0.065276 -0.813831 -0.381754
-0.290391 -0.778278 -0.061769
0.27396 -0.778278 -0.338667
0.253865 -0.813831 0.057934
0.189559 -0.778278 -0.054113
0.220734 -0.813831 0.296032
0.097647 -0.813831 0.07717
-0.365669 -0.778278 0.267267
0.182589 -0.813831 -0.302882
-0.267969 -0.813831 -0.239096
-0.396786 -0.778278 -0.300045
0.084916 -0.778278 0.23765
-0.219216 -0.813831 0.329611
-0.192498 -0.778278 -0.172493
0.118756 -0.778278 -0.191384
-0.243078 -0.778278 -0.266707
0.260831 -0.778278 -0.286148
0.310994 -0.813831 0.085804
-0.321253 -0.813831 -0.381604
0.057129 -0.813831 0.314905
-0.051404 -0.778278 0.275898
-0.258745 -0.778278 0.046047
0.164708 -0.778278 -0.222078
0.124043 -0.813831 0.346548
0.055982 -0.778278 -0.127514
-0.386502 -0.778278 0.081725
-0.076329 -0.778278 -0.148745
-0.025296 -0.778278 -0.26726
-0.400752 -0.806683 -0.217383
-0.357285 -0.80594 -0.403908
0.38618 -0.778278 0.054919
0.283409 -0.807619 0.413822
0.347103 -0.813831 0.267614
0.209437 -0.778278 -0.116695
0.312292 -0.813831 -0.206335
-0.101842 -0.778278 -0.076558
-0.056089 -0.778278 0.150054
0.291963 -0.813831 -0.245962
0.392552 -0.778278 0.207507
0.203193 -0.778278 0.174038
-0.366695 -0.778278 0.037664
0.149123 -0.778278 0.374582
0.122013 -0.778278 0.117764
-0.118659 -0.813831 -0.300064
0.355715 -0.778278 0.299087
-0.064981 -0.813831 -0.210553
0.231672 -0.78781 -0.403908
0.154934 -0.813831 0.057269
0.393465 -0.778278 -0.039763
0.299474 -0.813831 -0.014577
-0.12991 -0.813831 0.252336
-0.199843 -0.778278 -0.096616
0.107943 -0.813831 -0.265714
0.204437 -0.813831 0.14449
-0.190359 -0.811638 -0.403908
0.13195 -0.778278 0.072696
-0.070626 -0.813831 0.206561
-0.068022 -0.778278 0.097869
0.14969 -0.813831 -0.144184
-0.386475 -0.813831 0.392523
-0.123068 -0.813831 -0.218281
0.242616 -0.813831 -0.099834
0.311826 -0.813831 -0.308131
0.370196 -0.778278 -0.179524
-0.375684 -0.778278 -0.186838
-0.2681 -0.778278 0.207607
-0.151821 -0.778278 0.108761
0.160684 -0.813831 -0.008648
-0.32354 -0.778278 0.048548
-0.213619 -0.778278 -0.012528
0.369627 -0.813831 -0.400439
0.089221 -0.813831 -0.365518
0.065251 -0.778278 -0.35719
-0.377877 -0.778278 0.209365
-0.330518 -0.778278 0.153201
-0.272804 -0.813831 -0.087657
-0.304695 -0.813831 0.392221
-0.325958 -0.813831 0.353417
0.129923 -0.778278 -0.07876
0.024933 -0.778278 0.303013
0.014071 -0.813831 -0.002
-0.400752 -0.794983 0.304237
-0.013481 -0.813831 -0.133678
-0.019787 -0.813831 0.258001
-0.206823 -0.778278 0.121805
0.28062 -0.813831 0.224642
0.257493 -0.778278 0.101491
-0.007789 -0.778278 -0.211754
0.39181 -0.813831 -0.210018
-0.083028 -0.778278 -0.195038
0.399201 -0.781774 -0.136605
-0.339622 -0.813831 0.104321
-0.054402 -0.778278 0.387172
0.308893 -0.778278 -0.106693
-0.185629 -0.813831 -0.144012
0.267663 -0.778278 -0.221129
0.048072 -0.778278 0.268997
-0.339109 -0.813831 -0.022304
0.319199 -0.778278 0.169865
0.174498 -0.813831 0.3014
0.274651 -0.813831 -0.135142
-0.365393 -0.813831 -0.163796
-0.139932 -0.778278 -0.153665
0.35695 -0.813831 -0.234333
0.166703 -0.813831 -0.05925
0.035045 -0.797791 0.413822
-0.263007 -0.813831 0.137442
-0.236826 -0.778278 0.179084
0.267606 -0.813831 0.127706
0.269626 -0.778278 -0.028209
-0.251246 -0.813831 -0.030822
-0.135549 -0.813831 -0.017387
-0.359722 -0.778278 -0.330551
0.066259 -0.813831 -0.02104
-0.341351 -0.778278 -0.204911
0.267754 -0.813831 0.018258
0.178902 -0.813831 -0.34257
-0.226416 -0.778278 0.229135
-0.31491 -0.813831 0.300878
-0.146052 -0.778278 0.289505
0.356659 -0.813831 0.333368
0.183652 -0.813831 -0.250053
-0.147591 -0.778278 -0.257357
0.105991 -0.813831 -0.103468
-0.029585 -0.778278 0.195099
-0.008831 -0.778278 0.279398
0.346168 -0.778278 0.135506
-0.364088 -0.813831 0.187203
0.195605 -0.778278 -0.188506
0.081422 -0.778278 0.378703
0.289623 -0.778278 -0.395273
0.092593 -0.778278 -0.003391
-0.081408 -0.813831 0.34008
0.289705 -0.778278 -0.189813
0.280217 -0.778278 0.149934
-0.290417 -0.813831 0.190042
-0.023309 -0.778278 -0.054441
0.362054 -0.778278 -0.255352
0.134256 -0.778278 0.004461
0.00994 -0.778278 0.074411
0.257989 -0.813831 0.302011
0.313055 -0.778278 0.317087
-0.193761 -0.813831 0.013702
0.398692 -0.813831 0.056137
0.046451 -0.778278 0.153299
0.378669 -0.813831 0.005549
0.250167 -0.778278 -0.132235
0.273391 -0.813831 -0.052162
0.345424 -0.813831 -0.325056
-0.028987 -0.813831 0.325872
-0.203744 -0.813831 -0.210271
-0.400752 -0.799496 0.029684
-0.096506 -0.778278 0.005999
-0.314668 -0.778278 -0.018146
-0.262379 -0.813831 0.295303
0.210371 -0.813831 0.248878
0.230034 -0.813831 0.008096
0.326331 -0.813831 0.011268
0.077018 -0.813831 0.168973
-0.052419 -0.813831 -0.058724
-0.067849 -0.813831 0.156331
0.215885 -0.778278 -0.019062
-0.186559 -0.813831 -0.293508
-0.087352 -0.813831 0.390628
-0.283193 -0.778278 0.145718
-0.168968 -0.813831 0.121731
0.005567 -0.778278 -0.030718
0.385772 -0.813831 -0.302972
-0.045869 -0.813831 -0.178958
0.005979 -0.778278 -0.391638
0.29428 -0.813831 0.346922
0.206149 -0.778278 0.312202
-0.241085 -0.806343 -0.403908
0.166673 -0.813831 0.126588
-0.3619 -0.813831 0.34575
0.101463 -0.778278 0.185849
-0.157764 -0.778278 -0.001596
0.332686 -0.813831 0.150172
-0.238433 -0.778278 -0.093586
-0.243472 -0.778278 -0.176677
0.155205 -0.813831 -0.180125
0.309494 -0.813831 -0.16368
0.028429 -0.813831 0.270787
-0.196749 -0.813831 0.201504
0.112334 -0.778278 0.307243
-0.232302 -0.813831 -0.233251
0.238301 -0.813831 0.165423
-0.104173 -0.778278 -0.332364
0.047042 -0.778278 -0.075568
-0.268472 -0.778278 0.377783
-0.326887 -0.778278 0.266629
-0.344769 -0.813831 -0.102574
0.333012 -0.778278 0.271151
-0.367048 -0.778278 -0.0618
0.061967 -0.813831 -0.223932
0.347094 -0.778278 -0.299593
-0.1152 -0.813831 0.11599
-0.154038 -0.778278 0.212124
0.005904 -0.778278 -0.153734
-0.328384 -0.813831 -0.300064
-0.097227 -0.813831 0.288497
-0.156505 -0.813831 -0.123135
0.138123 -0.813831 -0.036457
0.33376 -0.778278 0.354119
-0.238409 -0.813831 0.05211
0.317648 -0.778278 0.388853
-0.250384 -0.778278 -0.313393
0.216634 -0.813831 -0.344521
0.399201 -0.795078 0.243967
-0.12074 -0.813831 0.050756
0.137896 -0.813831 0.197969
-0.151019 -0.813831 0.392751
-0.31415 -0.787049 -0.403908
-0.056064 -0.813831 -0.103543
0.334806 -0.778278 -0.038415
-0.188346 -0.813831 0.382996
0.049847 -0.778278 0.228975
-0.338325 -0.778278 -0.113008
0.096759 -0.778278 -0.066314
-0.141592 -0.813831 -0.346292
-0.191388 -0.778278 0.287007
-0.153909 -0.813831 -0.399399
0.287362 -0.778278 0.028774
-0.117177 -0.80995 0.413822
-0.396786 -0.778278 -0.009866
0.085607 -0.813831 0.335645
-0.043537 -0.813831 0.093493
-0.215246 -0.778278 -0.305251
0.268372 -0.778278 0.376932
-0.215634 -0.778278 0.364884
-0.326063 -0.778278 0.320792
-0.223189 -0.813831 0.142419
0.348163 -0.807731 0.413822
0.399201 -0.80315 0.407261
0.008383 -0.813831 -0.358326
0.121754 -0.813831 0.25743
0.168045 -0.813831 0.025105
-0.400752 -0.790182 0.179144
-0.258571 -0.778278 -0.140949
0.03482 -0.813831 0.340981
0.375806 -0.813831 -0.067906
-0.054115 -0.813831 -0.28714
-0.112233 -0.778278 0.188726
0.060945 -0.813831 -0.146464
-0.222606 -0.778278 -0.342228
-0.022082 -0.778278 -0.088636
-0.23627 -0.813831 -0.145001
0.198692 -0.778278 0.25585
-0.032227 -0.813831 0.387724
0.272869 -0.813831 0.189662
0.225276 -0.813831 -0.250706
-0.20002 -0.813831 -0.253593
0.158567 -0.80459 -0.403908
-0.108718 -0.778278 -0.167335
0.338336 -0.813831 -0.386995
0.2337 -0.813831 -0.173072
-0.348527 -0.813831 0.253085
0.035467 -0.778278 -0.374855
0.207553 -0.778278 0.101404
-0.166336 -0.813831 0.180798
-0.183852 -0.813831 0.325722
0.074035 -0.813831 0.410004
-0.400752 -0.805306 -0.330293
0.002881 -0.813831 0.183886
-0.194949 -0.813831 -0.111677
0.153457 -0.778278 0.141189
0.1855 -0.778278 -0.307513
-0.03634 -0.778278 0.086888
0.101104 -0.813831 0.033244
-0.280213 -0.813831 -0.364635
-0.290795 -0.778278 0.036769
0.365788 -0.813831 0.133084
-0.282507 -0.813831 0.106563
0.35914 -0.778278 0.166035
-0.292393 -0.778278 -0.295992
-0.245035 -0.813831 0.24129
0.315802 -0.778278 0.054938
0.144657 -0.813831 0.3724
-0.30601 -0.778278 -0.12865
0.399201 -0.791674 0.020227
0.258994 -0.778278 0.223511
-0.027673 -0.813831 -0.325635
-0.072908 -0.813831 0.036448
0.189824 -0.778278 -0.402784
0.101769 -0.778278 0.085804
-0.258851 -0.813831 -0.194846
0.113814 -0.778278 0.384327
-0.076824 -0.813831 -0.018256
-0.364049 -0.778278 0.382834
-0.046341 -0.813831 0.237558
-0.149963 -0.778278 -0.063942
0.12142 -0.813831 0.167009
0.298583 -0.813831 0.291857
0.364692 -0.778278 0.030303
-0.346355 -0.778278 0.200805
0.004313 -0.813831 0.05228
-0.094253 -0.778278 0.14746
0.220379 -0.794124 0.413822
-0.123634 -0.813831 0.083122
0.335431 -0.813831 -0.183199
0.143885 -0.778278 0.296786
-0.095821 -0.778278 0.220572
-0.27476 -0.778278 0.34545
0.219241 -0.778278 -0.243431
-0.376477 -0.813831 -0.026762
-0.341625 -0.813831 0.146512
-0.116335 -0.813831 0.333074
0.217209 -0.778278 0.144894
0.225704 -0.778278 0.039208
0.150409 -0.778278 -0.255819
-0.300674 -0.813831 -0.035205
-0.122999 -0.778278 0.41367
-0.256623 -0.778278 0.014002
0.378422 -0.813831 0.275371
-0.224281 -0.778278 0.036809
0.301947 -0.813831 0.116466
-0.075169 -0.778278 -0.237211
-0.251877 -0.813831 0.35402
0.018676 -0.813831 0.112021
0.144834 -0.813831 -0.306097
0.033583 -0.813831 -0.036153
0.368645 -0.813831 0.362758
-0.118456 -0.813831 -0.374476
-0.347252 -0.778278 -0.169433
0.024397 -0.778278 0.102472
-0.156999 -0.813831 0.268665
0.095532 -0.778278 -0.273864
-0.400752 -0.813466 -0.075908
-0.136058 -0.778278 0.151515
-0.212673 -0.813831 0.408801
0.08763 -0.778278 -0.303988
-0.063124 -0.791751 0.413822
0.080114 -0.813831 0.121088
0.279939 -0.813831 0.262595
0.086417 -0.778278 -0.238911
-0.266469 -0.778278 0.116468
0.237746 -0.778278 0.389885
-0.262591 -0.813831 -0.116813
0.107644 -0.778278 0.151503
0.264425 -0.813831 -0.346164
-0.085193 -0.778278 0.062667
-0.332682 -0.778278 -0.347934
-0.289287 -0.813831 0.220776
0.010588 -0.813831 0.404592
0.399201 -0.808248 -0.042609
0.399201 -0.797254 -0.327061
-0.373723 -0.813831 0.028874
-0.278658 -0.813831 -0.323486
0.312669 -0.778278 -0.309038
0.328308 -0.813831 -0.24795
0.185828 -0.778278 -0.013706
0.118993 -0.778278 -0.160921
-0.400752 -0.787054 -0.171653
0.030743 -0.813831 0.171592
-0.088975 -0.813831 -0.283013
-0.216949 -0.813831 0.073564
-0.093335 -0.813831 0.226649
-0.182071 -0.778278 -0.378988
-0.18027 -0.778278 -0.235312
-0.028238 -0.778278 0.372016
-0.268436 -0.778278 0.303635
-0.030462 -0.778278 0.039858
0.201107 -0.813831 -0.123064
0.049429 -0.813831 -0.176389
-0.314377 -0.778278 -0.191821
-0.323665 -0.805329 0.413822
-0.213506 -0.813831 -0.378078
0.272624 -0.778278 -0.250632
-0.245942 -0.778278 -0.231228
-0.221221 -0.778278 0.401657
0.064512 -0.778278 0.006679
-0.022914 -0.778278 0.305623
0.045636 -0.778278 0.029951
0.091076 -0.813831 0.257075
0.014589 -0.813831 -0.067522
0.150709 -0.813831 0.333556
-0.308061 -0.778278 0.129616
0.330678 -0.813831 0.05225
0.226369 -0.778278 0.19224
0.177083 -0.778278 0.383737
-0.125471 -0.813831 -0.247589
-0.376605 -0.778278 0.305277
0.15233 -0.778278 0.254215
0.271559 -0.813831 0.387723
-0.028315 -0.813831 -0.211739
-0.113656 -0.778278 -0.37685
-0.17445 -0.778278 0.090321
0.081132 -0.778278 0.163657
0.348504 -0.813831 -0.095313
0.299544 -0.813831 -0.119949
0.346173 -0.778278 -0.143524
-0.16753 -0.778278 -0.187281
0.399201 -0.79893 0.142762
-0.023953 -0.778278 0.249127
-0.330438 -0.813831 -0.229343
0.063927 -0.813831 -0.103736
-0.271659 -0.813831 0.071781
-0.378416 -0.813831 -0.383298
-0.04394 -0.813831 -0.248084
-0.114626 -0.778278 0.04819
-0.181971 -0.778278 -0.017308
0.033001 -0.778278 0.188625
-0.006699 -0.813831 -0.265709
0.122037 -0.813831 -0.162618
-0.023053 -0.778278 -0.338186
-0.001089 -0.778278 -0.28275
-0.233535 -0.778278 -0.033236
-0.04232 -0.778382 -0.403908
0.214258 -0.813831 0.358559
-0.388358 -0.778278 -0.331965
-0.21476 -0.778278 -0.26258
0.171964 -0.778278 -0.345412
0.132298 -0.778278 0.204417
0.267621 -0.778278 0.050766
-0.29478 -0.813831 -0.165826
-0.112515 -0.813831 0.146082
0.012309 -0.813831 0.210775
0.336007 -0.813831 0.121931
0.326282 -0.788747 0.413822
-0.400752 -0.800007 0.220902
0.014522 -0.778278 0.160463
0.376458 -0.813831 0.081328
0.199081 -0.813831 0.116691
-0.332935 -0.778278 0.012133
-0.355261 -0.813831 -0.242857
0.198307 -0.813831 0.278847
0.150665 -0.813831 -0.34286
0.206645 -0.778278 0.353945
-0.400752 -0.804197 -0.364493
-0.114294 -0.778278 -0.046309
0.37598 -0.778278 0.086179
0.034116 -0.813831 -0.319153
-0.299535 -0.778278 0.329445
-0.038622 -0.813831 -0.38969
-0.081136 -0.778278 0.258364
-0.140759 -0.778278 -0.194723
-0.153919 -0.813831 -0.208426
0.241095 -0.813831 -0.401619
0.329689 -0.778278 -0.265764
-0.021366 -0.778278 -0.024095
-0.367432 -0.813831 0.158907
-0.399174 -0.813831 -0.178624
-0.013258 -0.813831 0.002495
-0.310453 -0.778278 -0.322954
0.01085 -0.813831 -0.240713
-0.080911 -0.778278 -0.313021
-0.378571 -0.778278 0.010751
0.017102 -0.813831 -0.183221
-0.199268 -0.778278 0.233238
0.395828 -0.778278 -0.01233
0.37711 -0.813831 0.390807
-0.06494 -0.778278 0.326129
-0.048445 -0.778278 -0.034808
-0.090578 -0.813831 -0.356815
0.269319 -0.778278 0.248811
-0.353237 -0.778278 -0.273276
0.399201 -0.7912 0.347009
0.200512 -0.813831 -0.049207
-0.352236 -0.778278 0.061931
0.001584 -0.813831 0.136433
0.294143 -0.778278 0.126294
-0.047169 -0.778278 -0.16001
0.149217 -0.778278 -0.286939
-0.111807 -0.778278 0.089842
-0.123844 -0.813831 -0.171578
-0.312165 -0.778278 -0.046219
0.2444 -0.813831 -0.314663
-0.076444 -0.778278 -0.034496
0.123344 -0.813831 -0.380449
0.296743 -0.813831 0.320443
0.268778 -0.813831 0.079952
-0.30695 -0.813831 0.251669
-0.311371 -0.813831 0.115609
0.362384 -0.778278 -0.059616
-0.204705 -0.813831 -0.055514
0.127516 -0.778278 0.046564
-0.077917 -0.813831 0.180821
0.399201 -0.791917 -0.110329
0.353085 -0.813831 0.307185
-0.131126 -0.778278 -0.344378
-0.400752 -0.796072 0.134222
0.312091 -0.778278 -0.362231
0.193631 -0.778278 0.230058
0.399201 -0.797072 -0.366487
0.028776 -0.813831 0.315437
0.025998 -0.778278 0.218045
0.039227 -0.778278 -0.229699
-0.372671 -0.813831 0.273539
0.266661 -0.813831 -0.204486
-0.30748 -0.813831 0.334995
-0.119755 -0.778278 -0.297074
-0.021015 -0.813831 -0.171265
0.257488 -0.79101 -0.403908
0.240858 -0.778278 -0.01191
0.23444 -0.778278 0.253954
-0.228105 -0.778278 -0.375042
0.037524 -0.778278 -0.155136
-0.012026 -0.778278 0.214102
0.376621 -0.813831 0.245906
-0.244166 -0.813831 0.410581
-0.313439 -0.813831 0.178362
0.221507 -0.813831 -0.206108
-0.044049 -0.778278 0.173792
0.303061 -0.778278 -0.133915
0.353422 -0.791296 -0.403908
-0.081114 -0.778278 -0.100621
0.090427 -0.813831 -0.165941
-0.093025 -0.801371 0.413822
0.360309 -0.813831 -0.033699
0.315687 -0.778278 0.198223
0.385572 -0.778278 -0.245269
0.330787 -0.778278 0.021151
0.185562 -0.813831 0.242878
0.073017 -0.778278 0.274009
0.12283 -0.813831 0.073889
0.180522 -0.813831 0.182763
-0.233234 -0.778278 0.316911
0.262065 -0.778278 -0.311447
-0.349721 -0.813831 -0.33599
-0.338118 -0.813831 0.018338
-0.109755 -0.778278 -0.125523
0.181446 -0.813831 0.046544
0.05068 -0.813831 0.239834
0.166877 -0.813831 0.35712
0.054345 -0.813831 -0.304179
0.132671 -0.813831 -0.125763
-0.257259 -0.813831 -0.382341
0.015635 -0.778278 0.269352
-0.185527 -0.813831 0.037164
0.293473 -0.778278 -0.035044
0.328464 -0.813831 -0.289737
-0.400752 -0.778278 -0.074304
0.320285 -0.778278 -0.20347
-0.347678 -0.813831 0.056929
-0.194125 -0.778278 -0.400618
-0.05011 -0.778278 -0.184571
0.000633 0.763119 0.016917
0.090491 0.798673 0.407189
-0.253773 0.798673 -0.314943
-0.17143 0.763119 0.26303
0.199297 0.798673 -0.208175
0.326359 0.798673 0.285482
-0.029436 0.798673 -0.238882
-0.202779 0.763119 -0.094492
0.209017 0.798673 0.092917
-0.262406 0.798673 0.091126
0.020905 0.798673 0.222741
0.099966 0.798673 -0.385716
0.392128 0.798673 -0.214129
-0.105564 0.798133 -0.403908
0.305176 0.798673 -0.069476
-0.262034 0.798673 0.395905
-0.347567 0.798673 0.25498
0.262291 0.789205 -0.403908
0.174147 0.763119 0.258093
0.143958 0.763119 -0.050322
-0.33135 0.798673 -0.173289
-0.116605 0.763119 0.110976
0.261961 0.798673 0.413332
-0.072071 0.798673 -0.092546
-0.152958 0.763119 -0.213316
-0.056441 0.763119 0.321407
0.07267 0.798673 -0.161481
0.346185 0.798673 0.157579
0.092702 0.763119 0.114485
-0.302195 0.763119 -0.015064
0.279741 0.763119 -0.286804
0.072932 0.763119 -0.279167
-0.185619 0.798673 0.009968
0.305719 0.763119 0.062172
-0.162168 0.798673 0.365051
0.303147 0.763119 -0.166171
-0.259276 0.798673 0.193794
-0.108487 0.763119 -0.307809
-0.014034 0.763119 0.118115
-0.31445 0.789527 -0.403908
-0.094278 0.798673 0.202377
0.178179 0.798673 0.359489
0.376946 0.798673 -0.319566
0.030697 0.763119 -0.079607
0.187358 0.798673 -0.341571
0.262112 0.798673 0.207067
0.080391 0.798673 0.299514
-0.332132 0.763119 -0.262872
0.222534 0.763119 0.004397
-0.335508 0.763119 0.148367
0.21385 0.763119 -0.121429
-0.378539 0.798673 0.038889
-0.265989 0.763119 0.285413
-0.249337 0.763119 -0.202167
-0.090636 0.763119 0.008106
0.167476 0.763119 0.167754
0.08825 0.798673 0.03271
0.341755 0.763119 0.395687
-0.281106 0.798673 -0.089897
0.373015 0.798673 -0.017784
-0.069417 0.763119 -0.172879
0.015901 0.798673 0.354505
-0.184485 0.798673 0.155598
-0.326859 0.763119 0.356257
-0.200613 0.798673 -0.401705
0.250173 0.763119 0.291338
0.096613 0.763119 0.206822
-0.001054 0.798673 -0.321077
0.335287 0.763119 -0.384536
-0.360217 0.763119 -0.108829
0.132168 0.763119 -0.228485
-0.138498 0.798673 -0.132564
-0.181852 0.763119 -0.331976
0.150787 0.798673 -0.148474
0.367118 0.763119 0.226588
0.28043 0.798673 0.127156
-0.10965 0.798673 0.287585
-0.190033 0.763119 0.09357
-0.319979 0.763119 0.067933
-0.01534 0.798673 -0.142582
0.2318 0.798673 -0.056775
-0.202371 0.798673 -0.250402
-0.400752 0.796154 -0.199142
-0.368695 0.798673 -0.348454
0.325176 0.798673 -0.246882
0.289897 0.798673 0.004972
-0.208188 0.763119 0.328009
0.280077 0.763119 0.357121
0.097338 0.798673 -0.086158
-0.037962 0.763119 -0.044702
0.077067 0.763119 -0.024829
-0.382933 0.798673 0.182764
-0.055092 0.798673 0.076359
-0.042548 0.798673 0.264905
-0.105431 0.798673 -0.246385
0.352775 0.798673 -0.135782
-0.037114 0.763119 0.205076
0.361988 0.798673 0.07123
0.15112 0.763119 -0.292902
0.016295 0.798082 -0.403908
0.043507 0.798673 0.086904
0.140808 0.798673 0.085084
-0.140637 0.763119 -0.03572
-0.237707 0.798673 -0.139945
-0.34807 0.798673 -0.054475
0.037255 0.798673 -0.216405
0.266247 0.763119 -0.219673
-0.369178 0.798673 0.389842
0.047381 0.763119 -0.344064
-0.234848 0.763119 0.045228
0.130972 0.763119 0.334317
-0.064104 0.798673 0.145697
-0.248941 0.798673 -0.019288
0.044194 0.763119 0.170303
0.304328 0.798673 -0.333555
0.016927 0.763119 0.301729
-0.147857 0.763119 0.045965
0.26947 0.798673 -0.126508
-0.153811 0.763119 0.197366
-0.227937 0.763119 0.235022
0.240246 0.763119 0.159498
-0.296538 0.763119 -0.341723
0.133515 0.763119 0.009986
-0.091468 0.798673 0.386855
-0.043736 0.788498 -0.403908
0.373985 0.763119 -0.07874
0.21057 0.798673 -0.2676
-0.289315 0.798673 -0.239648
0.184572 0.798673 -0.401318
0.186486 0.798673 0.211934
-0.282646 0.798673 0.029609
0.057447 0.763119 0.253038
0.098958 0.798673 -0.326481
0.172397 0.798673 -0.093665
0.293726 0.763119 0.25197
0.228655 0.763119 -0.362891
0.11475 0.798673 0.154741
-0.329391 0.763119 0.298512
0.189609 0.763119 0.313579
-0.363381 0.798673 0.113008
0.365898 0.763119 0.115882
0.110298 0.763119 -0.129681
0.067742 0.763119 0.342317
0.337093 0.763119 -0.289874
-0.006725 0.798673 0.161298
-0.131912 0.763119 -0.3684
0.248106 0.763119 0.054444
-0.31357 0.763119 0.22789
-0.025794 0.763119 0.368422
-0.196538 0.763119 -0.034733
-0.153549 0.763119 0.31641
-0.029985 0.763119 -0.099887
0.08127 0.763119 -0.206482
-0.001902 0.763119 -0.271094
0.378222 0.763119 0.285474
0.331934 0.763119 -0.027693
0.229206 0.763119 0.233581
-0.111746 0.763119 0.240693
-0.107209 0.798673 0.05906
-0.015605 0.763119 -0.199513
0.198923 0.798673 0.411718
-0.245739 0.763119 -0.366771
-0.185469 0.763119 -0.16939
-0.258167 0.798673 0.341453
-0.324489 0.798673 -0.311577
-0.23407 0.763119 -0.276097
-0.339355 0.798673 0.001195
0.182244 0.798673 0.004418
-0.293492 0.798673 0.152444
-0.131286 0.798673 0.162601
-0.277286 0.763119 -0.145395
-0.150674 0.763119 -0.274941
0.389042 0.763119 0.1642
0.188492 0.763119 -0.168411
0.32813 0.798673 0.358582
0.299589 0.763119 0.194809
-0.118069 0.763119 -0.098962
0.171071 0.763119 0.11014
0.142902 0.795187 0.413822
-0.051466 0.798673 0.006623
0.114148 0.798673 0.241626
-0.222958 0.763119 0.156672
0.126042 0.763119 0.27883
-0.045092 0.798673 -0.349226
0.356982 0.763119 -0.199359
-0.374489 0.798673 -0.401343
0.30539 0.763119 -0.113835
-0.104212 0.798673 -0.187405
0.329458 0.798673 0.227449
-0.210848 0.798673 -0.197012
-0.15264 0.798673 0.095862
0.217664 0.763119 -0.312452
-0.315178 0.763119 -0.212625
0.021841 0.763119 -0.142352
0.041748 0.798673 -0.013288
-0.25316 0.798673 -0.403089
0.211598 0.798673 0.266101
-0.20088 0.798673 0.291828
0.107254 0.798673 -0.255718
-0.357943 0.798673 -0.227188
-0.37766 0.763119 -0.285285
0.229643 0.763119 0.355874
-0.150655 0.798673 -0.069334
0.195512 0.763119 -0.037595
-0.359606 0.763119 0.208719
-0.005307 0.798673 0.076823
-0.246419 0.763119 -0.070593
-0.272009 0.763119 0.124484
-0.36539 0.763119 -0.179611
0.100168 0.798673 0.354174
0.374741 0.785912 -0.403908
-0.106739 0.798673 -0.03144
-0.15141 0.798673 0.231381
-0.293547 0.798673 0.255214
0.270415 0.798673 -0.253288
-0.400381 0.798673 0.235145
-0.372546 0.798673 -0.146789
-0.148471 0.798673 -0.328544
-0.297962 0.798673 0.309847
-0.086025 0.763119 -0.062335
-0.05784 0.763119 -0.2554
0.260109 0.798673 -0.173785
0.00831 0.798673 -0.056057
0.312108 0.763119 0.133626
-0.211083 0.798673 -0.063428
-0.152854 0.791001 -0.403908
0.258722 0.798673 -0.319171
0.260075 0.763119 -0.070412
0.03608 0.798673 -0.291785
-0.320428 0.798673 -0.116153
0.065483 0.798673 0.129347
0.067016 0.798673 0.197606
0.137334 0.771138 -0.403908
-0.038895 0.763119 0.042405
-0.348969 0.763119 0.030197
0.307391 0.798673 -0.203529
-0.161002 0.763119 0.395542
0.050778 0.763119 0.057344
0.21754 0.763119 -0.238272
-0.004224 0.763119 0.239222
0.125109 0.763119 0.385202
0.307512 0.798673 -0.399094
-0.209119 0.798673 -0.302256
-0.201057 0.798673 0.222524
-0.241327 0.798673 0.260893
0.151099 0.798673 -0.194367
-0.400752 0.765961 0.078706
-0.323816 0.798673 0.384869
-0.216453 0.798673 0.395779
0.144082 0.763119 0.224028
0.223986 0.798673 0.309805
0.197907 0.763119 0.042478
-0.154487 0.798673 -0.241264
0.009436 0.798673 0.275249
-0.291748 0.763119 -0.0587
0.037068 0.763119 0.126011
-0.345881 0.763119 -0.33356
0.178902 0.763119 0.393346
0.105648 0.798673 -0.194482
-0.101847 0.763119 -0.214404
0.320055 0.798673 0.106481
0.002315 0.798673 0.397981
-0.136894 0.763119 -0.171671
-0.150755 0.763119 0.144343
-0.181091 0.763119 -0.38376
-0.219566 0.798673 0.080069
-0.118726 0.798673 0.011112
-0.047933 0.798673 0.354445
0.07736 0.763119 -0.068939
-0.187786 0.798673 -0.143428
0.169641 0.798673 0.136118
-0.191997 0.763119 0.035152
-0.374656 0.763119 -0.037664
0.251873 0.798673 0.026886
0.043617 0.763119 -0.183954
-0.031787 0.798673 -0.289778
0.373176 0.798673 0.379414
0.227388 0.763119 -0.188479
-0.233839 0.763119 0.103348
-0.326774 0.798673 0.206539
-0.098858 0.798673 -0.330776
0.024371 0.763119 0.377912
-0.087283 0.798673 -0.285791
-0.079196 0.763119 0.070628
-0.257165 0.763119 0.004029
0.148007 0.798673 -0.323504
-0.384247 0.763119 -0.222836
0.151296 0.798673 -0.373669
-0.267876 0.763119 0.363955
0.162951 0.798673 -0.235827
-0.100389 0.798673 0.329634
0.048687 0.798673 0.382396
0.234696 0.763119 0.095285
0.337629 0.763119 -0.341656
0.21698 0.798673 0.154189
-0.208921 0.798673 0.353635
-0.022825 0.763119 0.278254
-0.327726 0.798673 0.045509
0.356183 0.798673 0.316038
0.017189 0.798673 -0.098939
0.084856 0.763119 0.157636
-0.382131 0.798673 -0.07978
-0.336299 0.798673 0.327788
-0.387299 0.798673 -0.310484
0.339995 0.798673 0.008622
-0.388122 0.763119 -0.334057
0.019283 0.763119 -0.020931
-0.229159 0.763119 -0.317955
-0.298136 0.798673 -0.037271
0.336548 0.763119 0.305249
0.356365 0.798673 -0.056271
0.286078 0.763119 -0.350109
0.389868 0.763119 -0.236205
0.057437 0.798673 -0.122474
-0.241659 0.763119 -0.112097
0.380856 0.798673 0.184511
-0.276304 0.763119 -0.257011
-0.388335 0.763119 0.32845
-0.055548 0.763119 0.121289
0.165052 0.798673 -0.033486
-0.198728 0.798673 -0.345325
0.250884 0.798673 0.252911
0.337551 0.798673 -0.095278
-0.352069 0.798673 -0.269983
-0.313138 0.798673 0.087825
-0.101846 0.763119 0.3088
-0.082371 0.763119 0.353427
0.348683 0.763119 -0.250344
0.022953 0.798673 -0.163107
-0.121143 0.763119 0.405809
0.048413 0.763119 -0.233877
0.385815 0.798673 0.137444
0.165993 0.798673 -0.278751
0.380885 0.798673 -0.174682
0.173055 0.763119 -0.21809
0.122563 0.798673 0.2989
-0.294969 0.798673 -0.362025
0.137318 0.763119 -0.098966
-0.106287 0.763119 0.186127
-0.151113 0.798673 0.413157
0.039857 0.798673 0.304796
-0.181161 0.763119 -0.242892
-0.299578 0.798673 -0.279228
-0.14846 0.798673 -0.017247
-0.366312 0.763119 0.366507
-0.080131 0.798673 -0.369965
-0.087856 0.763119 -0.347003
-0.083084 0.763119 0.269448
-0.032468 0.763119 -0.334271
0.127192 0.763119 0.135652
0.253986 0.798673 0.095451
0.09072 0.763119 0.051851
-0.311426 0.763119 0.399198
0.339417 0.763119 0.188891
0.255565 0.798673 -0.01598
0.103211 0.798673 -0.04637
0.365953 0.798673 0.271395
0.08542 0.798673 0.094498
0.290607 0.763119 0.395851
0.316294 0.798673 -0.153092
-0.098424 0.798673 -0.122748
0.130302 0.763119 -0.361923
0.086261 0.763119 0.281502
0.223505 0.798673 0.055807
0.222353 0.798673 -0.388686
0.027609 0.798673 -0.348669
0.058369 0.763119 0.010283
0.267274 0.798673 -0.086796
-0.152507 0.763119 -0.118847
-0.267086 0.763119 -0.303128
-0.343438 0.763119 -0.397755
-0.274507 0.798673 -0.162766
0.143971 0.798673 0.024118
0.139763 0.798673 0.349358
-0.051866 0.798673 -0.157607
-0.00891 0.798673 0.310189
-0.231523 0.798673 0.028549
0.384065 0.763119 -0.004874
-0.081176 0.763119 -0.112697
-0.389439 0.763119 -0.14866
-0.240076 0.798673 -0.089765
0.080223 0.763119 0.379322
0.130271 0.763119 0.187097
-0.261271 0.798673 -0.056283
0.389951 0.798673 -0.078592
-0.1675 0.798673 -0.368636
0.294523 0.798673 0.073374
-0.153779 0.798673 0.30067
-0.162968 0.798673 -0.173318
-0.2977 0.763119 -0.112351
-0.282502 0.763119 0.058055
0.006219 0.763119 -0.231481
0.316666 0.798673 -0.027434
0.18039 0.763119 -0.267653
0.320208 0.763119 -0.070274
-0.199384 0.763119 0.207589
-0.356423 0.763119 0.267013
0.026193 0.763119 0.204379
0.198985 0.798673 -0.157952
0.194565 0.763119 0.199607
-0.326877 0.763119 -0.159388
-0.00678 0.763119 0.181553
0.33342 0.763119 -0.142596
0.16523 0.798673 0.269379
-0.393663 0.798673 -0.248242
0.310619 0.763119 -0.245999
0.265035 0.763119 -0.160533
0.288988 0.798673 0.293656
0.266419 0.763119 0.224869
0.124144 0.763119 -0.265842
0.229694 0.798673 -0.231369
0.251522 0.763119 -0.115268
0.366901 0.763119 0.366973
-0.211554 0.798673 0.128812
0.373554 0.798673 -0.28167
-0.018586 0.763119 0.079164
-0.202233 0.763119 -0.207313
0.160677 0.763119 0.360034
0.079612 0.798673 -0.010797
0.208989 0.798673 -0.109324
0.369561 0.763119 -0.361926
-0.233484 0.763119 -0.152053
-0.338985 0.763119 -0.063485
0.070742 0.798673 -0.361801
-0.237577 0.798673 0.162905
-0.109435 0.763119 0.046649
-0.099394 0.763119 -0.2712
0.318184 0.786311 0.413822
0.333829 0.763119 0.096044
-0.054848 0.763119 0.392396
0.000511 0.798673 0.02931
-0.101199 0.798673 0.139404
-0.187737 0.763119 -0.28135
-0.184554 0.798673 -0.032741
0.175455 0.763119 -0.070689
0.072804 0.763119 -0.128903
0.045191 0.798673 0.024055
0.151882 0.763119 -0.136629
-0.237586 0.798673 -0.22326
-0.176227 0.798673 0.066775
-0.028778 0.798673 -0.061097
0.245811 0.798673 -0.359594
-0.311218 0.763119 0.26517
0.151153 0.798673 0.232803
-0.22596 0.798673 -0.374348
0.29288 0.763119 0.101792
-0.070828 0.798673 0.038264
0.36571 0.763119 -0.313476
-0.069786 0.798673 -0.034364
-0.195463 0.798673 -0.101889
0.148569 0.763119 -0.184479
-0.028598 0.798673 0.200049
0.327425 0.798673 -0.290521
-0.325947 0.763119 -0.299184
0.264523 0.798673 0.376726
0.037967 0.763119 -0.300638
0.164333 0.763119 -0.327125
0.357921 0.798673 0.111701
-0.178806 0.798673 0.332418
-0.172271 0.763119 -0.062055
-0.283052 0.763119 -0.181475
0.298393 0.798673 0.337386
-0.113082 0.798673 0.103418
-0.323002 0.798673 -0.215011
-0.030962 0.798673 0.130494
-0.046322 0.763119 -0.144699
0.051284 0.798673 -0.393795
-0.017676 0.763119 0.33294
-0.027124 0.798673 -0.020406
0.182481 0.763119 -0.375434
0.344607 0.763119 0.150149
-0.305152 0.798673 0.353704
-0.058846 0.798673 -0.217581
-0.296017 0.763119 0.316929
0.339493 0.798673 -0.378586
-0.295849 0.798673 0.408809
0.195621 0.798673 -0.056074
0.039117 0.798673 0.166338
-0.210605 0.763119 0.004223
0.226205 0.763119 -0.057996
0.329385 0.763119 0.353068
-0.159172 0.798673 0.195635
0.330454 0.763119 0.008241
0.328687 0.763119 0.232759
0.093853 0.763119 -0.32811
0.178962 0.763119 0.012002
0.307562 0.798673 -0.117785
-0.151005 0.763119 0.099727
-0.233952 0.798673 -0.267182
-0.311905 0.798673 -0.070273
0.113749 0.763119 0.24364
0.222273 0.798673 0.003263
0.231526 0.798673 0.39493
0.21746 0.798673 -0.312786
-0.3951 0.763119 0.20733
-0.255713 0.763119 0.170352
0.258238 0.763119 -0.258563
0.285538 0.763119 0.291838
0.040142 0.798673 0.257808
0.115637 0.763119 -0.197214
-0.034364 0.763119 0.007412
0.116861 0.798673 0.053067
-0.009373 0.763119 -0.071585
-0.108241 0.763119 -0.398396
0.142713 0.763119 0.043739
-0.391252 0.798673 0.086548
-0.325014 0.763119 0.115069
-0.209299 0.763119 0.362902
0.0425 0.798673 -0.049079
-0.053891 0.763119 -0.220746
-0.137341 0.763119 0.369983
0.073978 0.798673 -0.302218
-0.089162 0.763119 -0.027765
-0.264156 0.798673 0.302034
0.119499 0.798673 -0.357049
0.130197 0.798673 -0.067951
-0.086206 0.798673 -0.157709
-0.281071 0.798673 -0.00752
0.318082 0.763119 0.276455
-0.293883 0.798673 0.19716
0.268359 0.763119 0.180873
0.044522 0.763119 0.092664
-0.156082 0.798673 0.027138
-0.250393 0.798673 0.059162
-0.299459 0.763119 0.018931
0.164626 0.763119 0.076843
-0.183186 0.763119 0.134444
0.000528 0.763119 -0.352354
-0.400752 0.770046 -0.098962
-0.193624 0.763119 0.173569
0.201758 0.763119 0.124313
0.241916 0.763119 -0.288102
0.004802 0.763119 -0.306613
0.255602 0.798673 -0.207175
0.392751 0.763119 -0.043459
-0.078639 0.763119 0.234576
-0.154339 0.798673 0.267009
0.196424 0.798673 0.331247
-0.164815 0.798673 0.127186
-0.179764 0.798673 -0.219493
-0.400752 0.79859 -0.020226
0.118342 0.798673 -0.140977
-0.378349 0.798673 0.267669
0.228568 0.763119 0.316589
0.394694 0.798673 0.04043
0.310563 0.763119 -0.198551
-0.361722 0.798673 -0.024206
-0.20393 0.763119 0.269628
-0.348238 0.798673 -0.374426
0.383626 0.798673 -0.250182
0.282474 0.763119 0.148231
0.355114 0.798673 -0.233124
-0.003805 0.798673 -0.358465
0.036694 0.763119 0.331584
-0.037974 0.798673 0.036572
0.29522 0.798673 0.261454
0.381287 0.763119 0.196062
0.119707 0.763119 -0.019578
0.303679 0.798673 -0.366157
0.243238 0.798673 0.126224
-0.127576 0.798673 -0.101885
-0.400752 0.770831 0.251982
-0.375565 0.763119 -0.07601
-0.169853 0.763119 0.22557
-0.006117 0.763119 -0.125911
0.14688 0.763119 0.4111
0.048953 0.763119 0.296879
-0.227489 0.798673 0.203812
0.225 0.798673 0.23347
-0.400752 0.781879 -0.057355
-0.2626 0.798673 0.236551
-0.400752 0.774158 0.027877
-0.176588 0.798673 -0.269779
-0.355643 0.781978 0.413822
0.109257 0.763119 -0.083305
-0.143182 0.763119 0.247293
0.229231 0.798673 -0.182437
0.382675 0.798673 -0.120795
0.340971 0.798673 0.197626
0.023816 0.763119 0.040223
-0.037202 0.763119 0.147193
0.105999 0.763119 0.359915
-0.314981 0.798673 0.283148
0.280368 0.763119 0.04327
-0.130505 0.798673 -0.204897
0.199407 0.763119 -0.093406
-0.392251 0.798673 0.136266
0.315333 0.798673 0.163254
0.046509 0.798673 -0.087817
0.119003 0.798673 0.107597
-0.312453 0.798673 0.119131
-0.400752 0.775181 -0.267638
0.20719 0.763119 0.080551
0.097215 0.763119 0.021361
0.303425 0.798673 -0.270687
-0.327107 0.798673 -0.245785
0.11282 0.798673 -0.225214
0.088138 0.798673 -0.126647
-0.008359 0.763119 -0.399894
0.096328 0.798673 0.12972
0.013 0.763119 0.157928
0.134756 0.798673 -0.269587
-0.067068 0.798673 0.115134
-0.1431 0.763119 -0.081289
0.150078 0.798673 0.056084
-0.375493 0.798673 -0.177073
-0.342855 0.798673 -0.136643
0.362373 0.763119 0.25956
0.073817 0.763119 0.186896
-0.013639 0.798673 -0.265703
0.17089 0.763119 -0.020197
0.035414 0.798673 0.130302
0.013341 0.798673 -0.198234
-0.242424 0.77066 -0.403908
0.05156 0.763119 0.223631
-0.054455 0.763119 0.278373
0.358241 0.798673 0.041501
0.380252 0.798673 0.298324
-0.023284 0.798673 0.33638
-0.206699 0.763119 -0.139113
-0.382071 0.763119 0.154403
0.262598 0.763119 0.085089
0.112257 0.763119 -0.048271
0.399201 0.786456 0.011762
-0.213572 0.763119 -0.066943
-0.329334 0.797593 0.413822
-0.370105 0.763119 -0.248713
-0.04173 0.798673 -0.317535
0.243993 0.763119 0.259067
0.115175 0.798673 0.017887
0.079177 0.798673 0.333502
-0.300497 0.798673 -0.176603
-0.276917 0.798673 0.364105
0.164471 0.798673 -0.121949
-0.28806 0.763119 -0.223892
-0.087533 0.763119 0.106919
0.107103 0.798673 -0.285054
-0.128132 0.798673 -0.307468
0.160278 0.763119 0.137296
-0.064295 0.798673 -0.120713
0.037666 0.794 0.413822
-0.166332 0.798673 -0.100874
-0.285475 0.763119 0.220686
0.013099 0.798673 -0.232446
-0.285013 0.763119 0.150259
0.086061 0.798673 0.175941
-0.010943 0.798673 0.222801
-0.252569 0.763119 0.339567
-0.326419 0.763119 -0.11328
0.015742 0.798673 -0.13532
-0.276938 0.798673 -0.387012
