-0.341331 0.416839 0.11617822674593514
-0.265669 0.369812 0.1409652267459351
0.083632 0.435537 0.11617822674593514
0.236093 0.389321 0.1409652267459351
0.3081 0.419953 0.11617822674593514
-0.132243 0.426184 0.11617822674593514
0.101139 0.384368 0.1409652267459351
-0.351977 0.351337 0.1247152267459351
-0.410862 0.376467 0.1409652267459351
-0.141015 0.351337 0.13207322674593508
-0.430355 0.431281 0.11617822674593514
-0.205931 0.367026 0.11617822674593514
0.426629 0.409794 0.11617822674593514
0.527547 0.411225 0.11617822674593514
-0.239486 0.351337 0.1331452267459351
-0.136072 0.376125 0.9243442267459351
-0.237097 0.376125 0.35348322674593513
0.358033 0.363731 0.7106642267459351
0.307281 0.363731 1.105138226745935
0.049074 0.363731 0.7571742267459352
-0.186581 0.376125 0.6889002267459351
0.137779 0.376125 0.4868352267459351
0.196854 0.363731 0.19024922674593508
-0.442631 0.376125 0.4019522267459351
-0.404104 0.376125 1.0355922267459352
0.170399 0.363731 0.9323782267459351
-0.073303 0.363731 0.5009232267459351
0.395404 0.376125 0.9225602267459352
-0.378785 0.363731 0.7781352267459352
0.373664 0.363731 0.5074602267459352
-0.008699 0.376125 1.0735842267459352
-0.447892 0.363731 0.6052822267459351
-0.267435 0.363731 0.5277632267459351
-0.180115 0.376125 0.1661792267459351
-0.380953 0.363731 0.2295882267459351
0.268062 0.363731 0.3759912267459351
0.185323 0.363731 0.6682552267459351
-0.247315 0.376125 1.067796226745935
-0.068932 0.363731 0.2795912267459351
-0.301126 0.363731 0.9124002267459351
0.018168 0.363731 0.9270032267459352
0.035252 0.376125 0.6118392267459352
0.140132 0.363731 1.0980822267459351
0.232498 0.376125 0.8044722267459351
0.12626 0.363731 0.3067922267459351
0.052599 0.363731 0.19548622674593513
0.441716 0.363731 0.39600722674593514
-0.067998 0.376125 0.8111482267459351
0.021222 0.363731 0.4165692267459351
-0.331348 0.363731 0.6511792267459351
0.41857 0.363731 1.0438302267459352
-0.497821 0.376125 0.7531282267459352
-0.245396 0.363731 0.8040902267459351
0.250557 0.363731 0.5244432267459351
-0.126585 0.363731 1.0701572267459352
-0.069082 0.376125 0.6947802267459351
0.450146 0.363731 0.608816226745935
-0.1216 0.376125 0.39686422674593513
-0.414056 0.363731 0.9088412267459351
-0.490759 0.363731 0.2730762267459351
0.263589 0.363731 0.9937142267459351
-0.158744 0.376125 0.5723222267459351
-0.307408 0.363731 0.1469522267459351
0.348344 0.376125 0.8226972267459352
-0.354221 0.363731 0.3385002267459351
0.50346 0.376125 0.9083672267459351
-0.502087 0.376125 0.9760292267459352
0.318821 0.363731 0.6086552267459351
-0.35366 0.363731 0.4607922267459351
0.279215 0.376125 0.2575022267459351
-0.062262 0.363731 0.17340722674593512
0.112822 0.376125 0.8457652267459351
-0.257201 0.376125 0.2378892267459351
-0.443688 0.363731 0.5012122267459351
0.106411 0.376125 1.006415226745935
-0.204301 0.376125 0.4468352267459351
0.128383 0.363731 0.5819292267459351
0.439864 0.376125 0.770981226745935
0.28988 0.363731 0.1594532267459351
0.033121 0.376125 0.3021722267459351
-0.052785 0.376125 0.9861312267459351
0.176679 0.376125 0.3852672267459351
-0.159765 0.363731 0.2869242267459351
0.267581 0.363731 0.7155872267459351
-0.053578 0.376125 0.5942602267459351
-0.234954 0.363731 0.9738572267459351
-0.158355 0.376125 0.8226222267459351
0.350522 0.363731 0.4211022267459351
0.44896 0.363731 0.1628182267459351
-0.239208 0.363731 0.6185292267459351
0.504221 0.376125 0.4904772267459351
-0.409509 0.363731 0.6925722267459351
-0.215792 0.376125 0.8896322267459351
0.027169 0.376125 0.5253232267459351
0.021225 0.363731 0.8384852267459351
-0.295195 0.363731 0.7290262267459351
0.347357 0.363731 0.3359652267459351
-0.332982 0.363731 0.9920062267459351
0.269291 0.376125 0.9105122267459351
0.166658 0.363731 0.7500902267459351
-0.183461 0.363731 1.131625226745935
-0.349468 0.376125 0.5703962267459352
0.393257 0.363731 1.1350462267459351
0.220743 0.376125 1.087117226745935
0.103126 0.376125 0.6973172267459351
-0.488718 0.363731 0.1909482267459351
0.06067 0.376125 1.115627226745935
-0.031837 0.376125 0.3477822267459351
0.332543 0.376125 1.0286342267459352
-0.130712 0.376125 0.7434552267459351
-0.434961 0.363731 1.1131212267459352
0.216984 0.363731 0.3177072267459351
-0.295142 0.363731 0.41023222674593507
-0.316863 0.376125 0.8279052267459351
0.43715 0.363731 0.8462602267459352
0.271617 0.376125 0.4522172267459351
0.077622 0.363731 0.3652102267459351
0.375386 0.376125 0.17597722674593508
-0.064078 0.363731 0.8851212267459352
0.459171 0.363731 0.6960032267459351
-0.46722 0.363731 0.8194962267459351
-0.424763 0.376125 0.3225872267459351
0.097649 0.363731 0.9300512267459351
0.469818 0.363731 0.3137442267459351
0.236919 0.363731 0.5953432267459351
0.01713 0.376125 0.6936582267459351
0.334334 0.363731 0.9581652267459351
-0.355279 0.363731 1.0913962267459352
-0.152975 0.363731 0.9920672267459352
0.034179 0.376125 1.0179542267459352
0.130736 0.376125 0.21037322674593512
-0.310993 0.376125 0.2820692267459351
0.191321 0.363731 0.8660872267459351
-0.132388 0.376125 0.21671522674593513
-0.477963 0.363731 0.6823412267459351
0.385969 0.376125 0.6300592267459351
0.467589 0.363731 1.0919822267459351
0.071368 0.363731 0.4743122267459351
-0.01801 0.363731 0.7520952267459351
-0.049567 0.376125 0.4392742267459351
0.438505 0.376125 0.5172452267459351
0.45745 0.376125 0.9817322267459352
0.313917 0.376125 0.7661132267459351
0.201359 0.363731 0.4751172267459351
0.198413 0.376125 0.989742226745935
-0.373425 0.376125 0.4003502267459351
0.412443 0.376125 0.3395662267459351
-0.438799 0.376125 0.9706052267459351
0.286437 0.376125 0.8494932267459351
-0.411259 0.376125 0.8459962267459351
-0.316177 0.363731 0.2196042267459351
-0.183548 0.376125 0.38732422674593514
0.393176 0.376125 0.988425226745935
0.089573 0.376125 0.5321652267459351
-0.291005 0.376125 0.4701912267459351
-0.126289 0.363731 0.677142226745935
-0.47465 0.376125 1.0497272267459352
-0.066279 0.376125 1.0536902267459352
0.308794 0.363731 0.6683452267459351
-0.219567 0.363731 0.2954032267459351
0.332827 0.376125 0.5513392267459352
-0.357644 0.376125 0.871533226745935
-0.00565 0.376125 0.18620822674593512
-0.11464 0.376125 0.4556802267459351
-0.181053 0.376125 1.0507342267459352
-0.099635 0.376125 0.5572842267459351
-0.43909 0.376125 0.7540112267459351
0.461683 0.376125 0.23090622674593508
-0.408786 0.363731 0.17849622674593513
-0.238247 0.363731 0.7173482267459351
-0.473601 0.363731 0.3544982267459351
0.273751 0.363731 1.0578982267459351
0.387619 0.363731 0.5647772267459351
-0.010431 0.363731 0.2663472267459351
0.13044 0.363731 0.6479942267459351
-0.215143 0.376125 0.548725226745935
-0.40712 0.376125 0.5439752267459351
-0.28829 0.363731 1.028358226745935
-0.37721 0.376125 0.957334226745935
-0.379361 0.376125 0.2874472267459351
0.054119 0.376125 0.884054226745935
0.198006 0.376125 0.5436952267459351
-0.008335 0.363731 0.48223622674593514
0.223179 0.363731 0.24097322674593513
0.326434 0.376125 0.2049832267459351
-0.296323 0.363731 1.1295862267459351
0.218983 0.376125 0.4228282267459351
-0.143677 0.376125 0.3450752267459351
-0.155401 0.363731 0.6271092267459351
-0.258775 0.376125 0.1719742267459351
0.113405 0.363731 0.7911602267459351
-0.026151 0.376125 0.5421712267459351
0.166513 0.376125 0.8178542267459351
-0.435451 0.363731 0.24047722674593508
0.154533 0.363731 0.4344042267459351
0.419591 0.363731 0.4463692267459351
0.338296 0.363731 0.28171122674593513
0.411357 0.376125 0.7240782267459351
-0.47413 0.363731 0.930570226745935
-0.179439 0.376125 0.7681682267459351
-0.270706 0.363731 0.853681226745935
0.022159 0.363731 1.152934226745935
-0.101109 0.376125 0.6311312267459351
-0.496035 0.376125 0.4492302267459351
-0.009069 0.376125 0.882448226745935
-0.264108 0.363731 0.670343226745935
0.02135 0.376125 0.3547762267459351
0.232683 0.363731 0.9476862267459352
0.331134 0.363731 0.4710332267459351
-0.382079 0.363731 0.6343002267459351
0.367101 0.376125 0.7623502267459351
-0.026839 0.363731 0.6652702267459351
-0.300711 0.363731 0.6080412267459351
0.071291 0.376125 1.054882226745935
-0.083815 0.363731 0.3297842267459351
-0.104654 0.376125 0.8484372267459351
0.186133 0.376125 0.5960672267459352
0.06621 0.376125 0.8149162267459351
0.067615 0.376125 0.24399222674593513
-0.347013 0.363731 0.7222562267459351
-0.197174 0.363731 0.2137722267459351
0.178783 0.363731 1.0591752267459351
0.176463 0.376125 0.2877872267459351
-0.455875 0.376125 0.8812222267459351
0.077062 0.376125 0.642093226745935
-0.503203 0.376125 0.5715382267459351
-0.238822 0.376125 0.4872572267459351
0.27959 0.376125 0.3085402267459351
-0.081887 0.363731 1.114231226745935
-0.484184 0.376125 1.1153212267459351
-0.10403 0.376125 0.987205226745935
0.469486 0.363731 0.4407312267459351
-0.295274 0.363731 0.784428226745935
0.32393 0.376125 0.3782582267459351
-0.176982 0.363731 0.5190942267459351
0.447005 0.363731 0.9346022267459351
0.389564 0.363731 0.3817862267459351
-0.202878 0.363731 0.839608226745935
0.15074 0.376125 0.977885226745935
-0.066703 0.363731 0.9407032267459351
-0.254416 0.363731 0.4374582267459351
0.287567 0.363731 0.5652202267459351
-0.352162 0.363731 0.5095842267459351
0.063064 0.363731 0.9806432267459351
-0.006102 0.363731 0.992533226745935
-0.508583 0.376125 0.3927042267459351
-0.072589 0.363731 0.2209942267459351
0.50076 0.376125 0.6666552267459351
-0.446278 0.363731 0.4526202267459351
0.173965 0.363731 0.24082022674593512
0.424857 0.363731 0.6560572267459351
-0.348218 0.363731 0.18340322674593512
0.072378 0.363731 0.5836122267459352
-0.248229 0.376125 0.9291512267459351
0.118347 0.363731 0.7434642267459352
0.152892 0.363731 0.5337002267459351
0.345087 0.363731 1.075845226745935
-0.309927 0.376125 1.0691012267459352
0.220019 0.363731 0.7182392267459351
0.23845 0.363731 0.16707922674593512
0.477001 0.376125 0.8006812267459351
-0.034237 0.363731 1.1115722267459351
-0.079199 0.376125 0.7410952267459351
-0.1877 0.363731 0.959866226745935
0.39667 0.363731 0.8219732267459351
0.389051 0.376125 0.8758372267459351
0.105353 0.376125 0.4441932267459351
-0.275418 0.376125 0.3264252267459351
-0.034283 0.376125 0.3949322267459351
0.217131 0.376125 0.9053052267459352
-0.198782 0.363731 1.0093172267459352
0.234219 0.376125 0.8528552267459351
-0.16148 0.376125 0.4644302267459351
0.464334 0.376125 0.8808552267459351
-0.023272 0.376125 0.9472702267459351
0.013815 0.363731 0.566987226745935
0.119973 0.376125 0.3758292267459351
0.262853 0.376125 0.672227226745935
-0.360913 0.363731 1.039854226745935
0.505373 0.376125 1.059556226745935
-0.447781 0.363731 0.2847482267459351
-0.217787 0.363731 1.103414226745935
-0.488949 0.376125 0.4968122267459351
-0.398477 0.363731 0.3558622267459351
-0.138698 0.363731 0.17456022674593513
0.060113 0.376125 0.6842202267459351
0.391263 0.363731 0.2150292267459351
0.095012 0.363731 1.1400312267459352
-0.164954 0.376125 1.093833226745935
0.435645 0.376125 1.1193662267459352
0.290158 0.363731 0.8008042267459351
0.503734 0.363731 1.1571812267459352
-0.195578 0.363731 0.6441952267459351
0.199534 0.363731 0.7787922267459351
-0.238066 0.363731 0.7616402267459351
0.16686 0.363731 0.3278922267459351
-0.309088 0.363731 0.5620972267459351
0.116947 0.376125 1.048137226745935
0.307587 0.363731 0.4188742267459351
-0.460832 0.376125 1.009156226745935
0.299746 0.363731 0.3451632267459351
-0.282285 0.376125 0.9879212267459352
0.486798 0.363731 0.9499642267459352
0.376589 0.363731 0.3050032267459351
-0.025571 0.376125 0.8131722267459351
0.086674 0.363731 0.2797082267459351
0.492621 0.363731 0.5963792267459351
0.026768 0.363731 0.6544262267459351
0.249329 0.376125 0.2057512267459351
0.034886 0.376125 0.45761522674593513
-0.183557 0.376125 0.3319662267459351
0.166536 0.376125 0.7036442267459351
-0.123473 0.363731 1.028374226745935
0.139595 0.363731 0.2670942267459351
0.40697 0.376125 1.081956226745935
-0.363519 0.376125 0.9182582267459352
0.412854 0.376125 0.5958422267459351
0.113103 0.363731 0.8852242267459351
-0.003735 0.363731 0.6061122267459351
0.348864 0.363731 0.6586762267459351
-0.391586 0.376125 0.4707172267459351
0.287643 0.363731 0.507205226745935
0.406296 0.376125 0.1493162267459351
0.353011 0.363731 0.5864062267459351
-0.483791 0.376125 0.3170972267459351
-0.289259 0.376125 0.3719312267459351
0.40127 0.363731 0.780509226745935
-0.400657 0.376125 0.4303632267459351
0.070251 0.376125 0.3273982267459351
-0.144641 0.363731 0.4275112267459351
0.217471 0.376125 0.2796452267459351
0.456158 0.376125 1.0383352267459351
0.338463 0.363731 1.129871226745935
-0.402211 0.363731 0.7461442267459351
0.458916 0.376125 0.7336102267459351
-0.113609 0.363731 0.30380722674593513
-0.168698 0.363731 0.9059062267459351
0.427441 0.363731 0.8869282267459351
-0.002846 0.363731 0.3119622267459351
0.295193 0.363731 1.0250182267459351
0.272272 0.376125 0.6066302267459351
-0.440081 0.363731 1.074348226745935
-0.191072 0.363731 0.5903752267459351
-0.422922 0.363731 0.6559752267459351
0.240533 0.376125 0.4757132267459351
-0.157753 0.363731 0.8595322267459351
0.14521 0.376125 0.17426622674593512
-0.325262 0.376125 1.0310772267459352
0.254803 0.376125 1.105586226745935
0.478211 0.376125 0.3922432267459351
-0.036354 0.363731 0.6269132267459351
0.362085 0.376125 0.2500492267459351
-0.116385 0.376125 1.1262892267459352
-0.335375 0.376125 0.6874922267459351
-0.276632 0.376125 1.092766226745935
-0.129772 0.376125 0.7819162267459351
-0.22533 0.376125 0.1908172267459351
0.488797 0.363731 0.5286582267459351
0.08028 0.363731 0.7349632267459351
-0.45663 0.363731 0.5372282267459351
-0.224677 0.376125 0.25787222674593513
-0.213558 0.363731 0.4073782267459351
-0.205327 0.363731 0.9260242267459351
-0.312629 0.363731 0.959739226745935
-0.472435 0.376125 0.7815922267459351
0.357957 0.376125 0.9292512267459352
-0.260103 0.376125 0.8933182267459351
0.032302 0.376125 0.1578882267459351
0.450645 0.363731 0.4734222267459351
-0.104256 0.363731 0.9416182267459351
-0.198512 0.376125 0.8044332267459351
0.446569 0.363731 0.3486102267459351
0.242674 0.376125 0.7685992267459352
-0.380604 0.376125 0.590863226745935
-0.345443 0.363731 0.7947172267459351
-0.140843 0.363731 0.5275102267459351
0.482575 0.363731 0.8352032267459351
0.322631 0.363731 0.7322852267459351
-0.298598 0.376125 0.6648402267459351
0.0159 0.363731 1.048843226745935
0.35227 0.363731 0.8572032267459351
-0.097119 0.363731 0.9014412267459351
0.166623 0.363731 0.6247402267459351
-0.046952 0.376125 0.8550142267459351
-0.162984 0.376125 0.2524732267459351
-0.421992 0.363731 0.8131042267459351
0.109712 0.376125 0.9623392267459351
0.503191 0.376125 0.3311942267459351
-0.401696 0.376125 1.124432226745935
-0.495955 0.376125 0.6118242267459351
0.192254 0.363731 0.3540742267459351
-0.244324 0.363731 1.033753226745935
-0.037922 0.376125 0.2028302267459351
0.412227 0.376125 0.4131662267459351
-0.087551 0.363731 0.5930712267459352
0.01792 0.363731 0.738808226745935
0.502413 0.363731 0.45555122674593507
0.212705 0.376125 0.38112122674593507
0.320805 0.376125 0.5173002267459351
-0.372291 0.363731 1.005599226745935
-0.481246 0.376125 1.1512042267459353
0.047916 0.376125 0.5604112267459351
-0.134561 0.363731 0.5978842267459351
0.078363 0.376125 0.8557062267459351
0.480322 0.376125 0.7633422267459351
0.084152 0.363731 0.2148052267459351
-0.411654 0.376125 0.2720792267459351
-0.139898 0.376125 0.9598852267459351
-0.118529 0.376125 0.7097532267459351
0.426666 0.376125 0.5507002267459351
0.184853 0.376125 0.1496812267459351
-0.442951 0.376125 0.7190072267459351
0.423942 0.376125 0.2187662267459351
0.230547 0.363731 0.6780222267459352
0.064137 0.376125 0.9176122267459351
0.499836 0.376125 1.097486226745935
-0.255771 0.376125 0.3830432267459351
-0.113087 0.376125 0.3630192267459351
-0.473799 0.363731 0.7311122267459351
0.256051 0.363731 0.8287062267459351
-0.349912 0.376125 0.3060472267459351
-0.249691 0.376125 0.5878512267459352
-0.072623 0.363731 0.6464962267459351
-0.091773 0.376125 0.25695722674593513
-0.389188 0.363731 1.085448226745935
-0.030406 0.363731 0.7200112267459351
-0.269789 0.363731 0.2084172267459351
-0.410099 0.363731 0.5080962267459351
0.037928 0.363731 0.2706172267459351
-0.407604 0.376125 0.940079226745935
-0.10697 0.363731 0.8167152267459351
-0.034716 0.376125 0.4998492267459351
0.033923 0.376125 1.0945702267459352
-0.385896 0.376125 0.8233512267459351
0.270851 0.376125 0.40752422674593514
0.165335 0.363731 0.46660122674593507
-0.321972 0.363731 0.7498862267459351
0.278962 0.376125 0.6423822267459351
-0.21039 0.376125 1.148092226745935
-0.358291 0.363731 0.3727132267459351
-0.446508 0.376125 0.6808492267459351
0.375331 0.376125 1.109314226745935
-0.384644 0.376125 0.3207132267459351
0.13021 0.363731 0.4112532267459351
0.068157 0.376125 1.021519226745935
-0.44836 0.376125 0.1703892267459351
-0.002052 0.376125 0.38651322674593513
0.346414 0.363731 0.1651852267459351
-0.248601 0.363731 0.2791622267459351
-0.05481 0.376125 1.0848972267459351
-0.48747 0.376125 0.5375682267459351
-0.007306 0.363731 0.43350422674593514
0.235151 0.376125 0.9819992267459351
0.006008 0.363731 0.8090532267459352
0.187721 0.376125 1.089455226745935
0.147709 0.363731 0.3627482267459351
0.142628 0.363731 1.138748226745935
-0.300874 0.363731 0.1903942267459351
0.500672 0.376125 0.8746652267459352
0.427655 0.363731 1.0121832267459352
-0.422951 0.363731 0.8740492267459351
0.015296 0.376125 0.21145622674593512
0.322573 0.376125 0.8024232267459351
0.383198 0.363731 0.47612822674593513
-0.282634 0.376125 0.6943352267459351
-0.070189 0.363731 0.5505992267459351
0.089979 0.376125 0.7721132267459351
0.044832 0.376125 0.7870372267459351
-0.409612 0.376125 0.6220102267459351
-0.348391 0.363731 0.8428772267459351
-0.348 0.363731 0.22645022674593512
-0.028351 0.363731 1.050922226745935
0.422515 0.376125 0.2893942267459351
-0.057819 0.376125 0.24706722674593512
0.088344 0.363731 0.16193722674593508
-0.442103 0.363731 0.3720992267459351
0.44501 0.376125 0.5773152267459352
0.315336 0.376125 0.3007042267459351
0.412778 0.376125 0.49778022674593514
0.360887 0.376125 0.2047922267459351
-0.236094 0.363731 0.6543962267459351
-0.358245 0.376125 0.6648082267459351
-0.095428 0.363731 1.1552542267459351
0.2187 0.376125 0.519054226745935
0.247218 0.363731 1.0398752267459352
-0.052889 0.376125 0.7593392267459351
0.159435 0.363731 0.20349722674593512
-0.312676 0.363731 0.2514112267459351
-0.34609 0.376125 0.9656892267459352
-0.315129 0.376125 0.4493342267459351
0.365977 0.363731 0.44934522674593513
0.152519 0.376125 0.5653802267459351
0.033712 0.363731 0.4868412267459351
0.368249 0.376125 0.3617692267459351
0.46753 0.376125 1.144959226745935
-0.487884 0.363731 0.4132512267459351
-0.375594 0.363731 0.5309162267459351
-0.041926 0.376125 0.9040202267459352
0.298255 0.363731 0.707917226745935
0.317552 0.363731 0.5760882267459351
0.478321 0.376125 1.015812226745935
0.506999 0.376125 0.8168142267459351
0.362062 0.376125 0.9934512267459351
-0.404803 0.376125 1.0040922267459351
-0.325866 0.363731 0.3221662267459351
-0.059876 0.363731 0.40821922674593514
-0.465323 0.376125 0.4742392267459351
-0.384014 0.363731 0.7107332267459351
-0.208061 0.363731 0.47532922674593514
0.338097 0.376125 0.6320862267459351
-0.180872 0.363731 0.5540922267459352
-0.325916 0.363731 1.119797226745935
0.092613 0.376125 0.6151112267459351
-0.281974 0.376125 0.9335712267459351
-0.094076 0.363731 1.018328226745935
-0.077809 0.363731 0.4360712267459351
-0.336749 0.363731 0.908718226745935
0.114154 0.363731 0.5180752267459351
-0.18804 0.376125 0.2864722267459351
0.246053 0.363731 0.4401612267459351
0.488305 0.376125 0.9821472267459351
-0.065278 0.363731 0.35445222674593513
-0.28514 0.376125 0.2652762267459351
-0.248143 0.363731 0.551783226745935
0.219177 0.376125 0.21202622674593513
0.015709 0.363731 0.8957782267459351
0.324856 0.376125 0.9846002267459351
-0.358736 0.376125 0.4332002267459351
-0.014662 0.363731 0.15971322674593513
0.417591 0.363731 0.1748832267459351
-0.40754 0.376125 0.2391982267459351
-0.452925 0.376125 0.8432002267459351
-0.156878 0.376125 0.19541122674593508
-0.003471 0.363731 0.5264222267459351
-0.322314 0.376125 0.4055352267459351
0.050415 0.363731 0.4091592267459351
0.380636 0.376125 0.7997332267459352
0.256395 0.363731 0.23216422674593512
0.268198 0.376125 1.0208852267459352
-0.206542 0.363731 0.6162902267459351
-0.160209 0.363731 0.9416722267459351
-0.290224 0.363731 0.4974522267459351
0.378831 0.376125 0.6930602267459351
-0.156366 0.363731 0.3891952267459351
-0.208468 0.376125 0.7753222267459351
0.155431 0.363731 0.6676692267459351
0.140376 0.363731 0.6961742267459351
0.064266 0.363731 0.5221852267459351
-0.427368 0.363731 0.4757622267459351
-0.012786 0.376125 1.0188882267459352
0.067709 0.363731 1.152143226745935
0.414159 0.376125 0.37024322674593513
-0.263691 0.376125 0.6301122267459351
-0.347554 0.363731 0.7650102267459351
0.242366 0.376125 0.3842402267459351
0.385319 0.363731 0.7311132267459352
0.363857 0.376125 1.056482226745935
0.367212 0.376125 0.3999552267459351
0.383706 0.376125 0.5323522267459351
-0.121745 0.376125 1.096526226745935
0.367262 0.376125 1.141530226745935
0.427581 0.376125 0.9161972267459351
-0.301381 0.363731 0.8497012267459351
0.193154 0.363731 0.40628122674593514
0.250339 0.376125 0.2631662267459351
0.466944 0.363731 0.5091472267459352
0.424475 0.363731 0.9532762267459352
0.290089 0.376125 0.7491392267459351
0.092031 0.376125 1.113730226745935
-0.34848 0.434806 1.2932462267459353
0.295847 0.424378 1.282330226745935
-0.504153 0.424201 1.282874226745935
0.506844 0.429695 1.2895322267459353
0.191849 0.429119 1.289114226745935
-0.14041 0.43672 1.2925542267459351
-0.244522 0.426592 1.287278226745935
0.001243 0.445434 1.2799842267459351
0.423494 0.431863 1.2911072267459351
0.116128 0.423534 1.284927226745935
0.053426 0.424294 1.282588226745935
0.348715 0.439976 1.290188226745935
0.244995 0.437585 1.2919252267459351
-0.194461 0.444014 1.2872542267459353
-0.050941 0.443933 1.2753652267459352
-0.455093 0.432284 1.291413226745935
-0.299716 0.442463 1.2883812267459351
-0.094217 0.435275 1.271175226745935
0.083451 0.446623 1.283642226745935
0.478235 0.44348 1.273969226745935
0.157524 0.433932 1.2926102267459352
-0.165841 0.438049 1.271175226745935
0.37663 0.424579 1.281711226745935
-0.326806 0.442902 1.2721912267459352
0.538883 0.42766 0.567462226745935
0.547717 0.411009 0.5006492267459351
0.547717 0.404081 0.909741226745935
0.545643 0.380112 0.585859226745935
0.547717 0.398897 0.7206982267459351
0.542175 0.380112 0.5332002267459351
0.543553 0.380112 0.3309462267459351
0.547717 0.415774 0.8340462267459351
0.540227 0.426764 0.4031742267459351
0.547717 0.419936 1.027492226745935
0.540457 0.388853 0.4684902267459351
0.540023 0.4269 0.6164292267459351
0.532853 0.377382 1.009485226745935
0.539998 0.435337 0.8864392267459351
0.539264 0.435337 0.6947562267459351
0.540887 0.435337 0.6479202267459351
0.542364 0.425339 0.9825242267459351
-0.549239 0.380112 0.4568492267459351
-0.549117 0.402977 0.3895732267459351
-0.548196 0.377382 0.7099942267459352
-0.541636 0.435337 0.4866822267459351
-0.549117 0.403421 0.8886742267459351
-0.549117 0.398747 0.5727022267459351
-0.549117 0.407656 0.7508662267459352
-0.541678 0.377382 1.078790226745935
-0.549117 0.41156 0.8449192267459351
-0.541915 0.380112 0.9264222267459351
-0.549117 0.408381 0.2900382267459351
-0.546846 0.435337 0.9314542267459351
-0.540303 0.438177 0.5527432267459351
-0.549117 0.416429 1.1068262267459352
-0.549117 0.406821 0.6114732267459351
-0.547605 0.435337 0.7763002267459351
-0.549117 0.411631 1.0733042267459352
-0.54454 0.438177 0.7103972267459351
-0.542224 0.377382 0.2974442267459351
-0.533719 0.377382 0.778274226745935
-0.542056 0.435337 0.30641122674593513
-0.546244 0.391778 1.1247452267459352
0.557012 -0.34839 0.439915
0.557012 -0.245239 0.070681
0.557012 -0.180241 0.421263
0.557012 -0.167234 0.11579
0.557012 -0.389604 0.353039
0.557012 -0.22287 0.012422
0.557012 -0.399956 0.404467
0.557012 -0.110921 0.378689
0.594193 -0.105267 0.403682
0.557012 -0.136804 0.431956
0.594193 -0.233602 0.047058
0.557012 -0.064186 0.440832
0.557012 -0.29636 0.028813
0.557012 -0.165034 0.012194
0.557012 -0.210137 0.161421
0.557012 -0.119878 0.138719
0.557012 -0.174879 0.076201
0.557012 -0.091281 0.470053
0.557012 -0.131347 0.09881
0.557012 -0.204404 0.110285
0.557012 -0.212693 0.052315
0.557012 -0.423858 0.334499
0.594193 -0.145268 0.091328
0.557012 -0.366716 0.410859
0.557012 -0.06682 0.365692
0.594193 -0.206133 0.026639
0.594193 -0.169795 0.123428
0.557012 -0.16331 0.394668
0.557012 -0.150813 0.143379
0.557012 -0.243899 0.124716
0.557012 -0.246729 -0.005176
-0.595593 -0.315292 0.255162
-0.595593 -0.194677 0.113779
-0.595593 -0.441937 0.241119
-0.595593 -0.349199 0.149818
-0.595593 -0.215598 0.207402
-0.558412 -0.235268 0.272006
-0.595593 -0.282811 0.180047
-0.558412 -0.160299 0.161739
-0.558412 -0.161342 0.00432
-0.595593 -0.210781 0.050737
-0.595593 -0.14797 0.070984
-0.558412 -0.243536 0.123884
-0.595593 -0.452068 0.180891
-0.558412 -0.102352 0.188611
-0.558412 -0.169699 -0.054524
-0.558412 -0.216111 0.553096
-0.558412 -0.258865 0.219914
-0.558412 -0.439515 0.481748
-0.558412 -0.489504 0.204668
-0.558412 -0.405801 0.440114
-0.558412 -0.181918 0.223795
-0.558412 -0.349537 0.235069
-0.558412 -0.468897 0.150414
-0.558412 -0.337907 -0.064745
-0.558412 -0.381047 0.198183
-0.558412 -0.214631 0.161953
-0.558412 -0.264389 0.55598
-0.558412 -0.320231 0.298739
-0.595593 -0.128836 0.195233
-0.558412 -0.18192 0.089653
-0.558412 -0.12114 0.133627
-0.558412 0.016752 0.493098
-0.558412 -0.113048 0.058535
-0.595593 -0.255867 0.281355
-0.558412 -0.459119 0.406336
-0.595593 -0.25398 0.142012
-0.595593 -0.452331 0.437909
-0.558412 -0.225352 0.34528
-0.595593 -0.160894 -0.015197
-0.558412 -0.234814 0.473375
-0.558412 0.063035 0.530257
-0.558412 -0.127296 -0.040249
-0.558412 -0.357095 0.165314
-0.558412 -0.410695 0.157604
-0.595593 -0.48844 0.165915
-0.558412 -0.292518 0.259725
-0.558412 -0.39276 0.235032
-0.595593 -0.178278 0.197715
-0.558412 -0.074351 0.1599
-0.595593 -0.336939 0.185898
-0.558412 -0.200286 0.126826
-0.595593 -0.343339 0.229679
-0.558412 -0.267781 0.096107
-0.595593 -0.088645 0.185072
-0.558412 -0.505565 0.151331
-0.558412 -0.32002 0.174117
-0.595593 -0.21439 0.24267
-0.558412 -0.166603 0.059337
-0.595593 -0.287245 0.236014
-0.558412 -0.131443 0.205779
-0.558412 -0.161946 0.116256
-0.595593 -0.138849 0.102349
-0.558412 -0.379256 0.121572
-0.558412 -0.246415 0.156961
-0.595593 -0.250968 0.180346
-0.595593 -0.509014 0.357982
-0.558412 -0.350209 0.266514
-0.558412 -0.166132 0.473449
-0.595593 -0.269763 0.210278
-0.558412 -0.46999 0.228799
-0.558412 -0.189399 0.53012
-0.558412 -0.150302 0.230153
-0.595593 -0.227376 0.12019
-0.558412 -0.229779 0.437954
-0.595593 -0.179872 0.087662
-0.595593 -0.170718 0.131799
-0.558412 -0.17122 0.188971
-0.245344 -0.542564 0.276491
-0.060376 -0.583457 0.561748
-0.279556 -0.592138 0.420267
-0.172451 -0.59108 0.561748
-0.295824 -0.542564 0.501315
-0.18876 -0.592138 0.466809
0.331481 -0.592138 0.498528
0.174157 -0.542564 0.26628
0.399143 -0.542564 0.524686
0.186996 -0.542564 0.543043
-0.233731 -0.542564 0.374232
-0.259194 -0.542564 0.180213
0.305306 -0.542564 0.254316
-0.041449 -0.542564 0.446736
-0.249027 -0.592138 0.52496
0.352733 -0.542564 0.454095
-0.38737 -0.542564 0.378532
0.11443 -0.542564 -0.055208
0.253573 -0.542564 0.05927
-0.19835 -0.542564 0.524683
-0.128382 -0.542564 0.120789
-0.169725 -0.542564 0.409971
0.270919 -0.542564 0.193104
-0.38426 -0.542564 -0.005613
0.39722 -0.542564 -0.065069
-0.112808 -0.592138 0.528813
-0.153433 -0.542564 0.481913
-0.378938 -0.542564 0.49505
0.324545 -0.542564 0.53207
-0.324525 -0.542564 0.438861
-0.328082 -0.592138 0.490686
0.378186 -0.592138 0.551357
-0.063058 -0.542564 0.116965
0.012793 -0.542564 0.17495
0.407014 -0.592138 0.49279
0.200154 -0.542564 -0.049773
-0.445191 -0.542564 0.439019
-0.202824 -0.542564 0.021943
-0.263607 -0.542564 -0.039061
-0.363208 -0.542564 0.1876
-0.301109 -0.589054 0.561748
-0.253597 -0.542564 0.461334
-0.36399 -0.542564 0.250718
0.114696 -0.542564 0.30015
-0.128848 -0.592138 0.466306
0.206369 -0.542564 0.334503
-0.007281 -0.542564 -0.127022
-0.00444 -0.592138 0.554917
0.007461 -0.542564 0.030542
0.21479 -0.542564 -0.10743
-0.450972 -0.542564 0.233236
0.403136 -0.542564 0.339318
0.45626 -0.542564 0.21814
-0.282952 -0.542564 0.231759
0.480777 -0.542564 -0.031143
0.410849 -0.542564 0.444461
0.317145 -0.542564 0.166511
-0.298118 -0.542564 0.079897
0.242867 -0.542564 0.239813
-0.340821 -0.542564 0.022757
0.031064 -0.542564 0.223178
-0.489273 -0.542564 0.412443
-0.089435 -0.542564 0.464641
0.324987 -0.584129 0.561748
0.017745 -0.542564 0.100918
0.264548 -0.542564 0.143653
-0.122609 -0.542564 0.029155
-0.117199 -0.542564 0.516056
-0.198584 -0.542564 0.459983
0.444889 -0.592138 0.560324
0.202478 -0.542564 0.180325
0.353085 -0.542564 0.211103
-0.281123 -0.592138 0.468648
0.35667 -0.542564 0.405951
-0.214959 -0.569344 0.561748
-0.216107 -0.542564 -0.040584
-0.287526 -0.542564 0.409234
0.02153 -0.542564 -0.060666
-0.244053 -0.542564 0.533682
0.144273 -0.542564 -0.016742
0.507793 -0.542564 0.195596
-0.028552 -0.542564 0.155538
-0.077012 -0.542564 0.16313
-0.194539 -0.592138 0.511472
0.0562 -0.542564 0.274951
-0.260541 -0.542564 0.045792
0.355773 -0.542564 0.497984
-0.092028 -0.542564 0.083929
0.040044 -0.542564 0.05912
-0.230229 -0.592138 0.477345
0.143457 -0.542564 -0.087703
-0.006402 -0.542564 0.470038
-0.277604 -0.542564 0.362253
0.423373 -0.542564 0.483838
-0.167065 -0.542564 0.106369
-0.322851 -0.542564 0.24842
0.059646 -0.542564 0.193646
-0.211626 -0.542564 0.421125
-0.241835 -0.542564 0.095855
0.178223 -0.542564 0.379843
0.166756 -0.542564 0.324689
-0.334518 -0.542564 0.513632
-0.470921 -0.542564 0.376336
-0.274667 -0.542564 -0.000266
-0.416699 -0.542564 0.467302
0.464963 -0.542564 0.506394
-0.468262 -0.542564 0.197355
0.133324 -0.542564 0.383611
0.03046 -0.542564 -0.108398
-0.005979 -0.542564 0.069452
-0.296171 -0.542564 0.194773
-0.428893 -0.542564 0.196928
-0.311434 -0.542564 -0.022451
-0.126551 -0.576982 0.561748
-0.143941 -0.592138 0.507413
0.095389 -0.542564 0.345927
-0.363217 -0.542564 -0.056733
-0.134579 -0.542564 0.421877
-0.246946 -0.590867 0.561748
-0.214951 -0.542564 0.176822
-0.038803 -0.592138 0.533619
-0.01589 -0.542564 0.111542
-0.349513 -0.542564 -0.011508
0.230807 -0.542564 0.532971
-0.032446 -0.542564 0.515965
0.207896 -0.542564 0.275884
0.30246 -0.542564 0.208355
0.161028 -0.542564 -0.047403
-0.03445 -0.542564 0.049232
0.483365 -0.542564 0.240098
-0.41564 -0.542564 0.398465
-0.176516 -0.542564 0.044108
0.218604 -0.542564 0.150254
0.448403 -0.542564 -0.054287
0.000722 -0.542564 -0.092151
0.348161 -0.542564 0.323016
-0.372298 -0.542564 0.03392
0.382937 -0.542564 0.426274
-0.212222 -0.542564 0.494911
0.034415 -0.542564 0.012277
0.441308 -0.542564 0.532879
-0.063198 -0.542564 0.068972
0.415839 -0.542564 -0.0376
0.30307 -0.542564 0.137497
-0.161771 -0.542564 0.528441
-0.133655 -0.542564 0.067569
-0.264639 -0.542564 0.491453
-0.090128 -0.592138 0.553853
0.412988 -0.592138 0.559883
-0.333766 -0.542564 0.199025
-0.295627 -0.592138 0.530856
0.144464 -0.542564 0.284257
-0.036509 -0.592138 0.49456
0.418894 -0.542564 0.415214
0.334497 -0.542564 0.246526
-0.25866 -0.542564 0.303347
-0.223939 -0.592138 0.541193
-0.084955 -0.542564 0.493911
-0.009782 -0.542564 0.006644
-0.480065 -0.542564 0.228868
0.226967 -0.542564 0.196369
-0.05718 -0.592138 0.110641
-0.494542 -0.590038 1.0367641517532464
0.091873 -0.230274 1.0367641517532464
0.517165 -0.29433 1.0367641517532464
0.266691 -0.592138 1.0024001517532466
-0.565465 -0.172368 1.0367641517532464
-0.254127 -0.324218 1.0367641517532464
0.591095 -0.591015 1.0364141517532466
-0.094483 -0.066694 0.9716741517532465
0.319361 -0.146487 0.9716741517532465
0.024781 -0.467617 1.0367641517532464
-0.263589 -0.569649 1.0367641517532464
0.289135 -0.366098 1.0367641517532464
0.513131 -0.068081 1.0367641517532464
-0.345922 -0.139493 0.9716741517532465
-0.432662 -0.404533 1.0367641517532464
-0.073449 -0.311098 0.9716741517532465
0.138007 -0.056206 0.9716741517532465
0.451778 -0.45973 0.9964611517532465
-0.135528 -0.460089 1.0367641517532464
-0.184224 -0.195726 0.9716741517532465
0.130258 -0.371905 0.9716741517532465
-0.263217 -0.011848 0.9716741517532465
0.365213 -0.00181 0.9716741517532465
-0.422598 -0.263364 0.9964611517532465
0.222029 -0.247261 0.9716741517532465
0.418252 -0.589364 1.0367641517532464
0.186851 -0.483826 1.0367641517532464
0.389508 -0.26318 0.9995841517532464
0.020087 0.022273 0.9768631517532465
-0.032177 -0.165448 1.0367641517532464
-0.452299 -0.095132 1.0367641517532464
-0.312539 -0.444783 0.9995841517532464
-0.563013 -0.333823 1.0367641517532464
-0.580904 -0.037904 1.0367641517532464
0.488418 -0.189178 0.9716741517532465
-0.592494 -0.493979 1.0054641517532463
0.191732 -0.14928 1.0367641517532464
0.034612 -0.341762 1.0367641517532464
0.315802 -0.475336 0.9716741517532465
0.241667 -0.01769 1.0367641517532464
-0.357837 -0.029229 1.0367641517532464
-0.250899 -0.132367 1.0367641517532464
0.412756 -0.117641 1.0367641517532464
-0.172691 -0.377019 0.9716741517532465
0.14 -0.584988 1.0367641517532464
0.129768 0.057043 1.0367641517532464
0.591095 -0.145141 1.0235751517532465
0.037179 -0.100863 0.9716741517532465
0.41237 -0.36441 1.0367641517532464
-0.291761 -0.244068 0.9716741517532465
-0.38432 -0.525515 1.0367641517532464
0.035861 -0.582719 1.0367641517532464
-0.186045 -0.034277 1.0367641517532464
0.099092 -0.489331 0.9716741517532465
-0.048883 -0.404824 0.9995841517532464
-0.146375 -0.261328 1.0367641517532464
-0.325651 -0.350451 0.9716741517532465
0.461651 0.039777 0.9995841517532464
0.004105 -0.257727 0.9964611517532465
0.200013 -0.316166 1.0367641517532464
-0.019139 -0.040935 1.0367641517532464
-0.466888 -0.343655 0.9716741517532465
-0.533198 -0.41369 0.9964611517532465
-0.403862 -0.180432 1.0367641517532464
-0.23192 -0.415661 1.0367641517532464
-0.423879 -0.033152 0.9716741517532465
0.246464 -0.083181 0.9716741517532465
0.58589 -0.362336 1.0367641517532464
-0.572596 0.045631 0.9995841517532464
0.267685 -0.19895 1.0367641517532464
-0.404531 -0.461144 0.9716741517532465
-0.50412 -0.249101 1.0367641517532464
0.095093 -0.122693 1.0367641517532464
-0.122733 -0.121712 1.0367641517532464
0.354819 -0.341804 0.9716741517532465
-0.209984 -0.282169 0.9716741517532465
0.240666 -0.402521 0.9716741517532465
-0.341518 -0.276759 1.0367641517532464
0.04343 -0.40007 0.9716741517532465
-0.075568 0.014351 0.9995841517532464
-0.236575 -0.49717 0.9964611517532465
0.103873 -0.42321 1.0367641517532464
0.456342 -0.073203 0.9716741517532465
0.33135 -0.546321 1.0367641517532464
-0.473867 -0.511437 0.9964611517532465
0.298724 -0.281527 0.9964611517532465
0.319903 -0.052895 1.0367641517532464
-0.099505 -0.199813 0.9964611517532465
0.539141 -0.212219 1.0367641517532464
-0.164515 0.01561 0.9716741517532465
-0.059569 -0.509855 1.0367641517532464
-0.120025 -0.377666 1.0367641517532464
0.101581 -0.293454 0.9716741517532465
-0.577696 -0.592138 1.0291871517532465
0.29601 0.062707 0.9995841517532464
0.591095 -0.059989 1.0111251517532465
-0.182962 -0.084776 0.9716741517532465
0.528401 -0.441563 1.0367641517532464
-0.437166 -0.143302 0.9716741517532465
0.162654 -0.189474 0.9716741517532465
0.396284 -0.172264 0.9716741517532465
-0.242664 -0.244488 1.0367641517532464
-0.354851 -0.386126 1.0367641517532464
0.213343 0.022273 0.9747531517532465
0.463551 -0.235146 1.0367641517532464
0.485951 -0.145622 1.0367641517532464
0.379082 -0.090028 0.9716741517532465
0.04175 -0.178809 0.9716741517532465
-0.503805 -0.037672 0.9964611517532465
-0.325888 -0.182224 1.0367641517532464
0.327271 -0.434031 1.0367641517532464
0.178246 -0.228588 1.0367641517532464
0.446943 -0.341732 0.9716741517532465
-0.061725 -0.136104 0.9716741517532465
-0.270916 -0.167402 0.9716741517532465
0.343345 -0.188193 1.0367641517532464
-0.176882 -0.456419 0.9716741517532465
-0.58236 -0.250935 1.0367641517532464
0.160281 -0.441793 0.9716741517532465
-0.364962 -0.105926 1.0367641517532464
0.155874 -0.022365 1.0367641517532464
0.519827 -0.549094 1.0367641517532464
0.387185 0.035183 1.0367641517532464
-0.002168 -0.335697 0.9716741517532465
-0.527354 -0.096166 1.0367641517532464
0.389082 -0.427768 0.9716741517532465
-0.417282 -0.592138 1.0312411517532465
-0.294397 -0.084706 0.9995841517532464
-0.072178 -0.259418 1.0367641517532464
0.094878 -0.002745 0.9995841517532464
-0.386608 0.030181 0.9995841517532464
-0.127589 -0.523429 0.9995841517532464
0.108441 -0.326152 1.0367641517532464
0.243437 -0.479632 0.9716741517532465
-0.255392 -0.395351 0.9716741517532465
-0.46516 -0.313537 1.0367641517532464
-0.48781 -0.451808 1.0367641517532464
-0.397064 -0.341868 0.9995841517532464
0.294315 -0.214526 0.9716741517532465
0.281827 -0.488944 1.0367641517532464
0.461222 -0.533673 0.9995841517532464
-0.373586 -0.218931 0.9716741517532465
0.490841 -0.395744 0.9964611517532465
-0.139422 0.026803 1.0367641517532464
0.202212 -0.340833 0.9716741517532465
-0.03448 -0.200321 0.9716741517532465
0.021455 -0.118651 1.0367641517532464
-0.29 0.007074 1.0367641517532464
-0.190281 -0.165614 1.0367641517532464
0.08838 -0.509125 1.0367641517532464
-0.349248 -0.501772 0.9716741517532465
-0.182047 -0.348357 1.0367641517532464
0.212607 -0.567819 1.0367641517532464
0.312306 -0.126235 1.0367641517532464
-0.137396 -0.280631 0.9716741517532465
-0.427035 -0.012891 1.0367641517532464
0.118522 -0.12148 0.9716741517532465
-0.358533 -0.580108 0.9995841517532464
-0.109383 -0.033986 1.0367641517532464
0.237533 -0.14997 0.9716741517532465
-0.532472 -0.544353 0.9995841517532464
-0.031718 -0.034251 0.9716741517532465
-0.331617 -0.000637 0.9716741517532465
0.413836 -0.051278 1.0367641517532464
-0.189218 -0.541112 1.0367641517532464
0.258074 -0.086937 1.0367641517532464
-0.304461 -0.517875 1.0367641517532464
-0.112237 -0.589397 1.0367641517532464
-0.442467 -0.407236 0.9716741517532465
0.500506 -0.015523 0.9995841517532464
0.591095 -0.284327 1.0157461517532465
0.027377 -0.19183 1.0367641517532464
0.230607 -0.394321 1.0367641517532464
0.392316 -0.489629 0.9964611517532465
0.287246 -0.357659 0.9716741517532465
0.358443 -0.329104 1.0367641517532464
-0.13809 -0.150919 0.9716741517532465
0.100613 -0.178666 0.9995841517532464
0.058336 -0.066115 1.0367641517532464
-0.501284 -0.172532 1.0367641517532464
0.035223 0.005528 1.0367641517532464
0.591095 -0.434398 1.0278821517532464
0.285369 -0.03368 0.9716741517532465
0.047125 -0.280151 1.0367641517532464
-0.377497 -0.074944 0.9716741517532465
-0.592494 -0.43411 1.0228341517532464
-0.528798 -0.34529 0.9716741517532465
0.147319 -0.090469 1.0367641517532464
0.210669 0.034873 1.0367641517532464
-0.11895 -0.316948 1.0367641517532464
-0.001336 -0.409146 1.0367641517532464
0.424743 -0.011077 0.9716741517532465
-0.279398 -0.378722 1.0367641517532464
-0.114402 -0.362471 0.9716741517532465
-0.085754 -0.474081 0.9964611517532465
0.191421 -0.067081 0.9964611517532465
-0.501261 0.013179 1.0367641517532464
-0.508828 -0.35877 1.0367641517532464
-0.270632 -0.465226 1.0367641517532464
-0.240291 -0.058315 1.0367641517532464
0.438152 -0.2442 0.9716741517532465
-0.176245 -0.096469 1.0367641517532464
0.028012 -0.523046 0.9889811517532464
-0.018261 0.041667 1.0367641517532464
-0.071276 -0.246226 0.9716741517532465
-0.45542 -0.214663 0.9995841517532464
-0.524687 -0.473505 0.9964611517532465
0.329716 0.025354 1.0367641517532464
0.264695 -0.256766 1.0367641517532464
0.459463 -0.298025 1.0367641517532464
-0.019998 -0.10488 0.9964611517532465
-0.146523 -0.040295 0.9716741517532465
-0.125734 -0.420363 0.9964611517532465
-0.290624 -0.306632 0.9964611517532465
0.449636 -0.006748 1.0367641517532464
0.499225 -0.339294 0.9964611517532465
-0.428009 -0.461359 1.0367641517532464
-0.341851 -0.270635 0.9716741517532465
-0.019949 -0.326367 1.0367641517532464
0.142124 -0.262603 0.9964611517532465
-0.592494 -0.297348 1.0029061517532465
0.092185 -0.428715 0.9716741517532465
0.025438 -0.044313 0.9964611517532465
0.081713 -0.369712 0.9995841517532464
0.24057 -0.308442 0.9964611517532465
-0.230656 -0.226928 0.9716741517532465
0.445972 -0.146619 0.9716741517532465
-0.219103 0.022273 0.9816241517532465
0.053704 -0.25116 0.9716741517532465
0.489425 -0.481419 1.0367641517532464
-0.012101 -0.554465 1.0367641517532464
-0.137543 -0.198255 1.0367641517532464
0.430503 -0.416744 1.0367641517532464
0.000773 -0.461563 0.9716741517532465
0.490319 -0.592138 1.0183391517532465
0.54747 -0.111389 1.0367641517532464
-0.241012 -0.187496 1.0367641517532464
0.245554 -0.541271 0.9995841517532464
0.347647 -0.228026 0.9716741517532465
0.043734 -0.305517 0.9716741517532465
0.326615 -0.074349 0.9716741517532465
-0.528642 -0.147648 0.9964611517532465
0.308518 -0.402245 0.9964611517532465
-0.393013 -0.401262 0.9995841517532464
-0.369562 -0.437915 1.0367641517532464
0.273178 0.025827 1.0367641517532464
0.16079 0.012739 0.9964611517532465
0.119106 -0.220818 0.9716741517532465
-0.06418 -0.369328 1.0367641517532464
-0.550447 -0.063916 0.9995841517532464
-0.55279 -0.511609 1.0367641517532464
0.160073 -0.323584 0.9995841517532464
-0.170019 -0.322612 0.9716741517532465
0.156034 -0.527081 1.0367641517532464
0.552004 -0.411939 0.9995841517532464
0.2077 -0.435853 0.9964611517532465
0.05008 -0.396192 1.0367641517532464
-0.234585 -0.005613 1.0367641517532464
0.563697 -0.02258 1.0367641517532464
0.510361 -0.254262 0.9995841517532464
0.521632 -0.144454 0.9964611517532465
0.327867 -0.264338 1.0367641517532464
-0.477013 -0.123354 0.9995841517532464
-0.234667 -0.094208 0.9716741517532465
-0.207356 -0.136555 0.9964611517532465
-0.13397 -0.086628 0.9995841517532464
-0.081354 -0.441193 1.0367641517532464
-0.483929 -0.387871 0.9964611517532465
-0.401163 -0.232323 1.0367641517532464
0.199583 -0.111778 0.9716741517532465
0.534726 -0.369739 1.0367641517532464
-0.346965 -0.397435 0.9716741517532465
-0.00457 -0.156434 0.9716741517532465
0.591095 -0.530356 1.0172131517532463
0.173782 -0.383495 0.9964611517532465
-0.400873 -0.057316 1.0367641517532464
-0.500583 -0.528588 1.0367641517532464
0.148975 -0.483256 0.9995841517532464
0.365909 -0.539577 0.9995841517532464
-0.297617 -0.250547 1.0367641517532464
-0.311046 -0.11554 1.0367641517532464
-0.300818 -0.03218 0.9995841517532464
-0.428502 -0.307517 0.9716741517532465
-0.559271 -0.397303 1.0367641517532464
-0.385604 -0.309429 1.0367641517532464
0.403077 -0.231612 1.0367641517532464
0.363274 -0.481761 1.0367641517532464
0.211408 -0.028155 0.9716741517532465
0.044211 -0.444922 0.9964611517532465
0.144595 -0.36086 1.0367641517532464
-0.580416 -0.124591 1.0367641517532464
0.266308 -0.435104 0.9995841517532464
0.36304 -0.119056 1.0367641517532464
-0.220247 -0.037196 0.9964611517532465
0.271618 0.022273 0.9840951517532465
-0.210627 -0.328013 0.9995841517532464
-0.175327 -0.39741 1.0367641517532464
0.392477 -0.326127 0.9995841517532464
0.266176 -0.322402 1.0367641517532464
-0.456453 0.010611 0.9716741517532465
0.471075 0.071089 1.0367641517532464
-0.426409 -0.075696 0.9964611517532465
0.374045 -0.047737 0.9964611517532465
0.151583 -0.145023 0.9995841517532464
0.039852 -0.522032 1.0367641517532464
-0.317077 -0.347049 1.0367641517532464
-0.172622 -0.492438 1.0367641517532464
0.287777 -0.105701 0.9995841517532464
0.366329 -0.392105 0.9964611517532465
-0.310698 -0.206273 0.9964611517532465
-0.150763 -0.234101 0.9964611517532465
-0.30104 -0.395345 0.9964611517532465
-0.451891 -0.448277 0.9964611517532465
-0.224236 -0.445894 0.9995841517532464
-0.252915 -0.269449 0.9964611517532465
0.538166 -0.045983 0.9995841517532464
-0.537345 0.01244 0.9995841517532464
0.411753 0.053962 0.9995841517532464
0.286285 -0.563677 1.0367641517532464
-0.526326 -0.106477 0.9716741517532465
-0.319565 -0.067448 1.0367641517532464
-0.044708 -0.538175 0.9995841517532464
-0.361097 -0.17766 0.9964611517532465
-0.075004 -0.208376 1.0367641517532464
-0.381795 -0.019487 0.9964611517532465
-0.500283 -0.311362 0.9995841517532464
-0.346783 -0.225257 1.0367641517532464
-0.236946 -0.522876 1.0367641517532464
0.48264 -0.428273 1.0367641517532464
-0.320388 -0.545664 0.9995841517532464
0.508627 -0.508548 0.9964611517532465
-0.501266 -0.405876 1.0367641517532464
0.325283 0.022273 0.9803001517532465
-0.041768 -0.451601 0.9964611517532465
0.037652 0.066218 0.9995841517532464
-0.020949 0.010387 0.9964611517532465
-0.4695 -0.266028 0.9964611517532465
0.342135 -0.427744 0.9716741517532465
0.210558 -0.192276 1.0367641517532464
-0.20201 -0.267712 1.0367641517532464
-0.473615 -0.076541 0.9995841517532464
0.45897 -0.562871 1.0367641517532464
-0.061483 -0.304778 1.0367641517532464
0.001602 -0.211299 0.9995841517532464
0.141702 -0.456404 1.0367641517532464
0.287988 -0.019369 1.0367641517532464
-0.093138 -0.086366 1.0367641517532464
0.532756 -0.497113 1.0367641517532464
-0.592494 0.023522 1.0347441517532463
0.487417 -0.113863 0.9995841517532464
-0.08192 -0.420484 0.9716741517532465
-0.014994 -0.291398 0.9716741517532465
-0.096795 -0.283035 0.9995841517532464
-0.013663 -0.395291 0.9716741517532465
0.0625 -0.130079 0.9964611517532465
0.070724 0.034593 1.0367641517532464
0.23907 -0.354167 0.9995841517532464
0.251111 -0.199225 0.9716741517532465
0.102207 -0.049963 0.9995841517532464
0.437772 -0.108098 0.9995841517532464
0.546866 -0.156972 1.0367641517532464
-0.362521 -0.302828 0.9964611517532465
0.064911 -0.217308 0.9995841517532464
0.460079 -0.38246 1.0367641517532464
0.394213 -0.210077 0.9964611517532465
0.484923 -0.29532 0.9995841517532464
0.156735 -0.188934 1.0367641517532464
0.207319 -0.271772 1.0367641517532464
0.47523 -0.4902 0.9716741517532465
0.557501 -0.327472 1.0367641517532464
0.489861 -0.198736 1.0367641517532464
0.104837 -0.556716 1.0367641517532464
0.470284 -0.054831 1.0367641517532464
0.175848 -0.292264 0.9716741517532465
-0.275786 -0.130993 0.9995841517532464
0.216418 -0.501789 0.9995841517532464
0.435324 -0.293663 0.9995841517532464
-0.581798 -0.548468 1.0367641517532464
-0.396677 -0.167774 0.9716741517532465
0.058555 -0.060552 0.9716741517532465
-0.288818 -0.352663 0.9964611517532465
0.269725 -0.167273 0.9964611517532465
-0.077929 0.037994 1.0367641517532464
0.366595 0.046946 0.9995841517532464
0.037965 -0.365243 0.9995841517532464
-0.340881 -0.049809 0.9964611517532465
0.307274 -0.330366 0.9995841517532464
0.482721 -0.234737 0.9716741517532465
0.430667 -0.414033 0.9716741517532465
-0.05664 -0.372104 0.9716741517532465
0.004315 -0.290029 1.0367641517532464
-0.520513 -0.243517 0.9964611517532465
0.21165 -0.176048 0.9964611517532465
0.14703 -0.523046 0.9823381517532465
-0.05105 -0.073103 0.9716741517532465
-0.43654 -0.362202 0.9964611517532465
0.148218 -0.304708 1.0367641517532464
-0.466246 -0.366264 1.0367641517532464
0.418374 -0.311268 1.0367641517532464
-0.006862 -0.072124 0.9716741517532465
-0.433433 -0.488847 0.9995841517532464
0.368196 -0.279141 1.0367641517532464
0.348859 -0.160358 0.9995841517532464
-0.09228 -0.547672 0.9995841517532464
-0.135971 -0.481311 0.9995841517532464
0.198954 -0.527254 1.0367641517532464
-0.190399 -0.583843 1.0367641517532464
-0.371942 -0.433535 0.9716741517532465
-0.190687 -0.411763 0.9995841517532464
-0.23039 -0.178243 0.9964611517532465
0.437517 -0.201546 0.9716741517532465
-0.071622 -0.575506 1.0367641517532464
0.398162 0.010992 0.9964611517532465
-0.146853 -0.189029 0.9964611517532465
0.09242 -0.464011 1.0367641517532464
-0.027279 -0.482452 1.0367641517532464
-0.391386 -0.284241 0.9716741517532465
-0.297449 -0.506997 0.9964611517532465
0.468752 -0.106205 1.0367641517532464
-0.592494 -0.212598 1.0126291517532464
-0.095905 -0.134062 0.9964611517532465
0.461577 -0.513633 1.0367641517532464
0.585748 -0.382197 0.9995841517532464
0.09099 -0.27234 1.0367641517532464
0.126406 -0.439187 0.9964611517532465
0.05528 -0.438698 1.0367641517532464
-0.416193 -0.338214 1.0367641517532464
0.232906 -0.141263 1.0367641517532464
0.52182 -0.469043 0.9995841517532464
-0.101329 -0.509852 1.0367641517532464
0.034899 -0.563916 0.9995841517532464
-0.592494 -0.084742 1.0350541517532466
-0.542193 -0.31741 0.9995841517532464
0.452399 -0.025304 0.9995841517532464
0.559417 -0.125796 0.9995841517532464
-0.03644 -0.078744 1.0367641517532464
-0.055459 -0.272666 0.9995841517532464
