0.02879 0.099445 -0.32269
-0.628268 -0.35574 -0.32269
-0.220487 0.224673 -0.32269
0.022516 -0.361043 -0.336817
0.541829 -0.066841 -0.32269
-0.397483 0.056885 -0.32269
-0.467665 -0.485555 -0.32269
-0.206663 0.2144 -0.336817
0.600541 -0.049877 -0.32269
-0.360425 0.311896 -0.336817
-0.534059 -0.331084 -0.336817
0.054183 -0.482462 -0.32269
-0.610688 0.285023 -0.336817
0.206482 -0.111262 -0.336817
0.201789 -0.319727 -0.336817
-0.360127 0.23852 -0.32269
-0.155093 0.461419 -0.336817
-0.332313 -0.437364 -0.336817
0.283557 0.272791 -0.32269
0.305954 -0.442074 -0.32269
0.445499 0.151776 -0.32269
-0.515336 0.373904 -0.336817
-0.285013 0.230143 -0.336817
-0.510138 -0.293784 -0.32269
0.387132 0.301634 -0.336817
-0.514426 0.167111 -0.32269
-0.202772 -0.005511 -0.336817
-0.504758 -0.006082 -0.336817
-0.431525 -0.446407 -0.32269
-0.526811 0.22295 -0.336817
-0.449868 0.374284 -0.336817
-0.016047 -0.095343 -0.336817
-0.644666 0.366989 -0.32269
-0.146334 0.084325 -0.32269
0.232999 0.454997 -0.336817
0.381375 0.25655 -0.336817
-0.494598 0.05596 -0.336817
-0.52497 0.284744 -0.32269
-0.257731 -0.080573 -0.32269
0.576428 -0.100326 -0.336817
0.636064 0.466671 -0.32269
-0.04259 -0.000287 -0.32269
-0.279642 0.334976 -0.32269
0.567153 -0.471807 -0.336817
-0.355037 -0.140773 -0.32269
-0.050241 -0.373762 -0.336817
-0.253599 -0.123618 -0.336817
-0.076934 0.065242 -0.336817
-0.453219 -0.396368 -0.32269
-0.031459 -0.413178 -0.32269
0.59643 -0.332619 -0.32269
0.543045 0.423618 -0.336817
-0.410993 0.490956 -0.32269
0.623512 -0.094576 -0.336817
-0.52685 0.403754 -0.32269
-0.503775 0.433247 -0.336817
-0.467321 -0.325538 -0.336817
0.282336 0.113329 -0.336817
0.242823 0.01507 -0.32269
-0.271485 -0.031823 -0.336817
0.421468 -0.266478 -0.32269
-0.291633 -0.262738 -0.336817
0.620577 -0.479992 -0.336817
-0.224629 0.297772 -0.336817
-0.427541 0.411971 -0.336817
0.315082 0.196738 -0.32269
0.20865 -0.037532 -0.336817
-0.646779 0.074207 -0.336817
0.177853 -0.510958 -0.32269
-0.006868 0.335264 -0.32269
-0.599249 -0.380224 -0.336817
-0.369241 -0.07188 -0.32269
-0.306444 0.021869 -0.32269
-0.029401 0.302479 -0.336817
-0.240453 -0.494494 0.0848
0.330079 -0.494494 -0.114726
-0.008744 -0.494494 -0.138272
-0.46534 -0.494494 -0.143042
-0.554408 -0.494494 0.092304
0.132932 -0.494494 0.061948
-0.231845 -0.494494 -0.174727
0.49019 -0.494494 0.075128
-0.044256 -0.494494 0.120933
0.496135 -0.494494 -0.186937
0.167884 -0.494494 -0.162094
-0.404313 -0.494494 0.009822
0.327721 -0.494494 0.059421
-0.133682 -0.494494 -0.029337
-0.427664 -0.494494 0.186841
-0.165389 -0.494494 -0.308045
-0.359036 -0.494494 -0.236983
0.226883 -0.494494 0.164176
-0.571843 -0.494494 -0.246644
-0.199704 -0.494494 0.217838
0.536379 -0.494494 -0.062812
-0.298753 -0.494494 -0.05926
0.077819 -0.494494 -0.250345
-0.523665 -0.494494 -0.031267
0.029302 -0.494494 -0.005167
0.26785 -0.494494 -0.236596
0.231885 -0.494494 -0.041552
0.447788 -0.494494 0.200111
0.084053 -0.494494 0.173921
0.426015 -0.494494 -0.025033
-0.045925 -0.494494 -0.248455
0.388136 -0.494494 -0.230019
-0.575928 -0.494494 0.205257
-0.01506 -0.494494 0.246626
-0.580519 -0.494494 -0.125722
-0.343939 -0.494494 0.116271
-0.469265 -0.494494 -0.246101
0.129645 -0.494494 -0.067781
-0.143942 -0.494494 0.129659
0.592138 -0.494494 -0.21887
-0.36727 -0.494494 -0.132094
0.328329 -0.494494 0.250062
-0.105283 -0.494494 -0.134533
0.356281 -0.494494 0.156654
0.233064 -0.494494 0.06704
-0.296962 -0.494494 0.194731
-0.249969 -0.494494 -0.278594
0.583257 -0.494494 0.091676
-0.140318 -0.494494 -0.21651
0.520763 -0.494494 -0.296766
-0.215048 -0.494494 -0.087865
0.425416 -0.494494 -0.134669
-0.050512 -0.494494 0.029641
-0.051777 -0.494494 -0.057815
0.083863 -0.494494 -0.145447
0.035856 -0.494494 0.091277
0.184143 -0.494494 -0.247302
-0.230002 -0.494494 -0.005168
0.313696 -0.494494 -0.025737
0.613259 -0.494494 -0.013506
-0.466402 -0.494494 0.06322
0.257513 -0.494494 -0.149593
-0.449438 -0.494494 -0.064584
-0.311375 -0.494494 0.043866
0.228028 -0.494494 0.243105
0.588592 -0.494494 -0.138155
0.427376 -0.494494 0.124058
-0.460384 -0.494494 0.263552
-0.596128 -0.494494 -0.008987
-0.363828 -0.494494 0.230026
0.523595 -0.494494 0.151837
0.611837 -0.494494 0.164671
0.163363 -0.494494 0.128213
-0.174106 -0.494494 0.054927
0.441061 -0.494494 -0.293119
-0.617095 -0.494494 0.127299
0.534742 -0.494494 0.254806
0.315018 -0.494494 -0.303533
0.058805 -0.494494 -0.075923
-0.296206 -0.494494 -0.132652
0.156723 -0.494494 -0.316812
0.398492 -0.494494 0.038905
0.503693 -0.494494 0.006948
0.004853 -0.494494 0.180214
0.06365 -0.494494 0.239863
-0.524575 -0.494494 0.159201
-0.523244 -0.494494 -0.180263
0.399077 -0.494494 0.253651
-0.209062 -0.494494 0.14802
-0.535248 -0.494494 0.262416
0.191482 -0.494494 0.01512
0.595479 -0.494494 -0.305935
0.319906 -0.494494 -0.196865
-0.176736 -0.494494 -0.139994
-0.443404 -0.494494 0.124231
0.190332 -0.494494 -0.090768
-0.060624 -0.494494 -0.186525
-0.633793 -0.494494 0.242916
-0.002769 -0.494494 -0.299045
-0.279832 -0.494494 -0.223224
-0.402338 -0.494494 0.072597
-0.243918 -0.494494 0.269025
-0.311441 -0.494494 -0.285296
0.483746 -0.494494 -0.095096
-0.416188 -0.494494 -0.277428
-0.343316 -0.494494 -0.008756
0.381154 -0.494494 -0.066646
0.275263 -0.494494 0.126866
-0.09388 -0.494494 0.246223
-0.54792 -0.494494 0.028234
-0.278183 -0.494494 0.137294
-0.431719 -0.494494 -0.192387
-0.611697 -0.494494 -0.176626
0.124439 -0.494494 -0.202614
0.130144 -0.494494 0.002922
-0.621962 -0.494494 -0.066149
0.603951 -0.494494 -0.076256
0.009527 -0.494494 -0.193704
-0.392474 -0.494494 -0.074987
-0.618669 -0.494494 0.049876
0.443243 -0.494494 -0.212872
-0.474684 -0.494494 0.006156
-0.09749 -0.494494 -0.273505
-0.508289 -0.494494 -0.086052
-0.627998 -0.494494 -0.252519
-0.506138 -0.494494 0.212438
-0.051434 -0.494494 0.192928
0.523601 -0.494494 -0.235795
0.369854 -0.494494 -0.291978
-0.122339 -0.494494 0.034244
0.276316 -0.494494 0.015531
0.122413 -0.494494 0.244049
0.558681 -0.494494 0.003529
0.6045 -0.494494 0.040835
-0.355724 -0.494494 0.176315
0.359939 -0.494494 0.102993
0.001229 -0.494494 -0.064756
-0.218879 -0.494494 -0.235582
0.081515 -0.494494 0.049779
-0.140693 -0.494494 0.223235
0.025966 -0.494494 -0.255201
-0.624326 -0.494494 0.186078
-0.518546 -0.494494 -0.262431
-0.000155 -0.494494 0.039758
-0.129332 -0.494494 -0.080403
-0.088586 -0.494494 0.095243
0.127816 -0.494494 -0.120012
-0.086806 -0.494494 -0.009856
0.448292 -0.494494 0.037232
-0.343734 -0.494494 -0.175634
-0.181875 -0.494494 -0.01844
0.537898 -0.494494 0.063083
-0.506184 -0.494494 0.102027
0.558043 -0.494494 0.190482
0.376976 -0.494494 -0.129987
0.472288 -0.494494 -0.039897
-0.067154 -0.494494 -0.103806
-0.08568 -0.494494 0.158602
0.503283 -0.494494 -0.138705
-0.280037 -0.494494 0.007822
0.117295 -0.494494 0.116124
-0.248106 -0.494494 0.221789
0.478167 -0.494494 0.12058
-0.569175 -0.494494 -0.080115
-0.345739 -0.494494 -0.070472
0.386008 -0.494494 -0.183287
0.188878 -0.494494 0.217769
-0.136294 -0.494494 -0.169192
0.037743 -0.494494 -0.156974
0.479617 -0.494494 0.233659
0.336208 -0.494494 -0.260567
0.046888 -0.494494 -0.296161
0.438629 -0.494494 -0.086456
-0.305832 -0.494494 0.090621
0.193321 -0.494494 0.093525
-0.387645 -0.494494 -0.313276
-0.431326 -0.494494 -0.112525
0.575665 -0.494494 0.136639
0.553079 -0.494494 -0.195473
-0.59267 -0.494494 -0.286873
0.187022 -0.494494 -0.035412
-0.260238 -0.494494 -0.088333
0.182492 -0.494494 0.172264
-0.173146 -0.494494 -0.069667
0.303101 -0.494494 -0.078823
0.212121 -0.494494 -0.154367
-0.150665 -0.494494 0.174012
0.319935 -0.494494 0.128429
-0.527685 -0.494494 -0.135794
-0.397568 -0.494494 0.153887
-0.435403 -0.494494 -0.022065
-0.547253 -0.494494 -0.296338
0.269587 -0.494494 -0.192356
-0.046722 -0.494494 -0.294127
0.185985 -0.494494 -0.203254
-0.640905 -0.494494 0.011988
-0.00249 -0.494494 0.132316
0.13464 -0.494494 0.160593
-0.620634 -0.494494 -0.109486
-0.472949 -0.494494 -0.303105
-0.012461 -0.494494 -0.014931
-0.578258 -0.494494 0.145361
-0.361147 -0.494494 0.030163
0.202717 -0.494494 -0.289988
-0.184013 -0.494494 0.096357
0.101494 -0.494494 -0.02845
0.486862 -0.494494 -0.27131
-0.274166 -0.494494 -0.172589
-0.500815 -0.494494 -0.218113
0.598318 -0.494494 0.204525
0.226204 -0.494494 -0.246327
0.594787 -0.494494 -0.263882
0.071751 -0.494494 -0.185498
-0.47634 -0.494494 -0.183404
-0.352802 -0.494494 -0.279037
0.226619 -0.494494 0.122377
0.462627 -0.494494 -0.153363
-0.210419 -0.494494 -0.291601
-0.081693 -0.494494 -0.227333
0.234191 -0.494494 -0.082843
0.233853 -0.494494 0.025778
-0.484467 -0.494494 0.168785
0.021032 -0.494494 -0.10073
0.102368 -0.494494 -0.283218
-0.31197 -0.494494 0.25229
0.144545 -0.494494 -0.257456
0.551542 -0.494494 -0.120926
0.614273 -0.494494 0.12365
0.364925 -0.494494 0.015881
0.640506 -0.494494 0.019585
0.449266 -0.494494 -0.2531
-0.391743 -0.494494 -0.185065
-0.37916 -0.494494 -0.036612
0.443661 -0.494494 0.086954
0.323018 -0.494494 0.019511
-0.630303 -0.494494 -0.212116
-0.441562 -0.494494 0.028659
-0.136298 -0.494494 -0.263659
-0.216205 -0.494494 -0.133822
0.267832 -0.494494 -0.111023
0.104815 -0.494494 0.207896
0.309992 -0.494494 -0.149064
-0.34824 -0.494494 -0.31869
-0.276384 -0.494494 0.062756
0.396536 -0.494494 0.087892
-0.012151 -0.494494 -0.228327
-0.179691 -0.494494 -0.232877
-0.123624 -0.494494 0.077859
0.515964 -0.494494 0.111164
-0.583021 -0.494494 0.066021
0.063383 -0.494494 -0.035904
-0.210991 -0.494494 0.028611
0.270427 -0.494494 -0.04497
-0.569427 -0.494494 -0.162747
-0.324458 -0.494494 -0.219744
-0.257677 -0.494494 -0.129955
-0.051127 -0.494494 0.232873
0.592019 -0.494494 -0.180358
0.364553 -0.494494 0.23708
-0.362351 -0.494494 0.083066
-0.410735 -0.494494 -0.223864
0.443069 -0.494494 0.162584
0.278264 -0.494494 -0.272639
0.480653 -0.494494 -0.221087
-0.629116 -0.494494 -0.029724
0.557302 -0.494494 -0.303306
0.041628 -0.494494 -0.212105
0.017949 -0.494494 0.229924
-0.639262 -0.494494 0.097699
0.069164 -0.494494 0.107282
-0.205325 -0.494494 -0.04687
0.396223 -0.494494 -0.003436
0.270197 -0.494494 0.051606
0.297484 -0.494494 0.079786
0.482536 -0.494494 0.185776
-0.18721 -0.494494 0.183669
0.270319 -0.494494 0.162727
-0.310404 -0.494494 -0.023173
0.120607 -0.494494 -0.31426
0.064486 -0.494494 0.001691
0.555775 -0.494494 -0.032101
0.553524 -0.494494 -0.159728
0.349078 -0.494494 -0.15224
-0.055081 -0.494494 0.083179
-0.540005 -0.494494 -0.10224
-0.472948 -0.494494 -0.091261
-0.284511 -0.494494 -0.258384
-0.010555 -0.494494 -0.263727
-0.148112 -0.494494 0.002984
-0.192921 -0.494494 0.252446
0.569045 -0.494494 -0.080444
-0.051815 -0.494494 -0.00669
0.566836 -0.494494 0.241094
-0.022817 -0.494494 -0.180644
0.407279 -0.494494 -0.284564
0.627628 -0.494494 -0.050708
-0.585278 -0.494494 0.25165
-0.244004 -0.494494 0.131978
0.527525 -0.494494 0.221281
-0.265263 -0.494494 0.181814
0.07685 -0.494494 -0.112061
-0.519076 -0.494494 0.010043
-0.453907 -0.494494 0.208513
0.627025 -0.494494 -0.292401
-0.40087 -0.494494 0.120089
0.414139 -0.494494 0.204093
0.215799 -0.494494 -0.112915
-0.605894 -0.494494 0.093166
0.541543 -0.494494 -0.264289
-0.564171 -0.494494 -0.019464
-0.183133 -0.494494 -0.101679
-0.079689 -0.494494 0.045847
0.003402 -0.494494 0.083999
0.096971 -0.494494 -0.073646
0.245104 -0.494494 -0.011203
0.393051 -0.494494 -0.101104
-0.241193 -0.494494 0.051777
0.025403 -0.494494 -0.037936
0.027673 -0.494494 0.057415
-0.121571 -0.494494 0.263968
-0.029166 -0.494494 0.151533
0.154231 -0.494494 -0.033231
-0.331763 -0.494494 0.153846
-0.629125 -0.494494 -0.141205
-0.597675 -0.494494 -0.226382
0.623539 -0.494494 -0.189545
0.619699 -0.494494 -0.148538
0.289499 -0.494494 0.222062
0.370073 -0.494494 0.068619
-0.51474 -0.494494 -0.297597
0.621746 -0.494494 -0.103472
-0.492548 -0.494494 -0.117186
0.043499 -0.494494 0.126967
-0.20336 -0.494494 -0.207239
-0.486919 -0.494494 -0.274086
0.071134 -0.494494 0.203413
-0.097376 -0.494494 0.126193
-0.109651 -0.494494 -0.206875
-0.355887 -0.494494 0.264627
0.124832 -0.494494 -0.17067
0.168278 -0.494494 0.263368
0.36388 -0.494494 0.268819
-0.082418 -0.494494 -0.049901
-0.43763 -0.494494 -0.158327
0.148024 -0.494494 0.03421
0.172198 -0.494494 -0.11652
-0.317648 -0.494494 -0.084708
0.605301 -0.494494 0.254911
0.517976 -0.494494 -0.021094
-0.578891 -0.494494 0.033752
-0.338654 -0.494494 -0.119126
0.162076 -0.494494 0.090505
-0.554941 -0.494494 0.228472
-0.010836 -0.494494 -0.093551
-0.649474 -0.494494 0.044909
-0.563852 -0.494494 0.281421
0.423285 -0.494494 0.018706
-0.42104 -0.494494 -0.30804
-0.532779 -0.494494 0.117838
0.157472 -0.494494 0.190429
-0.486342 -0.494494 -0.022456
-0.098663 -0.494494 -0.077281
-0.59235 -0.494494 -0.057641
0.379481 -0.494494 0.176892
0.479549 -0.494494 -0.301171
-0.164325 -0.494494 -0.197343
-0.438126 -0.494494 0.242453
0.328147 -0.494494 -0.061198
0.051803 -0.494494 0.173143
-0.082847 -0.494494 -0.165588
-0.128358 -0.494494 -0.114559
-0.122181 -0.494494 0.184954
0.595275 -0.494494 -0.047013
0.30513 -0.494494 -0.258608
0.527288 -0.494494 0.0347
0.300149 -0.494494 -0.110475
-0.522696 -0.494494 0.044721
0.107194 -0.494494 0.148351
0.343455 -0.494494 -0.029343
-0.406835 -0.494494 0.21204
-0.498982 -0.494494 -0.162912
-0.082656 -0.494494 0.218656
-0.204545 -0.494494 0.074808
-0.654267 -0.494494 -0.26672
-0.547787 -0.494494 -0.229504
0.349918 -0.494494 -0.181682
0.118588 -0.494494 0.034448
-0.648489 -0.494494 -0.171499
0.093902 -0.494494 0.237182
-0.389969 -0.494494 0.243163
-0.116354 -0.494494 -0.053988
0.019421 -0.494494 -0.130409
0.459855 -0.494494 0.010504
0.430458 -0.494494 0.060237
0.290441 -0.494494 0.255962
-0.628578 -0.494494 0.157315
-0.277188 -0.494494 -0.28872
-0.468215 -0.494494 0.235609
-0.435032 -0.494494 -0.23969
0.450933 -0.494494 0.228913
0.526364 -0.494494 -0.089947
-0.285366 -0.494494 -0.105848
0.295323 -0.494494 0.147525
-0.459493 -0.494494 -0.037729
-0.261204 -0.494494 0.109091
-0.228154 -0.494494 0.201308
0.462934 -0.494494 -0.181931
-0.548147 -0.494494 0.064434
-0.208238 -0.494494 -0.262067
0.502431 -0.494494 -0.073537
-0.654686 -0.494494 0.07375
-0.151916 -0.494494 -0.098601
0.347399 -0.494494 -0.092185
-0.456478 -0.494494 -0.206216
-0.027539 -0.494494 0.20807
-0.422953 -0.494494 0.049797
-0.33547 -0.494494 0.018197
0.411715 -0.494494 0.147239
0.34947 -0.494494 0.0419
-0.386231 -0.494494 -0.242614
-0.036084 -0.494494 -0.142369
0.104798 -0.494494 0.09147
0.223818 -0.494494 0.191626
0.187448 -0.494494 0.141664
-0.113996 -0.494494 -0.005231
0.104505 -0.494494 -0.100173
-0.157858 -0.494494 0.028729
0.097304 -0.494494 -0.207048
0.243209 -0.494494 -0.184623
0.279121 -0.494494 -0.011769
-0.068835 -0.494494 0.26369
-0.398872 -0.494494 -0.017632
-0.112936 -0.494494 0.15843
-0.37074 -0.494494 0.004722
-0.219951 -0.494494 0.250182
0.54898 -0.494494 0.16133
-0.219126 -0.494494 0.121413
-0.552431 -0.494494 -0.265443
0.046454 -0.494494 -0.109366
-0.372553 -0.494494 -0.158353
0.330412 -0.494494 0.163461
-0.170292 -0.494494 0.119261
-0.19843 -0.494494 0.2812
0.282539 -0.494494 -0.140447
-0.329653 -0.494494 -0.153042
-0.415278 -0.494494 0.095835
-0.039105 -0.494494 -0.202143
-0.594714 -0.494494 -0.087233
-0.25402 -0.494494 -0.217985
-0.374713 -0.494494 0.106321
0.179556 -0.494494 -0.302446
0.155938 -0.494494 -0.067717
0.19371 -0.494494 -0.173089
-0.35389 -0.494494 0.205753
0.271294 -0.494494 0.201833
0.434594 -0.494494 0.272455
-0.011885 -0.494494 -0.042101
0.546348 -0.494494 -0.222898
0.293351 -0.494494 0.035334
0.467174 -0.494494 0.062782
0.131608 -0.494494 0.18848
-0.175371 -0.494494 -0.043838
-0.043619 -0.494494 0.25765
0.354667 -0.494494 -0.067345
0.202619 -0.494494 0.069394
-0.007295 -0.494494 0.014928
0.138702 -0.494494 -0.232297
-0.420774 -0.494494 0.142705
0.048437 -0.494494 -0.242719
0.295682 -0.494494 -0.049699
0.215449 -0.494494 -0.021809
0.468196 -0.494494 0.09456
0.409601 -0.494494 -0.193359
0.50739 -0.494494 0.192043
-0.644414 -0.494494 -0.078221
0.056353 -0.494494 0.267748
0.390999 -0.494494 -0.2651
-0.322845 -0.494494 0.177578
-0.120645 -0.494494 -0.283758
0.370096 -0.494494 -0.212309
0.391557 -0.494494 -0.158652
0.560721 -0.494494 0.080503
-0.146561 -0.494494 0.247669
0.093903 -0.494494 -0.173656
0.465465 -0.494494 0.151327
0.496445 -0.494494 0.137672
-0.385868 -0.494494 0.175921
-0.603789 -0.494494 -0.264602
-0.521288 -0.494494 0.192704
-0.478912 -0.494494 0.030667
0.513139 -0.494494 0.242642
0.151027 -0.494494 0.245577
0.400441 -0.494494 -0.027834
0.132811 -0.494494 0.278146
0.108351 -0.494494 -0.142028
0.11046 -0.494494 -0.052212
-0.33951 -0.494494 -0.251914
-0.557153 -0.494494 0.12044
-0.029579 -0.494494 0.101306
0.495718 -0.494494 -0.162016
-0.020322 -0.494494 0.174383
-0.323145 -0.494494 -0.060597
0.021611 -0.494494 -0.299127
0.478304 -0.494494 -0.070168
0.051354 -0.494494 0.05198
0.047482 -0.494494 -0.185277
-0.246631 -0.494494 -0.155487
-0.17974 -0.494494 0.160641
0.327326 -0.494494 -0.165874
-0.656294 -0.494494 -0.030243
-0.548605 -0.494494 0.004119
-0.416221 -0.494494 -0.070785
0.079604 -0.494494 0.085579
-0.642952 -0.494494 -0.233709
-0.281011 -0.494494 0.273722
-0.226989 -0.494494 -0.036722
0.244169 -0.494494 -0.114151
0.005647 -0.494494 0.204017
-0.062929 -0.494494 -0.265128
-0.186737 -0.494494 0.004852
0.506729 -0.494494 -0.258266
-0.312759 -0.494494 0.228542
0.146243 -0.494494 -0.295492
-0.429471 -0.494494 0.219062
-0.602512 -0.494494 0.032336
-0.163881 -0.494494 0.143221
0.520078 -0.494494 -0.044527
-0.058184 -0.494494 -0.226676
-0.483003 -0.494494 0.105341
-0.439312 -0.494494 -0.281084
-0.149991 -0.494494 -0.066372
-0.558508 -0.494494 0.189698
-0.600946 -0.494494 -0.137041
0.268438 -0.494494 0.263786
-0.595708 -0.494494 -0.034579
-0.067459 -0.494494 0.013663
-0.387957 -0.494494 -0.290001
0.161986 -0.494494 0.213189
0.041476 -0.494494 -0.054599
-0.186479 -0.494494 -0.298571
0.347229 -0.494494 0.122293
-0.089372 -0.494494 -0.251878
0.460164 -0.494494 -0.094751
-0.12747 -0.494494 0.100583
0.225665 -0.494494 0.001071
-0.1571 -0.494494 -0.029898
0.585173 -0.494494 -0.09669
-0.54639 -0.494494 -0.078016
0.421243 -0.494494 -0.304553
0.245393 -0.494494 -0.232641
0.522606 -0.494494 0.274092
-0.339839 -0.494494 -0.0964
-0.196885 -0.494494 0.12623
-0.320379 -0.494494 -0.197369
0.576019 -0.494494 -0.162513
-0.618901 -0.494494 0.208061
-0.546941 -0.494494 0.15595
0.192908 -0.494494 0.192319
0.468806 -0.494494 0.213844
-0.440436 -0.494494 -6.9e-05
-0.496195 -0.494494 0.012913
0.561985 -0.494494 0.103005
-0.285729 -0.494494 0.116058
-0.273537 -0.494494 0.090244
0.573844 -0.494494 -0.018749
0.225151 -0.494494 -0.289573
0.29321 -0.494494 -0.298281
-0.457133 -0.494494 0.186315
-0.365416 -0.494494 -0.260588
-0.076775 -0.494494 -0.081189
-0.15026 -0.494494 -0.246357
-0.529375 -0.494494 -0.009811
0.205643 -0.494494 -0.132631
-0.102742 -0.494494 -0.296844
0.536133 -0.494494 0.0851
0.063033 -0.494494 -0.217381
0.529801 -0.494494 0.172983
0.227627 -0.494494 -0.131591
0.229898 -0.494494 0.088789
-0.376124 -0.494494 0.195543
-0.134582 -0.494494 0.149405
-0.34279 -0.494494 0.235922
-0.451646 -0.494494 -0.086418
0.413139 -0.494494 -0.116602
0.538927 -0.494494 -0.315064
-0.076065 -0.494494 -0.201931
0.20641 -0.494494 0.240269
-0.297129 -0.494494 0.069422
-0.532559 -0.494494 0.240842
-0.334335 -0.494494 0.261815
-0.5486 0.560276 0.151548
-0.559326 0.541441 -0.090702
-0.560998 0.560276 -0.253283
-0.54557 0.55947 -0.003383
-0.547286 0.541441 -0.172403
-0.611424 0.541441 -0.312997
-0.567198 0.560276 0.224769
-0.56824 0.560276 0.076551
-0.628006 0.541441 -0.228661
-0.625452 0.560276 0.144538
-0.609907 0.560276 -0.151224
-0.613501 0.560276 0.012619
-0.6358 0.541441 0.249382
-0.618348 0.541441 -0.06218
-0.554736 0.541441 0.276137
-0.596568 0.541441 0.179755
-0.567968 0.560276 -0.302643
-0.591116 0.560276 -0.20536
-0.619261 0.560276 0.074688
-0.62154 0.560276 -0.10664
-0.622424 0.560276 -0.272883
-0.565114 0.560276 -0.131811
-0.570834 0.541441 0.030483
-0.550043 0.560276 -0.052613
-0.54557 0.54273 -0.217153
-0.599719 0.541441 0.278336
-0.553264 0.541441 0.115388
-0.647355 0.541441 -0.024389
-0.650564 0.560276 -0.145094
-0.627639 0.541441 0.21085
-0.625675 0.541441 -0.189471
-0.6058 0.560276 0.11039
-0.586716 0.560276 -0.012679
-0.580087 0.541441 -0.047537
-0.65775 0.541441 -0.110197
-0.59112 0.541441 0.244486
-0.587278 0.541441 -0.266104
-0.597055 0.541441 0.05766
-0.6555 0.560276 0.166893
-0.551823 0.560276 0.195128
-0.581055 0.560276 0.153394
-0.595563 0.541441 -0.173204
-0.645694 0.560276 -0.085445
-0.611747 0.541441 -0.018498
-0.548459 0.541441 -0.286489
-0.597808 0.541441 -0.234591
-0.604746 0.560276 0.218121
-0.60127 0.560276 -0.079003
-0.54557 0.556851 0.036488
-0.587291 0.541441 -0.102015
-0.56065 0.560276 -0.197836
-0.568848 0.560276 -0.164759
-0.596652 0.541441 -0.134324
-0.596751 0.541441 0.08561
-0.577317 0.560276 0.125868
-0.573251 0.541441 -0.217132
-0.566559 0.541441 -0.010284
-0.623795 0.560276 0.266572
-0.634436 0.541441 -0.163405
-0.640755 0.541441 0.079361
-0.579147 0.560276 0.195499
-0.605313 0.541441 0.031898
-0.560365 0.541441 0.24969
-0.62906 0.560276 0.172126
-0.607047 0.541441 -0.283994
-0.63147 0.541441 -0.122538
-0.545619 0.541441 0.015423
-0.64299 0.541441 -0.297067
-0.643215 0.541441 0.146298
-0.637922 0.560276 -0.20165
-0.653197 0.541441 -0.070152
-0.582732 0.560276 0.042034
-0.641331 0.541441 -0.249416
-0.627156 0.560276 -0.021918
-0.61182 0.560276 0.051359
-0.567642 0.560276 -0.103237
-0.628091 0.560276 -0.297659
-0.602453 0.560276 0.164059
-0.647339 0.541441 0.178607
-0.637055 0.560276 0.221572
-0.657804 0.560276 -0.214661
-0.602602 0.541441 0.202534
-0.643445 0.560276 -0.114965
-0.573849 0.541441 0.104527
-0.575676 0.560276 -0.272999
-0.604518 0.560276 -0.186507
-0.570943 0.541441 -0.244467
-0.637574 0.560276 -0.001552
-0.588612 0.560276 0.095485
-0.54557 0.548962 -0.30772
-0.63965 0.560276 0.126771
-0.613669 0.541441 -0.084096
-0.563272 0.541441 0.065611
-0.54557 0.543291 0.094656
-0.54557 0.555844 0.262096
-0.640059 0.541441 -0.321545
-0.591756 0.541441 0.150988
-0.135418 0.576255 -0.365069
0.416066 0.588058 -0.365069
-0.42645 0.588529 -0.357318
0.203013 0.588529 -0.346761
0.037809 0.554088 -0.336817
-0.543018 0.483441 -0.365069
-0.28195 0.588529 -0.348419
0.542562 0.57273 -0.365069
-0.36616 0.475518 -0.354999
-0.556422 0.588529 -0.363266
0.391603 0.475518 -0.361364
-0.04938 0.588529 -0.351873
0.633048 0.588529 -0.348822
-0.212759 0.531237 -0.365069
0.282824 0.588529 -0.363621
0.48658 0.517318 -0.365069
0.105279 0.588529 -0.339779
0.351347 0.56308 -0.365069
0.479274 0.587829 -0.336817
-0.610671 0.475518 -0.353099
0.086727 0.475518 -0.362323
0.586821 0.527668 -0.365069
-0.4895 0.588529 -0.356967
-0.19598 0.588529 -0.358652
0.263112 0.501404 -0.365069
-0.365356 0.588529 -0.362574
-0.105025 0.484001 -0.365069
-0.010968 0.493116 -0.365069
0.156174 0.549034 -0.365069
-0.26303 0.490223 -0.365069
0.180554 0.475518 -0.361203
0.343008 0.502295 -0.365069
-0.591974 0.541437 -0.365069
0.004893 0.587956 -0.365069
-0.307228 0.543873 -0.365069
-0.056636 0.534735 -0.365069
-0.6096 0.588529 -0.338248
-0.255814 0.544184 -0.336817
-0.413598 0.488107 -0.365069
0.539269 0.475518 -0.364379
-0.171313 0.504909 -0.365069
-0.497217 0.539013 -0.365069
-0.485912 0.475518 -0.359479
-0.410502 0.543318 -0.365069
0.08057 0.545901 -0.365069
0.266451 0.553221 -0.336817
-0.320693 0.477241 -0.365069
0.005047 0.536885 -0.365069
0.204675 0.545989 -0.365069
-0.09988 0.588529 -0.33919
0.435953 0.483703 -0.365069
0.40042 0.519561 -0.365069
0.492095 0.475518 -0.341163
0.067606 0.588529 -0.36214
-0.344254 0.513925 -0.365069
-0.122683 0.534791 -0.365069
0.571799 0.588529 -0.338057
0.297763 0.546367 -0.365069
-0.244615 0.573808 -0.365069
0.321847 0.573489 -0.336817
-0.3234 0.570515 -0.336817
0.385441 0.567119 -0.336817
0.604914 0.560852 -0.336817
0.139514 0.588529 -0.36194
0.44403 0.522622 -0.365069
0.589776 0.488118 -0.365069
-0.55607 0.525004 -0.365069
-0.46729 0.509855 -0.365069
-0.524119 0.588529 -0.339583
-0.16939 0.558717 -0.365069
-0.203736 0.475518 -0.356012
-0.090428 0.562301 -0.365069
0.038234 0.518759 -0.365069
0.123366 0.531147 -0.365069
0.29752 0.487171 -0.365069
-0.646556 0.483984 -0.365069
0.247712 0.539481 -0.365069
0.340812 0.543027 -0.336817
-0.07456 0.502683 -0.365069
-0.366764 0.541644 -0.365069
0.163765 0.568905 -0.336817
0.087133 0.511244 -0.365069
-0.486834 0.557379 -0.336817
0.511289 0.556698 -0.365069
-0.528227 0.555515 -0.365069
0.122922 0.475518 -0.359266
-0.014811 0.58447 -0.336817
-0.63722 0.576765 -0.365069
0.15683 0.511448 -0.365069
0.212448 0.48727 -0.365069
0.070182 0.565046 -0.336817
-0.576983 0.551971 -0.336817
-0.395613 0.588529 -0.343851
0.633008 0.528301 -0.365069
-0.158624 0.475518 -0.355019
-0.276016 0.554403 -0.365069
0.511609 0.588529 -0.339406
0.554564 0.528435 -0.365069
-0.435456 0.513708 -0.365069
0.473625 0.48556 -0.365069
0.518376 0.515786 -0.365069
-0.584042 0.572837 -0.365069
0.619623 0.4987 -0.365069
0.482398 0.569625 -0.365069
-0.076944 0.475518 -0.348131
-0.397504 0.548607 -0.336817
-0.636402 0.556644 -0.336817
0.492909 0.559604 -0.336817
-0.038332 0.563487 -0.336817
-0.238938 0.509992 -0.365069
0.032822 0.574151 -0.365069
-0.453611 0.588529 -0.342463
0.453275 0.571031 -0.336817
0.60249 0.588529 -0.352896
-0.235088 0.477304 -0.365069
0.132982 0.567641 -0.336817
0.012895 0.475518 -0.357744
-0.570426 0.582646 -0.336817
0.185259 0.572146 -0.365069
-0.588182 0.511441 -0.365069
-0.620799 0.532551 -0.365069
-0.512663 0.475518 -0.34587
0.381447 0.588529 -0.35746
0.268943 0.583017 -0.336817
-0.301668 0.573691 -0.365069
0.219776 0.520424 -0.365069
0.320337 0.565623 -0.365069
0.295111 0.475518 -0.337693
-0.163441 0.567427 -0.336817
0.324973 0.475518 -0.36398
0.558738 0.496986 -0.365069
-0.130145 0.573018 -0.336817
-0.426048 0.561855 -0.336817
0.222405 0.569623 -0.336817
-0.14267 0.501645 -0.365069
0.362907 0.475518 -0.362576
0.407838 0.58505 -0.336817
0.059053 0.482098 -0.365069
0.152007 0.475518 -0.36164
-0.056784 0.564326 -0.365069
0.437808 0.569581 -0.365069
0.410701 0.546101 -0.365069
-0.028309 0.475518 -0.34238
0.097569 0.545067 -0.336817
0.336914 0.52996 -0.365069
-0.393474 0.475518 -0.348552
0.504795 0.482924 -0.365069
0.258445 0.475518 -0.356085
0.128663 0.563349 -0.365069
0.261365 0.571534 -0.365069
0.010354 0.573631 -0.336817
-0.542111 0.568168 -0.336817
-0.034527 0.518791 -0.365069
0.568912 0.58835 -0.365069
-0.469138 0.536806 -0.365069
-0.215372 0.570953 -0.365069
0.376065 0.530801 -0.365069
0.29555 0.569203 -0.336817
-0.210427 0.499596 -0.365069
-0.38022 0.564494 -0.365069
-0.362089 0.583468 -0.336817
-0.195195 0.553172 -0.365069
-0.096808 0.530608 -0.365069
-0.104352 0.584296 -0.365069
-0.231165 0.552428 -0.336817
0.541652 0.567707 -0.336817
-0.015056 0.553204 -0.365069
-0.153013 0.539162 -0.365069
0.609918 0.538773 -0.365069
-0.099672 0.554701 -0.336817
-0.519946 0.528053 -0.365069
0.036619 0.475518 -0.349837
-0.601506 0.564945 -0.336817
0.282435 0.526743 -0.365069
0.356594 0.588529 -0.358136
0.365517 0.542441 -0.336817
0.193386 0.568236 -0.336817
-0.307642 0.588529 -0.342105
0.383037 0.50234 -0.365069
0.042954 0.588529 -0.348272
-0.276543 0.510315 -0.365069
-0.504867 0.573449 -0.336817
-0.637285 0.580762 -0.336817
-0.568945 0.548511 -0.365069
-0.186777 0.56284 -0.336817
0.443806 0.588529 -0.352448
-0.551046 0.475518 -0.344454
-0.509592 0.550511 -0.336817
0.340801 0.587126 -0.336817
0.397571 0.573826 -0.365069
-0.267263 0.578132 -0.365069
0.238013 0.506641 -0.365069
-0.273786 0.475518 -0.341144
-0.190006 0.517819 -0.365069
0.079275 0.585765 -0.336817
-0.155918 0.585775 -0.365069
-0.403202 0.586973 -0.365069
0.315952 0.588529 -0.35241
0.564378 0.475518 -0.361817
-0.658329 0.568336 -0.365069
0.603655 0.475518 -0.353455
0.537476 0.502679 -0.365069
0.600257 0.510287 -0.365069
-0.181836 0.475518 -0.356361
0.016994 0.547316 -0.336817
0.111636 0.563007 -0.336817
-0.27844 0.532057 -0.365069
0.528035 0.559134 -0.235987
0.528035 0.558597 -0.034023
0.589015 0.560276 0.206867
0.567503 0.560276 0.062889
0.611172 0.541441 -0.18756
0.542973 0.560276 -0.120981
0.532281 0.560276 0.137849
0.579248 0.560276 -0.292657
0.590096 0.541441 -0.068989
0.532203 0.541441 0.246057
0.597882 0.560276 0.132979
0.595946 0.560276 0.004023
0.617242 0.541441 -0.12456
0.640128 0.541441 -0.31131
0.583682 0.541441 -0.24003
0.533312 0.560276 0.192506
0.533468 0.560276 0.019863
0.528035 0.555136 -0.182418
0.528035 0.548206 -0.326355
0.631815 0.541441 -0.255135
0.565467 0.541441 0.163618
0.543857 0.541441 0.097152
0.54425 0.541441 -0.077567
0.625467 0.560276 0.17106
0.625067 0.541441 0.229783
0.58209 0.560276 -0.105672
0.607431 0.560276 0.092183
0.56285 0.560276 -0.204769
0.597739 0.560276 0.257558
0.623004 0.560276 -0.090147
0.638962 0.560276 0.125929
0.528035 0.551613 0.062686
0.573014 0.541441 -0.326758
0.595867 0.560276 -0.035886
0.559339 0.560276 -0.162797
0.631377 0.560276 -0.052553
0.61609 0.560276 -0.290928
0.576169 0.541441 -0.136947
0.631129 0.560276 0.011226
0.560467 0.541441 0.006436
0.564023 0.541441 0.261175
0.558338 0.541441 -0.038527
0.580731 0.541441 0.104286
0.624435 0.541441 0.279119
0.550375 0.541441 -0.2541
0.61174 0.560276 -0.151366
0.63576 0.560276 -0.175752
0.547398 0.541441 -0.301613
0.603482 0.560276 0.060444
0.611241 0.541441 0.194005
0.556572 0.560276 0.213267
0.567134 0.560276 0.134604
0.591785 0.560276 -0.212593
0.600484 0.560276 -0.265348
0.615784 0.541441 0.039672
0.584121 0.541441 0.239213
0.528035 0.548212 0.218163
0.60205 0.541441 -0.09611
0.585874 0.560276 -0.173549
0.536458 0.541441 -0.206089
0.530521 0.541441 0.159135
0.560018 0.560276 0.183836
0.55769 0.541441 -0.224122
0.561132 0.541441 0.044269
0.613773 0.541441 -0.001867
0.630051 0.541441 -0.034203
0.528035 0.558002 -0.099607
0.56599 0.541441 -0.280419
0.636908 0.541441 -0.105944
0.599611 0.560276 0.181966
0.562128 0.560276 -0.242866
0.573569 0.541441 0.202224
0.606292 0.560276 -0.112742
0.62469 0.560276 0.146033
0.546157 0.541441 -0.154842
0.581495 0.560276 0.089054
0.639395 0.541441 -0.195544
0.640889 0.560276 0.189398
0.626105 0.560276 0.2151
0.612784 0.560276 -0.067566
0.530211 0.560276 -0.259599
0.541238 0.541441 0.180577
0.534487 0.541441 -0.13248
0.598971 0.541441 0.017074
0.537973 0.560276 0.109061
0.545067 0.560276 0.157005
0.605886 0.560276 0.236116
0.562979 0.560276 -0.132188
0.592987 0.560276 -0.317303
0.550948 0.560276 0.034397
0.551461 0.560276 -0.00255
0.595918 0.560276 -0.234491
0.604253 0.541441 -0.160461
0.638368 0.560276 -0.019012
0.640024 0.541441 0.150871
0.284875 0.538518 0.284744
-0.385248 0.587997 0.284744
0.091142 0.588529 0.298405
0.476804 0.585496 0.284744
-0.223219 0.588529 0.294604
-0.539266 0.588529 0.296349
-0.020559 0.588529 0.289321
0.179878 0.532024 0.300097
0.37622 0.588529 0.300395
0.575291 0.588529 0.302515
-0.116237 0.585713 0.284744
-0.619242 0.588529 0.285925
-0.462001 0.588529 0.311919
-0.311427 0.588529 0.309892
0.223876 0.588529 0.295936
0.428962 0.532024 0.295555
-0.070606 0.538501 0.284744
-0.172612 0.555555 0.312997
0.591071 0.532024 0.285695
0.317964 0.579126 0.312997
0.148554 0.581352 0.284744
0.105592 0.53262 0.284744
-0.342724 0.545653 0.284744
-0.231217 0.532024 0.28765
0.0325 0.588529 0.301146
-0.489792 0.542162 0.284744
-0.068636 0.584994 0.312997
-0.281031 0.553302 0.284744
0.2335 0.532327 0.284744
-0.424327 0.556285 0.284744
0.036703 0.538717 0.284744
0.276668 0.588529 0.289268
0.5293 0.588529 0.291505
-0.115416 0.532024 0.285821
0.509286 0.536143 0.284744
0.139288 0.54617 0.312997
-0.016519 0.539355 0.284744
0.351456 0.555232 0.284744
-0.163485 0.587967 0.284744
-0.578248 0.586831 0.312997
-0.391722 0.532024 0.299347
-0.504907 0.567696 0.312997
0.412487 0.579988 0.284744
-0.271598 0.585791 0.312997
0.175606 0.580972 0.312997
-0.198873 0.552655 0.284744
-0.424254 0.582456 0.312997
-0.345169 0.588529 0.292622
0.392776 0.532399 0.284744
-0.541756 0.555132 0.312997
0.060672 0.564569 0.312997
0.433788 0.563991 0.312997
0.493771 0.56987 0.312997
-0.140788 0.58662 0.312997
0.123356 0.578379 0.312997
-0.161748 0.534433 0.284744
0.611173 0.587984 0.312997
-0.523053 0.551223 0.284744
0.45579 0.54989 0.284744
0.200904 0.553875 0.284744
-0.488675 0.576965 0.284744
0.536661 0.555927 0.284744
-0.356733 0.557427 0.312997
0.315475 0.553373 0.284744
-0.054063 0.551502 0.312997
-0.084137 0.569034 0.284744
-0.57453 0.566791 0.284744
0.000632 0.559074 0.312997
0.060465 0.582809 0.284744
-0.459719 0.532024 0.293346
-0.254334 0.58575 0.284744
-0.307589 0.534226 0.284744
-0.205251 0.567414 0.312997
0.271409 0.552536 0.312997
0.157523 0.54987 0.284744
0.213333 0.563966 0.312997
0.124899 0.560345 0.284744
-0.301735 0.552908 0.312997
-0.258834 0.545622 0.312997
0.546063 0.573293 0.312997
-0.038707 0.579225 0.312997
0.573351 0.557829 0.284744
-0.625124 0.576603 0.312997
0.01337 0.557383 0.284744
0.184944 0.580614 0.284744
-0.137188 0.565033 0.284744
-0.186781 0.588529 0.30254
0.350951 0.563008 0.312997
0.465682 0.532024 0.305725
0.229598 0.562285 0.284744
0.412124 0.586304 0.312997
-0.049325 0.556703 0.284744
0.289381 0.581243 0.312997
-0.599576 0.564368 0.312997
0.459828 0.588529 0.306123
-0.304128 0.567881 0.284744
0.07853 0.535907 0.284744
-0.226188 0.550197 0.312997
-0.329163 0.568317 0.312997
-0.473617 0.554637 0.312997
-0.614371 0.532024 0.299129
-0.097546 0.569978 0.312997
-0.003474 0.588529 0.309976
0.392094 0.553721 0.312997
-0.047091 0.532024 0.296052
0.41524 0.553525 0.284744
0.504397 0.583503 0.284744
0.481382 0.553911 0.284744
0.301417 0.532024 0.305993
0.093001 0.566822 0.284744
0.092697 0.567723 0.312997
-0.364294 0.533473 0.312997
0.238771 0.563867 0.312997
0.251971 0.588529 0.293807
-0.122807 0.564389 0.312997
-0.519542 0.54444 0.312997
-0.268667 0.532024 0.284801
-0.018478 0.563885 0.284744
-0.512732 0.580881 0.284744
-0.541306 0.566708 0.284744
0.552855 0.588529 0.287907
0.113836 0.548261 0.312997
-0.217872 0.567699 0.284744
0.596532 0.562519 0.284744
0.198197 0.588529 0.302367
0.591154 0.57527 0.312997
0.004895 0.532024 0.29547
0.565898 0.559257 0.312997
-0.365172 0.578089 0.312997
0.592932 0.532024 0.310377
0.324172 0.532024 0.291721
-0.531775 0.57486 0.312997
-0.319626 0.588529 0.289391
-0.094894 0.588529 0.288912
-0.190824 0.576459 0.284744
-0.308053 0.532024 0.31137
0.215376 0.532024 0.296958
0.438129 0.541199 0.312997
0.659881 -0.13077 -0.029811
0.659881 0.235043 -0.354919
0.659881 0.58832 -0.119672
0.659881 0.238249 0.114289
0.645371 -0.299244 -0.365069
0.659881 -0.478195 -0.084622
0.659881 0.115005 -0.116257
0.657738 0.505545 -0.365069
0.659881 -0.039089 -0.350154
0.659881 -0.416351 0.164689
0.659881 -0.503308 -0.293317
0.659881 0.034492 0.088892
0.641046 -0.29391 -0.151543
0.659881 0.312395 -0.071191
0.659881 -0.221586 0.15074
0.659881 0.397118 0.24477
0.659881 -0.344556 0.00991
0.659881 0.586605 0.072077
0.659881 -0.135288 0.283434
0.659881 0.454322 -0.214734
0.659881 0.456326 -0.014346
0.659881 0.094521 -0.266792
0.659881 0.290856 -0.217394
0.641046 -0.087307 0.14709
0.641046 0.13666 0.201103
0.659881 -0.017619 -0.09969
0.652297 0.588529 -0.263213
0.641046 0.194238 -0.015538
0.659881 -0.222722 -0.261883
0.659881 -0.474019 0.050834
0.641046 0.376757 0.093236
0.641046 -0.410558 -0.198422
0.641046 -0.228433 0.037599
0.659881 0.481951 0.155244
0.659881 -0.012681 -0.233252
0.659881 -0.274953 0.246446
0.641046 0.182435 -0.199152
0.659881 0.292686 0.217449
0.659881 0.087508 -0.004937
0.659881 0.02733 0.208733
0.641046 -0.179661 -0.128807
0.659881 -0.386139 -0.297744
0.659881 -0.138101 -0.321276
0.641046 -0.031444 0.000733
0.641046 -0.308604 0.103489
0.656808 0.134963 -0.365069
0.659881 0.38302 -0.141736
0.641046 -0.256009 -0.059231
0.659881 0.555684 -0.022068
0.641046 -0.48733 0.233145
0.641046 -0.374938 -0.097309
0.659881 0.499773 0.251047
0.641046 0.150348 0.077379
0.641046 0.296827 0.021793
0.659011 -0.447386 -0.365069
0.641046 0.220565 -0.117537
0.641046 -0.106892 0.052086
0.659881 -0.066821 0.229703
0.659881 -0.313393 -0.250946
0.659881 0.101191 0.276271
0.641046 -0.390608 0.080368
0.659881 -0.359764 0.241956
0.641046 0.18417 -0.289697
0.641046 -0.151998 0.201553
0.659881 -0.502155 -0.170777
0.641046 0.385101 -0.256513
0.659881 -0.425078 -0.016156
0.659881 0.579164 0.154283
0.641046 -0.097564 -0.121301
0.659881 0.078408 -0.18736
0.659881 -0.221361 -0.354596
0.659881 0.467595 -0.093675
0.641046 0.484299 -0.285853
0.659881 0.370072 -0.016693
0.659881 0.474097 0.062779
0.659881 0.307669 -0.302641
0.641046 0.308477 0.142733
0.659881 0.212238 0.202625
0.641046 -0.171494 0.096401
0.659881 -0.317522 0.17924
0.641046 -0.04076 0.087887
0.659881 -0.086919 -0.243693
0.641046 0.305991 -0.142952
0.641046 0.382835 0.167129
0.658564 0.429493 -0.365069
0.641046 0.082673 0.151402
0.641046 0.046088 -0.071939
0.659881 -0.231861 -0.19166
0.659881 0.023344 -0.310824
0.659881 0.564782 0.226166
0.659881 -0.156418 -0.242932
0.641046 0.023418 -0.151397
0.641046 -0.208761 0.238305
0.659881 -0.022083 0.163236
0.659881 -0.540622 0.056962
0.641046 0.130147 -0.052469
0.641046 -0.187337 -0.062765
0.641046 -0.538136 -0.22785
0.659881 -0.441193 -0.253288
0.641046 0.488773 -0.162281
0.641046 0.408622 -0.076665
0.641046 -0.320127 -0.058465
0.659881 -0.135143 -0.170938
0.659881 -0.471118 0.130162
0.641046 0.227958 -0.243688
0.641046 -0.280991 0.002034
0.641046 0.527172 0.03352
0.659881 0.351754 -0.202478
0.641046 0.184142 0.255403
0.659881 -0.063399 -0.170047
0.659881 0.514887 -0.229614
0.659881 0.237348 -0.056102
0.659881 0.411895 0.02911
0.659881 -0.07074 -0.045341
0.659881 -0.005322 0.261385
0.659881 0.58773 -0.201764
0.659881 0.153889 0.14502
0.641046 0.451256 0.205181
0.659881 0.212825 0.058565
0.641046 -0.170417 0.017967
0.659881 -0.351832 -0.155683
0.659881 -0.079377 -0.304949
0.641046 0.531952 0.093684
0.641046 0.080831 -0.337948
0.641046 -0.358653 -0.36051
0.659881 0.091607 0.054655
0.641046 0.308888 -0.358902
0.641046 0.428995 0.121156
0.659881 0.247815 -0.17718
0.641046 0.313078 0.078326
0.641046 -0.445543 -0.1512
0.659881 0.022636 0.012189
0.641046 -0.429753 0.225025
0.641046 0.518533 0.196645
0.659881 0.406907 -0.309197
0.641046 0.514937 -0.06111
0.641046 -0.372607 -0.242089
0.641046 -0.281208 -0.295004
0.659881 -0.538372 0.252189
0.659881 0.046594 -0.235194
0.641046 -0.236976 -0.131133
0.641046 0.183651 -0.072897
0.641046 0.358304 0.036394
0.641046 0.136713 0.016918
0.641046 -0.237732 0.100057
0.641046 0.346629 0.229014
0.659881 -0.526212 0.003006
0.641046 -0.359839 0.126941
0.641046 -0.16865 -0.363942
0.641046 -0.532948 -0.091944
0.641046 -0.256621 0.189689
0.659881 -0.137797 -0.085006
0.641336 -0.089324 -0.365069
0.641046 0.327689 -0.254274
0.641046 0.252929 0.1638
0.659881 0.131235 -0.22604
0.641046 0.152401 -0.153347
0.651702 0.588529 -0.064846
0.659881 -0.120703 0.102582
0.641046 0.431714 -0.156467
0.641046 -0.214112 -0.014541
0.641046 0.181381 -0.344015
0.641046 0.269389 -0.096371
0.641046 -0.184502 -0.303364
0.659881 0.016753 -0.363411
0.641046 -0.287522 0.054557
0.659881 -0.294081 -0.201742
0.641046 -0.447036 -0.302323
0.659881 -0.370469 -0.035887
0.641046 0.255228 -0.304701
0.659881 -0.166826 0.145128
0.659881 0.265985 0.065261
0.659881 -0.323108 -0.106715
0.659881 -0.465053 0.182044
0.641502 -0.541582 0.197881
0.659881 0.028925 0.156819
0.641046 0.361018 -0.09606
0.659881 0.084369 0.199199
0.659881 0.254715 -0.000795
0.641046 -0.430519 -0.081377
0.641046 -0.519305 0.09969
0.659881 0.54523 -0.1525
0.641046 -0.000866 0.053146
0.641046 -0.465653 -0.20001
0.641046 -0.017713 -0.047538
0.659881 0.051812 0.252307
0.641046 -0.427888 0.113039
0.641046 -0.340325 -0.204641
0.648665 0.588529 0.023986
0.659881 -0.277748 0.149186
0.659881 -0.507506 -0.044849
0.659881 0.236305 0.263055
0.641046 -0.487359 -0.336314
0.659881 -0.365178 0.190411
0.641046 -0.345096 0.054984
0.659881 0.531665 0.14316
0.641046 -0.277218 -0.103612
0.641046 0.425741 0.07171
0.641046 -0.434826 0.029843
0.659881 0.408814 -0.198785
0.659881 0.146521 -0.316673
0.641046 -0.104009 0.198143
0.641046 -0.120088 -0.280901
0.641046 -0.023771 0.221591
0.659881 0.354592 -0.309787
0.659881 0.532077 -0.101009
0.641046 0.30249 0.264145
0.659881 -0.395289 -0.137804
0.641046 0.197208 0.127053
0.641046 -0.034441 -0.269856
0.641046 -0.390371 0.008423
0.659881 0.427602 -0.256582
0.659881 0.551084 -0.35378
0.659881 -0.213695 -0.095698
0.659881 -0.264227 -0.333594
0.641046 0.050435 -0.024858
0.659881 0.51086 -0.005176
0.641046 -0.312323 0.26717
0.659881 0.353811 -0.360455
0.641046 -0.026776 -0.18985
0.659881 -0.154718 0.055851
0.641046 0.277481 -0.265464
0.659881 0.424678 0.174664
0.641046 -0.272376 -0.25131
0.641046 0.069959 -0.109474
0.659881 -0.172377 0.255423
0.659881 -0.108901 0.008714
0.641046 0.203477 -0.158381
0.659881 -0.429682 0.072051
0.659881 0.082477 0.111483
0.641046 0.128737 0.247386
0.659881 0.08031 -0.05132
0.659881 -0.498483 -0.126987
0.641046 0.181393 0.034313
0.659881 0.415277 -0.03769
0.641046 0.332477 0.179061
0.659881 -0.066404 0.05832
0.641046 -0.393202 0.27199
0.659881 0.287621 0.107918
0.641046 0.111299 -0.166187
0.659881 0.164904 -0.106736
0.641046 0.464122 0.025477
0.641046 -0.495095 -0.255648
0.659881 0.01738 -0.189443
0.641046 0.001481 0.108625
0.659881 0.476127 -0.326094
0.641046 -0.130043 0.164391
0.659881 -0.47206 -0.021964
0.645049 0.588529 -0.162297
0.641046 -0.332147 0.216286
0.659881 0.051045 -0.279188
0.659881 0.445243 0.242758
0.641046 -0.15098 -0.205799
0.659881 -0.051824 -0.218181
0.659881 0.582875 -0.317143
0.659881 -0.189043 0.196433
0.659881 -0.058069 -0.09276
0.641046 -0.05674 0.264759
0.641046 0.25635 0.217285
0.641046 -0.216395 -0.226108
0.659881 -0.483635 0.091267
0.659881 0.127679 0.113946
0.659881 0.393544 0.127389
0.659881 0.034274 -0.11308
0.641046 -0.084036 0.102296
0.659881 -0.09452 0.259163
0.659881 -0.538183 -0.348164
0.659881 0.345225 0.10965
0.659881 -0.243128 0.271175
0.641046 -0.04364 0.127823
0.659881 -0.170956 -0.017356
0.659881 0.345473 -0.162981
0.641046 -0.500929 0.191102
0.641046 0.449398 -0.063583
0.659881 0.020792 -0.043637
0.659881 -0.08843 -0.202684
0.659881 0.05739 -0.144897
0.659881 -0.009334 -0.140908
0.641046 0.054842 0.181905
0.641046 0.062426 0.036993
0.659881 -0.21837 -0.30115
0.641046 0.404564 -0.005497
0.641046 0.516941 -0.191178
0.641046 -0.462734 -0.116451
0.659881 -0.099068 -0.083753
0.659881 0.214664 0.156037
0.659881 -0.394053 0.216213
0.641046 0.297424 -0.184389
0.659881 0.320645 -0.112662
0.659881 0.549372 -0.205678
0.659881 -0.227215 0.205885
0.641046 0.38114 0.212201
0.659881 0.41894 -0.125574
0.659881 -0.391511 0.116573
0.641046 0.297699 -0.041303
0.657332 0.588529 0.196353
0.641046 0.459802 -0.248472
0.649072 0.468427 -0.365069
0.641046 0.437893 -0.328014
0.641046 0.003391 -0.273507
0.659881 0.273413 -0.147557
0.641046 -0.33784 -0.022286
0.659881 0.080538 -0.305066
0.659881 0.557019 0.047178
0.659881 -0.221144 -0.058617
0.641046 -0.410028 -0.263242
0.659881 0.16274 -0.006793
0.659881 0.451766 -0.289019
0.659881 -0.448187 -0.051153
0.659881 0.460212 -0.140678
0.659881 -0.351259 -0.311844
0.659881 0.338766 0.262819
0.641046 0.499015 0.283304
0.641046 0.233319 0.023335
0.641046 -0.53044 -0.130347
0.641046 0.160918 -0.23833
0.641046 0.584687 0.25101
0.659881 -0.158406 -0.2852
0.659881 0.166674 0.190668
0.659881 0.150744 -0.185052
0.659881 -0.454283 0.245133
0.641046 0.274508 -0.345767
0.641046 -0.262827 -0.206318
0.659881 -0.400264 0.050001
0.659881 0.207675 -0.267845
0.659881 0.51298 -0.298939
0.659881 -0.360705 -0.27127
0.659881 -0.202659 0.100771
0.659881 -0.299141 -0.322613
0.659881 0.112525 0.17583
0.659881 0.479306 0.220724
0.641046 -0.185611 -0.254253
0.641046 0.161364 0.112209
0.659881 0.242186 -0.215816
0.659881 0.1705 0.227335
0.641046 0.044635 -0.334117
0.641046 0.322142 -0.211947
0.659881 -0.491879 -0.21668
0.659881 0.277281 0.183082
0.659881 -0.157421 -0.054471
0.659881 0.134333 -0.085629
0.659881 -0.511866 0.129662
0.641046 -0.50124 0.065319
0.641046 -0.114759 -0.230692
0.641046 -0.144563 -0.136955
0.641046 0.485041 -0.207873
0.659881 -0.028788 0.031244
0.659881 0.166413 -0.04761
0.659881 -0.526061 -0.265681
0.659881 0.330979 0.049665
0.659881 -0.264931 0.113472
0.641046 0.116229 -0.287957
0.641046 0.34209 -0.005089
0.659881 -0.325646 -0.346357
0.641046 -0.340604 0.160076
0.641046 0.265894 0.271755
0.641046 -0.186775 0.04932
0.641046 -0.439292 -0.223433
0.641046 0.490626 -0.027003
0.659881 -0.413306 -0.057118
0.659881 -0.081676 0.178541
0.641046 0.49936 -0.092561
0.659881 -0.258512 0.048982
0.64991 -0.123229 -0.365069
0.641046 -0.243491 -0.094618
0.641046 0.478318 0.126083
0.641046 -0.297264 0.217406
0.641046 0.450898 0.161488
0.659881 -0.424659 -0.11903
0.641046 -0.081386 -0.018023
0.659881 -0.044285 -0.315718
0.659881 0.564307 0.27203
0.641046 -0.362721 -0.064109
0.641046 0.045141 -0.198701
0.659881 0.381765 -0.22067
0.641046 -0.194332 -0.340473
0.659881 0.125618 0.061734
0.641046 0.075716 -0.233683
0.659881 -0.172012 -0.090411
0.641046 -0.135754 0.130264
0.659881 0.035476 0.047741
0.659881 -0.349542 0.09992
0.641046 -0.026252 0.281304
0.641046 0.224343 -0.328144
0.659881 0.445315 0.09739
0.641046 0.235147 -0.086503
0.641046 0.221629 -0.292745
0.641046 0.018479 0.245652
0.641046 0.011241 0.185218
0.659881 -0.252799 -0.002076
0.641046 0.469353 0.257865
0.659881 0.441937 -0.182925
0.641046 0.116259 -0.334929
0.641046 -0.45545 0.088811
0.659881 0.399003 0.062481
0.659881 -0.459516 -0.331631
0.641046 -0.107949 -0.153843
0.659881 -0.419924 -0.171813
0.654794 0.095799 -0.365069
0.641046 0.186238 -0.129257
0.659881 -0.198152 0.022314
0.641046 -0.408665 -0.344804
0.659881 -0.307969 0.131542
0.641046 -0.538661 0.02811
0.659881 0.197605 0.088689
0.641046 -0.377935 0.15533
0.641046 0.379928 0.268833
0.659881 0.546327 0.197787
0.641046 0.396074 -0.174141
0.641046 0.083544 -0.078869
0.659881 0.397496 -0.35536
0.659881 0.55619 -0.267016
0.644658 0.588529 -0.009171
0.659881 -0.383269 -0.201838
0.641046 -0.195146 0.143353
0.659881 0.542334 -0.060561
0.641046 0.235584 0.087019
0.659881 -0.177866 -0.21761
0.641046 -0.316799 -0.278045
0.641046 0.568571 0.092564
0.641046 -0.367499 -0.17799
0.659881 -0.217013 0.062226
0.659881 0.584117 0.116755
0.641046 0.521438 -0.135645
0.659881 0.22502 -0.025535
0.659881 -0.283505 0.187108
0.641046 0.106386 -0.029849
0.659881 -0.525836 -0.193358
0.641046 0.214244 -0.19151
0.659881 0.198391 -0.321824
0.641046 0.076757 0.076841
0.659881 -0.42822 -0.322458
0.659881 -0.060776 -0.26306
0.641046 0.348722 0.069356
0.659881 -0.131901 0.218784
0.659881 -0.255181 -0.290222
0.659881 0.202774 0.018798
0.659881 -0.141318 0.007707
0.641046 -0.51725 0.22068
0.659881 0.33288 0.152741
0.641046 0.063994 0.229032
0.659881 0.103272 0.24101
0.641046 0.030561 -0.256027
0.659881 0.282885 0.148353
0.641046 0.038862 0.132587
0.659881 -0.421436 0.196545
0.641046 -0.526873 -0.324543
0.641046 0.021464 -0.220608
0.641046 0.315456 0.111263
0.641046 -0.368011 0.031591
0.659881 -0.463249 -0.276721
0.659881 -0.300284 -0.075407
0.641046 -0.463342 0.211839
0.641046 0.00465 -0.113057
0.659881 0.433329 -0.084598
0.641046 0.269746 0.039589
0.641046 -0.438349 0.150996
0.659881 -0.16969 -0.326443
0.659881 0.563877 -0.097692
0.641046 -0.463727 0.271451
0.659881 0.489204 -0.061804
0.641046 -0.454098 -0.003593
0.641046 0.432439 0.013682
0.659881 0.195776 -0.098992
0.659881 0.531101 0.065649
0.641046 -0.17794 0.170106
0.641046 -0.258598 0.221433
0.641046 -0.032004 -0.129099
0.641046 0.261419 -0.047523
0.641046 -0.344472 -0.131263
0.659881 0.059031 -0.355125
0.659881 0.381654 -0.081218
0.659881 -0.076589 -0.141308
0.659881 -0.048911 -0.02261
0.641046 -0.292498 -0.227096
0.641046 -0.213559 0.184702
0.659881 0.507727 0.100437
0.641046 0.194532 -0.246598
0.641046 0.390311 -0.038509
0.659881 -0.241275 -0.034711
0.659881 0.12849 -0.146851
0.641046 -0.341511 -0.241961
0.641046 0.207664 -0.360617
0.641046 0.140937 -0.112559
0.659881 0.441905 0.036986
0.659881 0.229223 -0.14061
0.659881 0.318267 0.001222
0.641046 -0.245601 0.156119
0.641046 0.098174 -0.138154
0.641046 0.31628 0.210688
0.641046 -0.476963 -0.162449
0.641046 -0.009868 0.142024
0.659881 0.420544 0.144055
0.641046 0.535112 -0.007559
0.641046 -0.469868 -0.230494
0.659881 -0.27086 -0.36362
0.641046 0.262308 0.110828
0.659881 0.301114 0.056871
0.659881 -0.400288 -0.241011
0.659881 0.520458 -0.037519
