0.276022 -0.457944 -0.385836
0.335538 -0.639205 -0.403156
0.319083 -0.193844 -0.403156
0.003771 -0.135012 -0.403156
0.185762 -0.448297 -0.385836
-0.345465 -0.431469 -0.385836
0.184603 -0.162669 -0.385836
-0.100087 0.481477 -0.403156
-0.029502 -0.581343 -0.403156
-0.149649 0.65327 -0.394937
0.107669 0.211561 -0.385836
-0.166028 -0.464825 -0.385836
0.406176 0.267881 -0.403156
-0.36498 0.215945 -0.385836
-0.017069 0.249522 -0.385836
0.244282 -0.537389 -0.385836
0.183386 0.078472 -0.403156
0.277166 -0.342241 -0.403156
-0.438082 0.144313 -0.385836
-0.2103 -0.004472 -0.385836
0.120309 -0.501921 -0.385836
-0.317276 -0.084627 -0.403156
0.11819 -0.192563 -0.403156
-0.072512 -0.151407 -0.403156
0.091176 0.273893 -0.385836
-0.191319 0.252052 -0.385836
-0.352786 -0.037432 -0.403156
-0.324566 0.546249 -0.385836
0.414945 0.006318 -0.403156
0.164128 -0.307899 -0.385836
-0.243076 0.523679 -0.385836
-0.118448 -0.091764 -0.385836
0.427633 0.540244 -0.403156
-0.315033 -0.40661 -0.385836
0.015239 0.596148 -0.403156
0.14957 -0.101712 -0.385836
-0.160739 0.157875 -0.403156
-0.315992 -0.527931 -0.385836
0.226371 0.260208 -0.385836
0.367359 0.481161 -0.403156
-0.414769 -0.198059 -0.385836
0.185985 -0.078863 -0.385836
-0.063768 0.303208 -0.403156
0.385028 -0.388314 -0.403156
-0.170377 -0.221259 -0.385836
-0.273659 0.00809 -0.385836
-0.37167 -0.352453 -0.385836
-0.43728 0.389291 -0.403156
-0.299644 -0.478262 -0.385836
0.434405 0.342804 -0.385836
-0.294644 0.361511 -0.385836
0.356889 0.327349 -0.385836
0.049874 0.089304 -0.403156
-0.293018 0.65327 -0.388792
-0.177802 0.014431 -0.403156
0.367265 -0.565717 -0.403156
-0.24968 -0.356617 -0.403156
0.355957 0.149263 -0.385836
-0.406147 0.001853 -0.403156
-0.111472 -0.554316 -0.403156
-0.300036 0.295669 -0.385836
0.046429 0.647609 -0.403156
-0.141639 0.130324 -0.385836
0.437416 -0.527065 -0.385836
0.353609 0.649605 -0.403156
-0.23796 -0.196345 -0.385836
-0.006263 0.407547 -0.403156
0.199281 0.618897 -0.403156
0.158283 -0.590403 -0.403156
0.299859 0.263537 -0.385836
-0.009329 -0.025347 -0.385836
-0.262027 0.440267 -0.403156
0.162183 -0.639816 -0.403156
0.399938 -0.043452 -0.403156
0.13951 0.597875 -0.403156
0.270045 0.013376 -0.385836
-0.442639 -0.635465 -0.403156
0.423072 0.181773 -0.403156
0.33007 0.537014 -0.385836
0.202389 -0.274288 -0.385836
-0.2929 -0.2411 -0.403156
0.037308 -0.625619 -0.385836
-0.365467 0.30304 -0.385836
-0.43509 0.570375 -0.385836
-0.407298 0.622549 -0.385836
-0.447583 -0.284398 -0.385836
0.081239 -0.373728 -0.385836
-0.123947 0.622581 -0.403156
-0.244583 -0.10994 -0.385836
0.350167 -0.376655 -0.403156
-0.110341 -0.478779 -0.385836
0.023958 -0.177318 -0.385836
-0.298632 0.400149 -0.403156
0.349232 -0.327175 -0.403156
-0.227699 -0.608944 -0.403156
0.280018 0.338244 -0.385836
0.122001 -0.030836 -0.403156
0.246323 0.139328 -0.403156
-0.170748 -0.399463 -0.403156
-0.426569 0.490416 -0.385836
0.11378 0.005678 -0.385836
0.399777 -0.234769 -0.385836
0.262358 -0.599999 -0.403156
-0.330394 0.447778 -0.385836
-0.053843 0.426038 -0.403156
-0.044337 -0.485964 -0.403156
0.039093 -0.359652 -0.385836
-0.116669 0.344409 -0.385836
0.238758 -0.13725 -0.403156
-0.035104 0.552632 -0.403156
0.254846 0.441808 -0.403156
0.324529 -0.080653 -0.385836
0.176523 0.193223 -0.403156
-0.165861 -0.534969 -0.385836
-0.068772 -0.63695 -0.385836
-0.38265 -0.102578 -0.385836
0.064658 -0.283874 -0.385836
-0.002295 0.039321 -0.385836
0.047598 0.234052 -0.385836
0.114655 0.490078 -0.403156
0.137231 0.531038 -0.403156
0.0945 0.614452 -0.403156
-0.199216 0.141745 -0.403156
0.116002 0.066865 -0.385836
0.390413 0.033022 -0.403156
0.432699 0.297084 -0.403156
0.211913 0.384388 -0.385836
0.399342 0.51945 -0.385836
-0.063883 -0.062075 -0.385836
-0.221158 0.479918 -0.385836
0.172297 0.350183 -0.403156
-0.389751 0.550931 -0.403156
-0.265959 0.233106 -0.403156
-0.024217 0.353928 -0.385836
0.168842 -0.493523 -0.403156
0.163897 -0.397249 -0.385836
-0.139264 0.449375 -0.385836
0.107983 -0.467738 -0.385836
0.12998 -0.551982 -0.385836
0.056246 -0.01383 -0.385836
0.140386 0.145202 -0.403156
0.404617 -0.328872 -0.385836
0.308121 0.158379 -0.403156
0.243541 0.325358 -0.403156
-0.352035 0.469467 -0.403156
0.358604 0.583742 -0.403156
-0.374553 0.184484 -0.403156
-0.100613 0.117211 -0.403156
0.343002 -0.547266 -0.385836
-0.401184 -0.252725 -0.385836
0.068816 0.420665 -0.385836
0.319581 -0.294815 -0.385836
-0.127438 -0.163719 -0.385836
-0.179467 -0.340161 -0.403156
-0.331202 -0.150911 -0.385836
0.171498 0.465759 -0.403156
-0.056182 0.582186 -0.385836
-0.292413 0.328114 -0.403156
0.405454 -0.449404 -0.385836
0.059938 0.302809 -0.403156
-0.059446 -0.528681 -0.403156
-0.194278 0.459805 -0.403156
-0.068276 -0.297799 -0.385836
-0.221413 -0.291775 -0.403156
-0.375421 0.403375 -0.403156
-0.098084 -0.177861 -0.403156
-0.161663 0.520463 -0.403156
-0.116321 -0.359983 -0.385836
-0.182616 0.592368 -0.385836
0.245497 -0.212193 -0.403156
-0.046249 -0.360665 -0.385836
-0.235156 0.591694 -0.403156
-0.342639 -0.341109 -0.403156
-0.006378 0.17845 -0.403156
0.164987 0.019461 -0.385836
-0.008485 -0.503106 -0.385836
0.201125 0.311338 -0.403156
-0.02719 -0.450881 -0.385836
-0.36504 0.610111 -0.385836
0.118518 0.285036 -0.403156
0.383563 -0.515135 -0.403156
0.199249 -0.377048 -0.403156
-0.41604 0.27008 -0.385836
0.152218 -0.22506 -0.403156
0.148598 -0.372204 -0.403156
0.312489 -0.5714 -0.385836
-0.363626 -0.198806 -0.385836
-0.061515 -0.407786 -0.403156
-0.447854 0.048922 -0.403156
-0.2423 0.397554 -0.385836
0.334418 -0.464152 -0.385836
-0.210767 0.077569 -0.385836
0.142447 0.100727 -0.403156
-0.128329 -0.291549 -0.403156
-0.143702 -0.063884 -0.385836
0.332283 -0.251334 -0.385836
-0.278444 -0.352865 -0.385836
-0.337615 -0.596533 -0.385836
0.133281 0.398052 -0.403156
0.223527 0.00996 -0.403156
0.414525 0.644983 -0.385836
-0.208926 -0.583093 -0.385836
0.213829 0.653236 -0.403156
-0.084606 0.188408 -0.403156
-0.026137 0.617314 -0.403156
-0.058481 0.085746 -0.385836
-0.42577 -0.409108 -0.385836
0.383615 0.12097 -0.403156
-0.202847 -0.096571 -0.385836
0.26922 0.169136 -0.403156
0.062956 -0.320665 -0.385836
-0.078234 0.137897 -0.385836
0.003391 -0.347069 -0.403156
0.233798 -0.391657 -0.403156
0.336755 -0.042441 -0.403156
0.147306 0.282258 -0.385836
-0.374484 -0.060502 -0.385836
0.042308 -0.155812 -0.403156
-0.230149 -0.255772 -0.385836
0.211521 0.124039 -0.403156
-0.389059 -0.3058 -0.385836
0.301894 -0.000834 -0.385836
-0.166754 0.0978 -0.385836
0.378905 -0.202711 -0.385836
-0.285594 0.47787 -0.403156
0.21408 -0.45603 -0.403156
-0.333249 0.025706 -0.385836
-0.162441 -0.625874 -0.385836
-0.334318 0.368328 -0.385836
-0.105088 0.386034 -0.385836
0.394066 0.552325 -0.403156
-0.199335 -0.455092 -0.403156
-0.36291 -0.169128 -0.403156
0.250361 0.221807 -0.403156
-0.364648 -0.578273 -0.385836
0.393391 -0.487471 -0.385836
0.025242 -0.591229 -0.403156
0.080515 0.044787 -0.385836
-0.426142 -0.538581 -0.385836
-0.441269 0.639104 -0.385836
0.237929 -0.284986 -0.385836
-0.101192 0.51244 -0.385836
-0.089123 -0.523016 -0.385836
0.305014 -0.128911 -0.403156
-0.415242 -0.068501 -0.403156
-0.04519 0.323569 -0.385836
0.334895 0.468619 -0.403156
-0.113545 0.024589 -0.385836
-0.075226 0.22788 -0.385836
-0.242437 0.624878 -0.403156
-0.185367 0.360694 -0.403156
0.112575 0.156796 -0.385836
0.126484 -0.584865 -0.385836
-0.406606 0.33782 -0.403156
-0.038031 0.282059 -0.385836
0.204602 -0.144351 -0.403156
0.074341 -0.22622 -0.385836
0.239753 0.510891 -0.403156
0.32904 0.413134 -0.403156
0.37835 0.453463 -0.385836
-0.131777 0.55945 -0.403156
-0.301533 0.163703 -0.385836
-0.030241 -0.414412 -0.385836
0.244146 -0.317341 -0.403156
0.25049 0.611604 -0.403156
0.122989 0.035098 -0.403156
0.444435 -0.184413 -0.385836
0.376309 -0.256706 -0.403156
0.156528 -0.158711 -0.403156
-0.430939 -0.3052 -0.403156
-0.116496 -0.250273 -0.385836
-0.415329 0.223514 -0.385836
0.367628 0.518431 -0.385836
-0.231797 -0.041022 -0.385836
-0.035585 0.146652 -0.403156
0.388446 0.587434 -0.385836
-0.101866 -0.292452 -0.385836
0.366094 -0.619871 -0.403156
0.044632 0.558681 -0.403156
0.185893 0.040307 -0.403156
0.334642 -0.225062 -0.403156
-0.331977 0.640986 -0.403156
0.272608 -0.523519 -0.385836
-0.106644 -0.147548 -0.403156
0.316116 0.514155 -0.403156
0.188097 -0.635349 -0.385836
0.44354 0.57232 -0.403156
0.311755 0.095109 -0.385836
-0.348233 0.329339 -0.385836
-0.205835 -0.511797 -0.385836
0.157576 -0.427967 -0.385836
0.01716 0.385692 -0.385836
-0.074877 0.500111 -0.403156
-0.155247 0.043391 -0.385836
-0.141291 -0.210139 -0.403156
-0.167132 -0.257337 -0.385836
-0.45029 0.431462 -0.403156
0.102387 -0.251155 -0.403156
0.288616 0.365081 -0.403156
-0.174094 -0.146206 -0.403156
-0.33525 -0.10653 -0.385836
-0.111589 -0.405158 -0.385836
0.242376 -0.506291 -0.385836
-0.271627 0.507531 -0.403156
0.410564 -0.392104 -0.385836
-0.336711 0.088844 -0.403156
-0.180549 -0.426932 -0.385836
0.264925 -0.23728 -0.385836
-0.038631 -0.067078 -0.403156
-0.150803 0.07297 -0.403156
0.239561 -0.452562 -0.385836
0.02663 -0.45225 -0.385836
0.002326 -0.253829 -0.385836
0.334803 0.019946 -0.385836
-0.389012 -0.195966 -0.403156
-0.35952 0.493845 -0.385836
0.354899 0.118497 -0.385836
0.220486 -0.600048 -0.385836
0.072007 0.22383 -0.403156
-0.271768 0.279259 -0.385836
-0.449457 0.209556 -0.403156
0.186906 0.491581 -0.385836
-0.393566 -0.528445 -0.403156
0.305116 -0.317924 -0.403156
0.035291 -0.092454 -0.385836
-0.297377 0.608337 -0.403156
0.299693 0.128457 -0.403156
-0.42791 -0.025688 -0.385836
-0.24592 0.154064 -0.403156
0.156304 0.330122 -0.385836
0.104447 0.427347 -0.385836
0.394502 -0.160254 -0.403156
-0.43207 0.075064 -0.403156
0.112576 0.587631 -0.385836
0.267155 0.586146 -0.385836
0.407148 0.406985 -0.385836
0.41148 -0.107534 -0.385836
-0.05403 -0.110583 -0.385836
-0.109114 0.183363 -0.385836
-0.214528 0.403821 -0.403156
-0.285223 0.421268 -0.385836
-0.083652 -0.087499 -0.403156
0.081426 0.447511 -0.403156
0.278842 -0.367049 -0.385836
0.437033 0.061766 -0.403156
-0.37562 -0.429679 -0.385836
0.339455 0.216595 -0.403156
0.120903 -0.446701 -0.403156
0.271762 -0.076577 -0.385836
0.270109 0.546324 -0.403156
-0.405977 0.44084 -0.385836
0.211566 0.067015 -0.385836
0.113988 0.640917 -0.385836
-0.007213 0.278841 -0.385836
-0.073104 0.050404 -0.385836
-0.268434 0.170817 -0.385836
0.310809 0.441885 -0.403156
-0.322577 -0.290258 -0.403156
0.400376 -0.624937 -0.403156
-0.339163 0.586013 -0.385836
0.124439 -0.525877 -0.403156
0.165903 -0.556057 -0.403156
-0.205778 -0.313391 -0.385836
-0.35287 -0.251039 -0.403156
0.224352 0.205265 -0.403156
-0.080204 -0.212342 -0.403156
-0.196241 0.62977 -0.403156
-0.32621 -0.317384 -0.385836
0.414908 0.071616 -0.385836
0.067635 0.105738 -0.385836
0.207118 -0.090622 -0.403156
0.382563 -0.589072 -0.385836
-0.312789 -0.003343 -0.403156
-0.14931 0.427411 -0.403156
0.089326 -0.410702 -0.403156
0.21227 -0.513656 -0.385836
0.18063 -0.51453 -0.385836
0.095414 -0.017617 -0.385836
0.047491 0.488501 -0.385836
-0.140457 0.295481 -0.403156
0.366717 -0.045665 -0.385836
0.145592 -0.1312 -0.403156
-0.347239 -0.455411 -0.403156
0.310422 0.638621 -0.403156
0.021402 0.264601 -0.385836
0.032252 0.447882 -0.385836
0.268333 -0.10028 -0.403156
0.241508 -0.041651 -0.385836
-0.284076 -0.455124 -0.403156
-0.20364 0.053355 -0.403156
-0.083973 -0.034444 -0.385836
0.070685 0.612335 -0.385836
0.088772 0.244511 -0.385836
-0.042861 -0.561597 -0.385836
-0.272928 -0.58268 -0.385836
-0.230215 -0.156613 -0.403156
0.447194 0.316177 -0.385836
-0.436122 0.167872 -0.403156
-0.077109 0.54819 -0.403156
-0.121046 0.054014 -0.385836
0.363304 0.252802 -0.403156
-0.256948 -0.058798 -0.385836
0.078487 -0.30289 -0.403156
-0.030258 0.521349 -0.385836
0.284929 -0.024487 -0.385836
0.057603 -0.637229 -0.403156
0.421354 0.60333 -0.385836
0.254298 0.280789 -0.385836
0.269854 -0.427363 -0.385836
0.423843 0.143372 -0.403156
0.073902 0.383774 -0.403156
0.329644 0.584168 -0.403156
0.077458 0.486383 -0.385836
0.083717 0.196586 -0.403156
-0.291564 -0.375305 -0.403156
-0.149978 0.259739 -0.403156
-0.432356 -0.357337 -0.385836
-0.01737 -0.075945 -0.385836
0.073628 -0.572224 -0.403156
-0.121136 0.491662 -0.385836
-0.190941 0.523746 -0.385836
-0.035177 -0.614205 -0.385836
0.177942 -0.00623 -0.385836
-0.203988 -0.14595 -0.385836
-0.296537 -0.269624 -0.403156
0.187123 -0.325135 -0.385836
0.396509 0.221463 -0.403156
-0.226987 0.207048 -0.385836
-0.1595 0.575388 -0.385836
-0.147481 -0.496238 -0.403156
-0.452966 0.232103 -0.385836
-0.398672 0.207951 -0.403156
-0.076595 0.101647 -0.403156
0.139598 -0.340321 -0.385836
-0.089292 -0.45941 -0.385836
-0.386851 -0.397107 -0.403156
-0.31844 0.144642 -0.403156
0.001254 -0.177094 -0.403156
0.435868 -0.466457 -0.403156
-0.219742 -0.361826 -0.403156
0.415055 0.234972 -0.385836
-0.401465 0.097419 -0.385836
0.007514 0.002132 -0.385836
0.260274 -0.176423 -0.385836
0.01559 -0.500101 -0.403156
0.237499 0.371972 -0.385836
0.168572 0.239411 -0.403156
-0.145221 -0.387987 -0.385836
-0.199113 -0.237111 -0.385836
-0.090194 -0.328863 -0.403156
-0.16946 -0.11335 -0.403156
0.380238 0.379501 -0.385836
0.006 0.20614 -0.385836
-0.33777 0.260504 -0.403156
0.078932 0.564732 -0.385836
-0.022568 0.118666 -0.403156
-0.253978 -0.514251 -0.385836
0.036337 0.04148 -0.385836
-0.176077 0.63967 -0.385836
0.284619 0.393064 -0.403156
-0.388322 0.266735 -0.403156
0.049763 0.434076 -0.403156
-0.161639 0.364188 -0.385836
-0.438153 -0.572812 -0.385836
-0.163823 -0.290038 -0.403156
-0.053475 -0.00671 -0.403156
0.227943 0.45049 -0.403156
-0.417318 0.556496 -0.403156
0.413713 -0.607289 -0.385836
0.049661 -0.545187 -0.403156
0.004243 -0.631167 -0.403156
0.438432 0.245896 -0.403156
0.392235 0.292225 -0.403156
-0.224622 0.372859 -0.385836
0.008988 -0.400227 -0.385836
0.037767 0.393204 -0.403156
0.104323 -0.052105 -0.385836
-0.187908 0.160517 -0.385836
0.14014 -0.043069 -0.385836
0.183613 -0.578816 -0.403156
0.411071 -0.017677 -0.385836
-0.023644 -0.304338 -0.403156
-0.380617 -0.037846 -0.403156
-0.40713 -0.473386 -0.385836
0.053909 -0.375618 -0.403156
0.364845 -0.098682 -0.385836
-0.256936 0.128885 -0.385836
0.19152 0.282556 -0.385836
-0.39399 -0.624973 -0.403156
0.106549 0.368948 -0.403156
-0.444678 -0.25877 -0.403156
-0.392394 0.576583 -0.385836
0.136368 0.313182 -0.403156
0.263222 0.650581 -0.385836
0.210119 0.57775 -0.403156
-0.245793 0.307597 -0.385836
-0.299503 -0.60788 -0.385836
-0.083843 0.421989 -0.403156
-0.174051 -0.0226 -0.403156
0.027639 0.53527 -0.403156
-0.139064 -0.04293 -0.403156
-0.078881 -0.595509 -0.385836
0.030059 0.354708 -0.385836
0.024654 -0.542245 -0.385836
-0.066679 -0.242979 -0.403156
0.017741 -0.297322 -0.385836
-0.107472 0.363641 -0.403156
0.074838 -0.120323 -0.385836
0.314934 -0.214743 -0.385836
-0.386091 0.607031 -0.403156
0.15168 -0.080572 -0.403156
0.084934 0.136033 -0.385836
-0.014557 0.382949 -0.385836
-0.348884 -0.222944 -0.403156
-0.235409 -0.425628 -0.385836
0.104683 -0.54177 -0.385836
0.206562 -0.184852 -0.403156
-0.033951 0.65327 -0.387762
-0.247404 0.040825 -0.385836
-0.310162 0.241821 -0.403156
0.107525 -0.353356 -0.403156
-0.154297 0.603221 -0.385836
-0.103609 -0.023568 -0.403156
-0.059392 -0.269903 -0.403156
0.291996 -0.422667 -0.403156
-0.023022 0.037668 -0.403156
0.421973 -0.513142 -0.403156
-0.15073 0.110944 -0.403156
0.364728 0.625002 -0.403156
0.294176 -0.591227 -0.385836
-0.313905 0.528509 -0.403156
-0.033995 -0.155871 -0.385836
-0.418922 0.358828 -0.385836
-0.379272 -0.000125 -0.403156
0.31706 -0.521065 -0.385836
-0.426764 -0.613691 -0.385836
-0.198647 0.203091 -0.385836
-0.054215 0.211104 -0.385836
0.334524 0.279608 -0.403156
0.186554 -0.475142 -0.385836
-0.11446 0.243716 -0.403156
0.432089 0.088125 -0.403156
0.189349 -0.290379 -0.403156
0.132186 -0.63307 -0.403156
-0.262155 0.26123 -0.403156
-0.37134 0.16431 -0.385836
-0.306793 0.082803 -0.403156
-0.397098 0.42245 -0.403156
-0.161312 0.002402 -0.385836
0.027812 -0.262982 -0.403156
-0.025578 -0.514202 -0.403156
0.355378 -0.602537 -0.385836
-0.107671 0.095656 -0.385836
-0.210218 -0.077437 -0.403156
-0.311787 0.418794 -0.385836
0.293034 -0.297349 -0.385836
0.046394 0.153063 -0.385836
0.361772 -0.298881 -0.385836
-0.115715 0.324267 -0.403156
0.321556 0.143342 -0.385836
0.25311 0.069182 -0.403156
0.071275 -0.143927 -0.403156
-0.189966 0.079211 -0.403156
0.25004 0.241897 -0.385836
0.209301 0.529686 -0.403156
-0.38511 0.344368 -0.385836
0.271849 -0.546342 -0.403156
0.444859 0.020972 -0.385836
0.295067 0.598931 -0.403156
-0.001145 0.561721 -0.403156
-0.23447 -0.314792 -0.403156
0.447561 -0.22265 -0.385836
-0.434361 -0.384104 -0.385836
-0.295146 -0.408263 -0.403156
-0.289242 -0.545401 -0.385836
-0.082571 -0.055138 -0.403156
-0.317646 0.32351 -0.385836
0.394258 0.055192 -0.385836
-0.390495 -0.077593 -0.403156
0.164995 0.070949 -0.385836
-0.195375 -0.295806 -0.403156
-0.417638 0.0578 -0.385836
0.247765 0.020104 -0.403156
-0.129048 0.15301 -0.403156
0.195219 -0.244951 -0.385836
0.390615 -0.462377 -0.403156
-0.270977 -0.031231 -0.385836
0.051306 -0.032885 -0.403156
0.123188 0.43524 -0.403156
0.225456 -0.009495 -0.385836
0.053703 -0.594372 -0.385836
-0.04311 0.485414 -0.385836
-0.00917 0.480193 -0.403156
-0.332889 -0.021725 -0.385836
-0.320361 0.471857 -0.385836
-0.422726 0.605263 -0.403156
-0.172376 0.383277 -0.403156
0.251593 -0.373729 -0.385836
0.115007 0.526218 -0.385836
-0.129264 -0.336655 -0.403156
-0.134112 -0.53889 -0.385836
0.114052 -0.42164 -0.403156
-0.178686 -0.194443 -0.385836
0.022473 0.578233 -0.385836
-0.196019 -0.393577 -0.403156
-0.03658 0.434686 -0.385836
-0.234379 -0.444907 -0.403156
0.291492 -0.508575 -0.403156
-0.37442 -0.526029 -0.385836
0.243718 0.547363 -0.403156
-0.268582 -0.09482 -0.403156
0.166435 0.280123 -0.403156
0.445934 -0.138586 -0.403156
0.24034 0.109037 -0.403156
0.038105 0.518591 -0.385836
-0.009759 0.230744 -0.403156
0.15101 0.561022 -0.385836
-0.257005 -0.194347 -0.403156
0.390228 0.013599 -0.385836
-0.41611 0.128114 -0.385836
0.162721 0.609124 -0.403156
-0.261971 0.586604 -0.403156
-0.185012 -0.071985 -0.403156
-0.372811 0.517826 -0.403156
-0.249677 -0.251637 -0.403156
0.052724 -0.303381 -0.403156
-0.071965 0.021178 -0.385836
-0.297581 0.227526 -0.385836
0.057727 0.328427 -0.403156
-0.040901 0.197196 -0.403156
-0.221643 0.129225 -0.403156
-0.344915 -0.359908 -0.385836
-0.183703 -0.376077 -0.385836
0.046401 -0.509194 -0.385836
-0.344427 0.170574 -0.385836
0.084548 -0.276215 -0.403156
-0.391598 -0.361564 -0.403156
0.415417 -0.224164 -0.403156
-0.383138 -0.141695 -0.403156
0.257222 -0.330955 -0.385836
0.096039 -0.094316 -0.385836
0.375723 0.328127 -0.403156
0.361316 -0.027622 -0.403156
-0.009059 0.42617 -0.385836
-0.44587 -0.042031 -0.403156
0.428473 0.479764 -0.385836
-0.396171 0.033447 -0.403156
0.042525 0.20441 -0.403156
-0.324415 -0.06008 -0.403156
0.134844 -0.183939 -0.385836
0.123518 -0.296615 -0.385836
-0.054358 0.383364 -0.385836
0.050472 0.629375 -0.385836
-0.132697 -0.613917 -0.403156
-0.31519 0.391571 -0.385836
-0.277473 -0.299601 -0.403156
-0.295046 -0.587607 -0.403156
0.015493 0.165488 -0.403156
-0.175033 0.337497 -0.403156
0.302893 -0.093928 -0.385836
0.220205 0.511543 -0.385836
-0.148295 0.533277 -0.385836
-0.045635 0.057834 -0.385836
0.182598 0.376037 -0.385836
0.354595 -0.474894 -0.403156
-0.316376 -0.360814 -0.385836
-0.315072 -0.202894 -0.403156
0.103787 -0.151133 -0.403156
-0.335651 -0.244771 -0.385836
0.1355 -0.477971 -0.403156
0.385609 0.482232 -0.385836
-0.208145 -0.636874 -0.385836
-0.176064 0.486388 -0.403156
0.163265 0.406566 -0.403156
0.079133 0.306244 -0.385836
-0.435682 -0.493614 -0.403156
0.318576 -0.422634 -0.385836
0.173736 0.430135 -0.403156
-0.114732 0.59008 -0.403156
-0.202575 0.173806 -0.403156
-0.226229 -0.408132 -0.403156
0.357531 0.412283 -0.403156
0.308286 -0.383625 -0.403156
0.300801 0.327638 -0.403156
-0.218497 -0.46188 -0.385836
0.209284 -0.392038 -0.385836
0.300448 0.419152 -0.403156
0.297829 -0.222747 -0.403156
0.042594 0.298117 -0.385836
0.249832 -0.108635 -0.385836
0.148674 0.192607 -0.403156
-0.043364 -0.302509 -0.385836
-0.044738 -0.518476 -0.385836
-0.397239 0.188356 -0.385836
0.216861 0.245048 -0.403156
0.178635 0.527528 -0.403156
0.339957 -0.061106 -0.385836
0.341981 0.24219 -0.385836
0.3368 -0.443368 -0.403156
0.40103 -0.566527 -0.385836
-0.389095 -0.485559 -0.403156
-0.417608 -0.141669 -0.403156
0.372467 0.034022 -0.385836
-0.036219 0.233699 -0.385836
-0.113367 0.402249 -0.403156
-0.028649 0.266925 -0.403156
-0.149465 -0.439908 -0.403156
-0.123166 -0.000946 -0.403156
-0.085389 0.471517 -0.385836
0.315437 0.483906 -0.385836
-0.012744 0.628934 -0.385836
0.310759 0.185527 -0.403156
0.353911 -0.263326 -0.385836
-0.436801 -0.220502 -0.403156
-0.273384 -0.255108 -0.385836
-0.149219 -0.15206 -0.385836
0.406521 -0.076654 -0.403156
0.188042 -0.355059 -0.403156
-0.143812 0.233287 -0.385836
0.340109 -0.155229 -0.403156
0.386571 -0.360057 -0.403156
-0.011165 0.502187 -0.385836
0.430524 -0.422889 -0.385836
-0.176463 0.309878 -0.403156
-0.418957 0.310689 -0.385836
0.151544 0.243511 -0.385836
-0.138379 0.488692 -0.403156
0.083784 -0.544913 -0.403156
0.061936 0.512426 -0.385836
0.346699 0.356728 -0.385836
0.100823 -0.629155 -0.403156
-0.434522 -0.092031 -0.385836
0.165549 0.449365 -0.385836
0.096419 0.557118 -0.403156
0.431686 -0.28984 -0.403156
0.210847 0.026941 -0.385836
-0.137291 -0.309324 -0.385836
-0.444328 0.097356 -0.403156
0.048704 -0.062205 -0.385836
-0.120467 -0.500003 -0.403156
-0.226661 0.331331 -0.385836
-0.24623 0.21862 -0.403156
-0.054296 -0.195164 -0.403156
-0.364854 0.456897 -0.385836
0.404805 -0.509094 -0.385836
0.229716 0.169573 -0.403156
0.342853 0.069085 -0.385836
-0.253098 0.604847 -0.385836
0.237513 0.284606 -0.403156
-0.31398 0.305759 -0.403156
0.337694 0.167472 -0.403156
0.420094 -0.367157 -0.385836
-0.168128 -0.068833 -0.385836
-0.122582 -0.567398 -0.385836
0.009339 -0.534507 -0.403156
0.231642 -0.027613 -0.403156
-0.210348 0.267284 -0.385836
-0.23486 0.005855 -0.403156
0.145911 0.41924 -0.385836
0.16867 0.136078 -0.385836
-0.045927 0.362021 -0.403156
0.407084 0.110768 -0.385836
-0.366948 -0.405434 -0.385836
-0.252413 -0.165118 -0.385836
0.25098 0.122365 -0.385836
-0.022356 0.564779 -0.385836
0.284607 0.061552 -0.385836
0.401151 -0.27881 -0.403156
-0.176976 -0.046666 -0.403156
0.278863 -0.312381 -0.403156
0.102424 -0.60579 -0.385836
0.193553 0.176048 -0.403156
0.004395 0.444484 -0.403156
-0.268532 -0.437644 -0.385836
0.306329 0.294338 -0.403156
-0.261085 -0.462521 -0.403156
-0.36729 -0.242358 -0.385836
-0.189646 0.112815 -0.403156
-0.113021 0.609787 -0.385836
-0.113417 -0.441747 -0.385836
-0.432907 0.00217 -0.385836
-0.065868 -0.38406 -0.403156
-0.013472 0.086945 -0.403156
0.366436 -0.436303 -0.403156
-0.308064 -0.430344 -0.385836
-0.40923 0.595351 -0.385836
0.006497 0.303974 -0.385836
-0.275839 0.326268 -0.385836
0.423728 -0.118849 -0.403156
-0.254198 0.4669 -0.385836
0.301369 -0.352679 -0.385836
-0.126698 -0.114341 -0.385836
0.06126 0.404213 -0.403156
-0.039446 0.090289 -0.403156
0.131426 0.612367 -0.385836
-0.277127 -0.174348 -0.403156
-0.417011 -0.561514 -0.385836
0.267445 0.507395 -0.385836
-0.039851 -0.016121 -0.385836
0.209497 -0.224417 -0.385836
0.295762 -0.483174 -0.403156
-0.396083 0.524851 -0.403156
0.198732 -0.585338 -0.385836
0.308369 -0.170978 -0.403156
0.039811 0.250261 -0.403156
-0.155677 -0.51083 -0.385836
0.181785 -0.038369 -0.403156
-0.305508 0.262682 -0.385836
0.203265 0.138159 -0.385836
-0.051984 0.651038 -0.403156
-0.248844 0.374666 -0.385836
-0.174758 -0.128797 -0.385836
0.024059 -0.558557 -0.403156
0.411546 0.208013 -0.385836
-0.278741 0.192256 -0.385836
-0.203079 0.446102 -0.385836
0.091292 -0.038226 -0.403156
-0.160689 0.197581 -0.403156
0.385471 0.530196 -0.403156
-0.127528 -0.417272 -0.403156
0.033763 -0.050924 -0.403156
0.197318 -0.115249 -0.403156
-0.364727 -0.491516 -0.385836
-0.391575 -0.217451 -0.385836
0.013565 0.106212 -0.403156
-0.20741 -0.405048 -0.385836
-0.436316 0.54235 -0.403156
0.295409 -0.193277 -0.403156
0.408375 -0.18007 -0.385836
-0.12457 0.372451 -0.385836
0.349449 -0.353077 -0.403156
0.37975 -0.218661 -0.403156
-0.047094 -0.451778 -0.403156
0.373711 -0.377069 -0.385836
0.127354 -0.604366 -0.403156
0.16809 0.207159 -0.385836
0.207775 -0.259324 -0.403156
-0.190659 -0.557688 -0.385836
0.334645 0.427986 -0.385836
-0.257084 -0.137276 -0.385836
0.406195 0.127366 -0.403156
-0.029426 0.324857 -0.403156
0.115789 0.330457 -0.403156
0.30839 -0.01521 -0.403156
-0.141768 -0.096405 -0.385836
0.30119 0.217022 -0.385836
-0.362408 -0.287025 -0.403156
0.326725 -0.265947 -0.403156
0.305742 0.061186 -0.403156
-0.030656 -0.61687 -0.085995
-0.314188 -0.61687 0.027561
0.237131 -0.61687 -0.21411
0.201916 -0.61687 0.131576
-0.083763 -0.61687 0.186948
-0.28721 -0.61687 -0.215407
-0.273239 -0.61687 0.2358
-0.080632 -0.61687 -0.284343
0.271752 -0.61687 -0.034945
0.058493 -0.61687 0.055388
0.075661 -0.61687 -0.203814
-0.190253 -0.61687 -0.071114
0.164189 -0.61687 -0.373767
0.374183 -0.61687 -0.31316
0.138486 -0.61687 -0.077577
-0.184682 -0.61687 0.071245
-0.39653 -0.61687 0.180393
0.263131 -0.61687 0.319846
0.362967 -0.61687 -0.175003
-0.149805 -0.61687 0.313816
0.327958 -0.61687 0.184909
-0.347606 -0.61687 -0.095579
-0.192632 -0.61687 -0.334468
-0.060383 -0.61687 0.042944
-0.11767 -0.61687 -0.165976
0.032007 -0.61687 -0.317912
-0.374832 -0.61687 -0.309345
0.016753 -0.61687 0.267663
0.348245 -0.61687 0.070563
0.14942 -0.61687 0.314198
-0.428855 -0.61687 0.014581
0.098267 -0.61687 0.156092
0.161852 -0.61687 0.026099
0.368104 -0.61687 0.312158
0.258417 -0.61687 -0.32785
-0.359626 -0.61687 0.307462
-0.273814 -0.61687 0.119498
0.207505 -0.61687 0.230465
-0.181721 -0.61687 0.192724
0.367685 -0.61687 -0.050915
0.13684 -0.61687 -0.281501
-0.000435 -0.61687 0.130399
-0.393405 -0.61687 -0.216491
-0.251363 -0.61687 0.339077
-0.190998 -0.61687 -0.242799
-0.283609 -0.61687 -0.315494
0.055356 -0.61687 -0.035031
0.260726 -0.61687 0.056232
-0.00976 -0.61687 -0.18007
-0.26346 -0.61687 -0.12119
0.156606 -0.61687 -0.170242
0.058698 -0.61687 0.3425
-0.114814 -0.61687 -0.03521
0.230698 -0.61687 -0.132384
-0.062652 -0.61687 0.318804
-0.446344 -0.61687 -0.364959
0.303658 -0.61687 -0.253711
-0.426696 -0.61687 -0.070931
0.130651 -0.61687 0.22695
-0.26127 -0.61687 -0.042998
-0.34867 -0.61687 0.105907
-0.137607 -0.61687 0.129446
0.048545 -0.61687 -0.107826
-0.065858 -0.61687 -0.353991
0.272408 -0.61687 0.139431
0.40752 -0.61687 -0.11234
0.136114 -0.61687 0.091352
0.330648 -0.61687 -0.110345
0.409997 -0.61687 -0.226772
0.002068 -0.61687 0.199913
-0.007058 -0.61687 -0.260956
-0.432356 -0.61687 -0.145999
-0.371196 -0.61687 -0.03063
0.206667 -0.61687 -0.055818
-0.182727 -0.61687 0.003304
-0.184304 -0.61687 -0.156448
0.382946 -0.61687 0.127805
0.401687 -0.61687 0.207283
-0.073123 -0.61687 0.107766
0.41761 -0.61687 0.002297
-0.4138 -0.61687 0.269125
-0.363883 -0.61687 -0.379702
-0.075561 -0.61687 -0.215326
0.099625 -0.61687 -0.334546
0.387816 -0.61687 -0.376678
0.44083 -0.61687 -0.311038
-0.144071 -0.61687 -0.284949
0.068218 -0.61687 0.217952
-0.121994 -0.61687 0.067095
0.115262 -0.61687 -0.01636
-0.061812 -0.61687 0.255293
0.417994 -0.61687 0.267573
0.282219 -0.61687 -0.16729
0.097404 -0.61687 0.278551
-0.032173 -0.61687 -0.010672
-0.346474 -0.61687 -0.178247
-0.114632 -0.61687 -0.105567
-0.421241 -0.61687 -0.270566
-0.246523 -0.61687 0.015642
-0.247322 -0.61687 -0.264484
-0.205117 -0.61687 0.127969
0.308845 -0.61687 0.02029
-0.338018 -0.61687 0.193849
0.349458 -0.61687 0.240999
0.189131 -0.61687 -0.250071
0.166674 -0.61687 0.180666
-0.327802 -0.61687 -0.275194
0.323184 -0.61687 0.348988
-0.38107 -0.61687 0.047421
-0.440757 -0.61687 0.218181
0.005517 -0.61687 0.032815
0.201475 -0.61687 -0.321614
-0.135614 -0.61687 -0.35129
0.063311 -0.61687 -0.259658
-0.30261 -0.61687 0.308289
0.108457 -0.61687 -0.140905
0.313748 -0.61687 -0.326826
0.061975 -0.61687 0.114386
-0.402371 -0.61687 0.112777
-0.277152 -0.61687 0.172214
0.046058 -0.61687 0.170069
0.213997 -0.61687 0.019174
-0.219975 -0.61687 0.239081
0.278106 -0.61687 -0.110967
0.232804 -0.61687 -0.277528
-0.042718 -0.61687 -0.140399
-0.239495 -0.61687 0.289053
0.410577 -0.61687 0.352556
-0.365656 -0.61687 0.247909
0.267939 -0.61687 0.214507
-0.263396 -0.61687 0.063502
0.415667 -0.61687 0.057835
-0.245329 -0.61687 -0.188545
-0.381795 -0.61687 -0.143257
-0.126658 -0.61687 -0.214648
-0.304076 -0.61687 -0.072391
-0.06435 -0.61687 -0.050015
0.183386 -0.61687 -0.122082
-0.105832 -0.61687 0.293562
0.315108 -0.61687 -0.202632
0.011675 -0.61687 -0.062823
0.31092 -0.61687 -0.066647
0.18095 -0.61687 0.074798
0.246487 -0.61687 0.258026
0.119264 -0.61687 -0.22218
-0.137265 -0.61687 0.015551
-0.15104 -0.61687 0.237447
-0.051099 -0.61687 0.153418
0.406616 -0.61687 -0.279501
0.148026 -0.61687 -0.330183
0.414699 -0.61687 -0.066504
-0.008119 -0.61687 0.306817
-0.020784 -0.61687 -0.343844
0.29566 -0.61687 0.277124
0.071318 -0.61687 0.008274
0.375608 -0.61687 0.03345
0.194532 -0.61687 -0.19645
-0.310494 -0.61687 -0.122762
0.03445 -0.61687 -0.223903
-0.130677 -0.61687 0.174633
0.166956 -0.61687 0.272044
-0.233812 -0.61687 0.185452
-0.076539 -0.61687 -0.002219
0.40444 -0.61687 -0.157997
-0.313257 -0.61687 0.146025
-0.327706 -0.61687 -0.321046
0.339315 -0.61687 0.121179
-0.366646 -0.61687 0.145962
-0.297135 -0.61687 -0.172847
-0.416184 -0.61687 -0.323275
0.319518 -0.61687 -0.022016
-0.18009 -0.61687 0.282411
0.159846 -0.61687 -0.039633
0.143889 -0.61687 0.13396
-0.104686 -0.61687 -0.320152
0.307176 -0.61687 0.233364
-0.407759 -0.61687 0.311532
0.096011 -0.61687 -0.083004
-0.017362 -0.61687 0.068448
-0.233543 -0.61687 0.093491
-0.045153 -0.61687 -0.307148
-0.434911 -0.61687 -0.029579
-0.267549 -0.61687 -0.354467
0.306686 -0.61687 0.06357
-0.208384 -0.61687 0.351821
0.049787 -0.61687 -0.149898
0.337233 -0.61687 -0.279049
-0.222096 -0.61687 -0.138112
0.416496 -0.61687 -0.345047
0.123821 -0.61687 -0.383524
0.232572 -0.61687 -0.021367
0.060946 -0.61687 -0.348556
-0.111667 -0.61687 0.216893
0.01692 -0.61687 -0.021032
-0.200081 -0.61687 -0.203658
0.41951 -0.61687 0.097656
-0.224135 -0.61687 -0.028325
-0.444499 -0.61687 -0.107985
0.048653 -0.61687 0.291614
0.327737 -0.61687 0.300581
-0.381388 -0.61687 -0.270161
-0.437801 -0.61687 0.178565
0.009082 -0.61687 -0.110858
0.188907 -0.61687 0.31319
-0.039996 -0.61687 -0.232394
-0.074174 -0.61687 -0.164123
-0.434026 -0.61687 0.053185
-0.280501 -0.61687 0.274037
0.022073 -0.61687 0.098714
0.205299 -0.61687 0.182579
-0.100604 -0.61687 0.028008
0.249517 -0.61687 -0.373579
0.099167 -0.61687 0.102457
-0.136891 -0.61687 -0.074348
0.18575 -0.61687 -0.011596
-0.386704 -0.61687 0.345373
0.259149 -0.61687 -0.077991
0.233613 -0.61687 0.343371
-0.320502 -0.61687 -0.238188
0.258804 -0.61687 0.104268
0.227796 -0.61687 -0.169881
0.366353 -0.61687 -0.212429
-0.28842 -0.61687 0.344795
-0.335423 -0.61687 0.269839
0.348399 -0.61687 -0.340687
-0.038393 -0.61687 0.285217
-0.107626 -0.61687 -0.37584
-0.206595 -0.61687 0.314842
-0.34476 -0.61687 0.006737
-0.078201 -0.61687 -0.099364
0.381969 -0.61687 -0.007419
-0.156076 -0.61687 0.094393
0.262176 -0.61687 0.178181
-0.015235 -0.61687 0.232882
0.092836 -0.61687 0.328874
0.421507 -0.61687 0.140553
0.267585 -0.61687 -0.234151
0.357383 -0.61687 0.277359
-0.13578 -0.61687 0.270485
0.379579 -0.61687 -0.246585
0.37987 -0.61687 -0.088845
-0.431912 -0.61687 0.140585
-0.101711 -0.61687 -0.240511
0.14061 -0.61687 -0.113356
-0.42918 -0.61687 -0.218174
0.296062 -0.61687 0.167077
0.366756 -0.61687 0.200408
-0.086454 -0.61687 0.067982
0.343245 -0.61687 -0.24429
-0.037949 -0.61687 0.11023
-0.351287 -0.61687 -0.060522
-0.299992 -0.61687 0.096159
-0.085562 -0.61687 0.147415
-0.208661 -0.61687 0.026722
0.06562 -0.61687 0.259086
-0.251931 -0.61687 0.148127
-0.177049 -0.61687 -0.038854
-0.161958 -0.61687 -0.129709
0.201727 -0.61687 -0.092507
0.402464 -0.61687 0.318736
-0.339938 -0.61687 0.348085
0.101378 -0.61687 -0.174933
0.442929 -0.61687 0.243752
0.023996 -0.61687 -0.172728
0.341879 -0.61687 -0.14284
-0.058733 -0.61687 0.210495
-0.39326 -0.61687 -0.062994
0.036136 -0.61687 0.204083
0.189684 -0.61687 -0.28429
0.087882 -0.61687 -0.045654
-0.170986 -0.61687 0.03536
-0.00717 -0.61687 -0.31265
-0.213128 -0.61687 -0.268593
0.23871 -0.61687 0.143448
0.163659 -0.61687 0.21922
0.416929 -0.61687 -0.032707
0.327397 -0.61687 -0.376396
0.385986 -0.61687 0.256715
-0.2044 -0.61687 -0.101732
-0.296377 -0.61687 -0.261681
-0.380867 -0.61687 0.281682
-0.008709 -0.61687 -0.139023
-0.339021 -0.61687 0.049638
0.043017 -0.61687 -0.073535
-0.275501 -0.61687 -0.000294
-0.175974 -0.61687 0.333995
0.355685 -0.61687 0.167094
0.277383 -0.61687 -0.273269
-0.14001 -0.61687 -0.317366
-0.373615 -0.61687 0.203671
0.262636 -0.61687 0.023689
0.237785 -0.61687 0.07932
-0.218608 -0.61687 0.06459
-0.26662 -0.61687 -0.161729
0.002305 -0.61687 -0.227809
0.031526 -0.61687 0.324915
-0.353528 -0.61687 -0.127361
0.380129 -0.61687 0.06577
0.297917 -0.61687 -0.139161
-0.027061 -0.61687 -0.042375
-0.284461 -0.61687 0.205962
-0.119685 -0.61687 0.103169
0.146305 -0.61687 -0.009469
0.264887 -0.61687 -0.199272
0.439608 -0.61687 -0.2374
-0.10628 -0.61687 -0.067221
0.232145 -0.61687 -0.344687
-0.073548 -0.61687 -0.321811
0.117551 -0.61687 -0.054697
-0.026139 -0.61687 0.187501
0.206742 -0.61687 0.091606
0.128264 -0.61687 -0.251612
-0.362614 -0.61687 -0.204332
0.238543 -0.61687 0.197717
0.011306 -0.61687 0.158708
0.038386 -0.61687 0.133821
0.367572 -0.61687 -0.282742
0.406374 -0.61687 0.177094
0.411714 -0.61687 0.23785
-0.180633 -0.61687 0.242863
0.353998 -0.61687 -0.018268
-0.302899 -0.61687 0.239869
0.440843 -0.61687 -0.370259
0.140925 -0.61687 0.047058
-0.17132 -0.61687 -0.273355
-0.416113 -0.61687 -0.170736
-0.239336 -0.61687 0.214495
-0.165368 -0.61687 0.139235
0.029636 -0.61687 0.04964
0.08188 -0.61687 -0.232509
0.443509 -0.61687 -0.072066
-0.038496 -0.61687 0.336609
0.195901 -0.61687 0.268048
0.17208 -0.61687 0.337074
-0.441477 -0.61687 0.284057
0.341905 -0.61687 0.326028
0.163815 -0.61687 -0.235786
-0.02625 -0.61687 -0.114687
0.254347 -0.61687 0.285907
0.099258 -0.61687 0.015599
0.058355 -0.61687 -0.287993
0.040572 -0.61687 -0.00479
0.130137 -0.61687 -0.159444
0.121193 -0.61687 0.327149
0.203118 -0.61687 0.057047
-0.295553 -0.61687 -0.349827
-0.089936 -0.61687 0.333217
-0.247371 -0.61687 -0.334528
0.172201 -0.61687 0.134149
0.283273 -0.61687 -0.060755
0.023409 -0.61687 0.35663
-0.416423 -0.61687 -0.122743
0.096978 -0.61687 -0.111136
-0.190782 -0.61687 -0.129057
-0.262606 -0.61687 0.093686
0.079543 -0.61687 -0.018803
0.311235 -0.61687 0.323273
-0.09653 -0.61687 0.267171
0.297226 -0.61687 0.126684
0.08446 -0.61687 0.045406
-0.372906 -0.61687 -0.16975
0.416511 -0.61687 0.030131
0.426315 -0.61687 0.304646
0.334859 -0.61687 0.029726
0.303475 -0.61687 -0.282222
-0.032359 -0.61687 -0.271874
-0.21748 -0.61687 -0.224907
-0.261953 -0.61687 0.304845
-0.373166 -0.61687 -0.105441
0.07294 -0.61687 -0.135254
-0.314279 -0.61687 0.207346
-0.031631 -0.61687 0.045216
0.046959 -0.61687 0.028658
0.184618 -0.61687 0.201876
0.171484 -0.61687 -0.316494
0.228933 -0.61687 -0.071308
0.080215 -0.61687 0.135863
0.223803 -0.61687 -0.303085
0.318999 -0.61687 -0.231384
0.243303 -0.61687 -0.046189
-0.170193 -0.61687 -0.225523
-0.11987 -0.61687 -0.272953
0.265373 -0.61687 -0.003051
-0.103835 -0.61687 -0.200454
-0.316237 -0.61687 0.117542
-0.218108 -0.61687 -0.18378
0.032332 -0.61687 -0.344662
0.291765 -0.61687 -0.086119
0.404745 -0.61687 -0.321067
0.26655 -0.61687 -0.30245
0.064257 -0.61687 0.081426
-0.059202 -0.61687 0.069486
0.167819 -0.61687 0.097817
-0.093259 -0.61687 -0.121188
-0.283611 -0.61687 0.146595
-7.6e-05 -0.61687 0.331925
-0.077384 -0.61687 0.234093
-0.420763 -0.61687 0.334357
-0.407603 -0.61687 0.029834
-0.099825 -0.61687 -0.34581
-0.143601 -0.61687 0.05244
0.390824 -0.61687 -0.349281
-0.357821 -0.61687 0.029215
-0.379104 -0.61687 -0.244269
-0.029475 -0.61687 0.015027
0.048874 -0.61687 0.239547
0.209612 -0.61687 -0.147114
-0.20714 -0.61687 -0.051714
-0.048977 -0.61687 -0.334588
-0.280253 -0.61687 -0.08172
-0.159732 -0.61687 -0.163101
-0.312137 -0.61687 0.280034
0.204487 -0.61687 -0.375598
0.021186 -0.61687 0.012884
0.284046 -0.61687 0.305528
0.325023 -0.61687 0.210071
0.239286 -0.61687 0.042883
-0.216224 -0.61687 0.203457
0.427196 -0.61687 -0.147289
0.343124 -0.61687 -0.046635
-0.426267 -0.61687 -0.246191
-0.268857 -0.61687 -0.196417
0.036458 -0.61687 -0.19418
-0.179639 -0.61687 -0.100549
0.090049 -0.61687 -0.36419
-0.184804 -0.61687 -0.184327
0.026151 -0.61687 -0.091495
-0.122146 -0.61687 -0.297451
0.232512 -0.61687 0.119648
0.319361 -0.61687 0.159389
0.411417 -0.61687 -0.202289
-0.276339 -0.61687 -0.247573
0.384316 -0.61687 0.358828
0.290746 -0.61687 -0.204802
0.075375 -0.61687 -0.159517
-0.082526 -0.61687 0.300487
-0.425146 -0.61687 -0.294555
-0.159403 -0.61687 0.202271
-0.382717 -0.61687 0.126984
0.254755 -0.61687 -0.134987
-0.092407 -0.61687 -0.263295
-0.284196 -0.61687 0.075695
-0.111064 -0.61687 0.006365
-0.365318 -0.61687 -0.331418
0.165302 -0.61687 -0.147927
0.147905 -0.61687 0.257619
0.208979 -0.61687 -0.006004
-0.347395 -0.61687 -0.028962
-0.371925 -0.61687 -0.07365
-0.410201 -0.61687 -0.346331
-0.396889 -0.61687 0.208501
0.184244 -0.61687 0.288728
-0.060861 -0.61687 -0.115552
-0.451243 -0.61687 -0.131799
-0.199281 -0.61687 -0.357129
0.435596 -0.61687 0.121624
0.435563 -0.61687 0.331091
-0.092278 -0.61687 0.094107
0.018343 -0.61687 0.305489
-0.433433 -0.61687 0.309433
-0.056548 -0.61687 -0.375491
0.470681 0.182595 -0.425769
0.470681 0.710342 0.079695
0.447587 -0.558396 -0.022769
0.447587 -0.032801 0.021044
0.470681 0.358355 -0.081195
0.461558 -0.674604 0.323556
0.470681 -0.176873 -0.322324
0.470681 -0.518782 -0.370139
0.470681 -0.047407 0.322487
0.447587 -0.308227 0.121956
0.470681 0.210209 0.148859
0.470681 0.460212 -0.332894
0.470681 0.114282 -0.18509
0.447587 -0.344567 -0.13994
0.470681 -0.479243 0.243461
0.470681 0.473963 0.095738
0.468089 -0.016836 -0.437796
0.470681 0.550416 -0.133401
0.447587 0.384128 0.280583
0.447587 0.280835 -0.267535
0.470681 0.698215 -0.246112
0.447587 -0.642341 0.139401
0.470681 -0.509801 -0.192852
0.470681 0.195732 -0.022241
0.470681 -0.207593 -0.006606
0.470681 0.025898 0.175864
0.447587 -0.02934 -0.256049
0.470681 0.537412 0.244789
0.470681 -0.203853 0.329848
0.470681 -0.40308 0.003923
0.469421 0.711004 -0.094493
0.447587 0.130625 0.280285
0.447587 -0.336073 0.264573
0.447587 0.323617 0.053845
0.470681 -0.404371 -0.288151
0.470681 0.328303 -0.436646
0.447587 0.556253 -0.432515
0.447587 -0.007995 -0.116114
0.470681 0.575452 0.005871
0.470681 0.408898 -0.208028
0.456636 -0.258173 -0.437796
0.470681 0.098655 0.065761
0.470681 -0.493172 0.114977
0.470681 -0.233751 -0.200074
0.470681 0.093839 -0.311597
0.470681 0.259178 0.266545
0.470681 0.584545 -0.309529
0.470681 -0.185093 0.11996
0.447587 0.589126 0.126771
0.470681 -0.403346 -0.425615
0.447587 0.366594 0.162544
0.447587 0.461371 -0.032034
0.447587 0.236513 -0.125654
0.470681 0.709227 0.213435
0.447587 0.082053 -0.048009
0.470681 -0.596053 0.239442
0.447587 -0.672868 -0.096576
0.447587 -0.0725 0.128759
0.447587 -0.238424 0.211994
0.470681 -0.098648 -0.062753
0.447587 -0.399647 0.17348
0.447587 -0.456235 -0.083216
0.470681 -0.074424 -0.347243
0.470681 -0.133494 -0.22444
0.470681 -0.310287 -0.04543
0.470681 0.682622 -0.347885
0.470681 -0.593797 -0.253609
0.447587 0.594988 0.326049
0.447587 -0.306562 -0.272735
0.470681 -0.116886 0.246765
0.470681 0.05059 0.34671
0.470681 0.083811 -0.428357
0.470681 0.181532 -0.257033
0.447587 -0.229262 -0.099592
0.447587 0.500381 -0.228892
0.447587 0.123073 0.182017
0.470681 0.441469 -0.426709
0.470681 0.693981 0.338515
0.470681 -0.595885 -0.146365
0.470681 0.344687 -0.333156
0.447587 0.666074 -0.006286
0.470681 -0.64909 0.023794
0.470681 -0.425774 0.318814
0.470681 -0.316652 -0.36871
0.470681 0.309759 -0.184709
0.447587 -0.493886 -0.28663
0.447587 0.61374 -0.221125
0.447587 0.621839 -0.085518
0.470681 0.620672 0.209108
0.447587 0.21496 0.060957
0.470681 -0.11362 0.054546
0.470681 0.404964 0.030991
0.447587 0.449745 0.189854
0.447587 0.151197 -0.106643
0.447587 -0.580726 0.072085
0.470681 0.24682 -0.34399
0.447587 0.035981 0.258819
0.447587 -0.431737 -0.167156
0.447587 0.006806 -0.336642
0.470681 -0.307608 0.040074
0.470681 0.647605 -0.425429
0.470681 -0.174995 -0.427448
0.470681 -0.618992 -0.366918
0.447587 0.284853 -0.045378
0.447587 -0.080408 -0.160122
0.470681 0.463985 -0.113339
0.470681 -0.406743 0.087871
0.447587 -0.498365 0.034992
0.447587 0.030771 -0.199323
0.447587 0.012941 0.088525
0.447587 -0.121989 0.34807
0.447587 -0.550154 0.177132
0.447587 0.276101 0.187146
0.447587 0.666702 0.14266
0.447587 -0.041973 0.236606
0.447587 -0.593182 0.326173
0.447587 -0.674564 -0.28188
0.447587 -0.524414 -0.119065
0.470681 -0.342813 0.340299
0.447587 0.254196 -0.431158
0.470681 0.456319 0.289058
0.470681 -0.264776 0.28611
0.447587 -0.522022 0.302698
0.470681 0.333367 0.230737
0.447587 -0.240738 -0.365662
0.470681 -0.172803 -0.157047
0.470681 0.196427 -0.184233
0.447587 -0.238506 0.056553
0.447587 -0.427042 -0.354423
0.470681 0.069241 -0.126693
0.470681 0.188508 0.24289
0.470681 0.523824 -0.367952
0.470681 -0.369778 -0.22476
0.470681 -0.623241 -0.044601
0.447587 -0.217835 -0.267599
0.447587 -0.539401 -0.43529
0.470681 0.164789 -0.355951
0.447587 0.348976 -0.24036
0.470681 -0.449924 -0.232693
0.470681 0.622068 -0.153186
0.470681 0.033036 0.007015
0.470681 -0.322933 0.198725
0.470681 0.540648 0.071656
0.468345 -0.332239 -0.437796
0.470681 0.545725 -0.062866
0.470681 -0.152211 0.185892
0.470681 -0.306018 -0.1941
0.447587 0.63184 0.0542
0.447587 0.527307 0.170865
0.447587 -0.024692 -0.047725
0.470681 0.304687 0.318317
0.447587 0.149353 0.106146
0.470681 -0.166766 -0.071698
0.447587 0.310483 0.122918
0.470681 0.64587 0.272748
0.447587 0.489851 0.029556
0.470681 0.033441 -0.266766
0.447587 -0.399885 0.24044
0.447587 0.375496 -0.154794
0.447587 0.400179 -0.303869
0.470681 0.132219 0.007989
0.447587 -0.482497 0.176273
0.470681 0.410105 0.113131
0.447587 0.513993 0.310791
0.470681 0.254385 0.007873
0.470681 -0.478599 -0.429417
0.470681 0.196028 0.320892
0.470681 -0.490514 -0.03307
0.447587 0.653637 -0.287085
0.447587 -0.184548 0.247755
0.447587 0.104113 -0.244086
0.470681 -0.111084 -0.428227
0.447587 0.106884 -0.373534
0.447587 0.45876 -0.175837
0.470681 -0.402259 -0.115698
0.470681 0.092015 0.235462
0.447587 0.512925 -0.30615
0.464185 0.711004 0.276425
0.447587 0.375846 -0.024884
0.470681 -0.109521 -0.294699
0.447587 0.624009 -0.352614
0.470681 -0.255299 0.156318
0.447587 -0.385047 -0.051285
0.470681 0.703566 -0.184303
0.470681 0.709482 -0.425639
0.447587 -0.549402 -0.313287
0.447587 -0.56653 -0.20346
0.470681 -0.019423 -0.172949
0.470681 0.446678 -0.271729
0.447587 0.297685 -0.130554
0.470681 0.056161 0.124076
0.447587 -0.080335 0.187976
0.470681 0.320076 -0.003066
0.447587 -0.364033 -0.340799
0.470681 0.501553 -0.431748
0.470681 -0.5668 -0.08504
0.470681 -0.290699 -0.1327
0.447587 -0.261475 -0.021673
0.447587 -0.365629 0.043182
0.447587 0.411738 -0.099942
0.470681 -0.645444 -0.419126
0.470681 0.55204 -0.214465
0.470681 -0.03928 0.076512
0.470681 -0.643205 0.273766
0.447587 0.229503 -0.226202
0.470681 0.227478 -0.070978
0.470681 -0.268698 -0.309984
0.470681 0.412699 0.236305
0.447587 -0.531783 0.241185
0.470681 -0.549737 0.124552
0.447587 -0.160347 -0.269332
0.447587 -0.122076 -0.12106
0.470681 -0.47603 -0.139657
0.470681 -0.083382 -0.007935
0.470681 0.481181 0.238144
0.447587 0.709869 -0.041976
0.456295 0.711004 -0.301242
0.470681 -0.673504 0.078405
0.470681 -0.592921 0.02011
0.447587 -0.36438 0.125402
0.447587 0.589717 0.249568
0.470681 -0.123401 0.127201
0.447587 0.146427 -0.293781
0.470681 0.031509 -0.050021
0.470681 -0.056138 -0.100828
0.447587 -0.136595 -0.370829
0.470681 0.139497 -0.046562
0.447587 -0.146421 0.299206
0.470681 0.354769 0.101119
0.447587 0.22348 0.201123
0.447587 -0.091746 0.300962
0.447587 0.000709 0.313036
0.447587 -0.01928 -0.384566
0.470681 -0.589936 -0.423244
0.470681 0.306314 -0.371266
0.447587 0.201406 -0.323915
0.470681 -0.015642 0.127738
0.470681 -0.032052 0.184277
0.470681 0.234001 -0.279789
0.470681 -0.454249 0.063097
0.470681 0.139557 0.338522
0.470681 0.598295 -0.40514
0.447587 0.153084 -0.213205
0.447587 0.523538 -0.176007
0.447587 0.408958 -0.359546
0.447587 -0.634373 -0.176575
0.447587 -0.653326 0.191182
0.447587 0.090008 0.3198
0.447587 0.591303 -0.038951
0.470681 0.640353 0.100867
0.470681 -0.622135 -0.097318
0.447587 -0.327035 -0.089707
0.447587 -0.527289 -0.238522
0.470681 -0.241216 0.10356
0.470681 -0.062541 -0.222969
0.470681 -0.444628 0.203709
0.470681 -0.189328 -0.226972
0.470681 -0.661986 -0.338026
0.470681 -0.029214 -0.302184
0.447587 -0.45367 0.009397
0.447587 0.129809 -0.429933
0.447587 0.25959 0.129235
0.470681 0.247064 -0.177154
0.447587 0.067551 0.194326
0.447587 0.691023 0.038538
0.447587 -0.564048 -0.372861
0.447587 -0.210756 -0.052187
0.470681 0.027337 -0.412766
0.447587 0.291639 -0.317112
0.447587 -0.425109 0.129073
0.447587 -0.228092 -0.155402
0.447587 -0.375005 0.308935
0.447587 0.058899 -0.339821
0.470681 -0.429817 -0.047085
0.470681 0.656912 -0.05777
0.447587 0.34937 0.319171
0.470681 -0.189579 0.070064
0.470681 -0.354293 -0.287262
0.447587 0.472248 0.145254
0.447587 -0.463208 0.284572
0.447587 0.316172 0.275722
0.470681 -0.271347 0.335462
0.447587 0.660636 -0.198606
0.470681 -0.293504 0.23877
0.470681 -0.274654 -0.242509
0.447587 0.431211 0.329679
0.470681 -0.539581 0.049408
0.470681 0.193598 0.098986
0.470681 0.539104 0.120912
0.447587 0.583012 0.059852
0.470681 0.38533 -0.263289
0.470681 0.050209 0.060746
0.447587 0.5719 0.19015
0.470681 -0.50455 -0.079315
0.470681 0.417808 0.160789
0.470681 0.516132 -0.003274
0.447587 -0.646522 -0.226686
0.447587 -0.446866 -0.277632
0.470681 0.171752 -0.143175
0.447587 0.182585 -0.061954
0.470681 0.421434 -0.013846
0.447587 0.576937 -0.251463
0.447587 0.286249 -0.219043
0.464561 0.711004 0.139174
0.470681 0.614404 0.162085
0.447587 0.394205 0.071006
0.447587 -0.288336 0.076607
0.447587 -0.60123 0.162756
0.470681 0.031247 -0.098797
0.470681 0.445076 -0.069625
0.447587 0.23673 0.324451
0.470681 0.163695 0.178369
0.447587 0.492687 -0.084391
0.470681 -0.620841 0.065277
0.447587 -0.385062 -0.168069
0.470681 0.159384 0.045896
0.470681 0.338559 -0.123339
0.470681 0.376036 0.207656
0.447587 -0.071373 -0.281479
0.447587 0.584393 -0.167675
0.447587 0.568909 -0.351079
0.447587 0.667378 0.190456
0.447587 -0.466939 -0.330997
0.470681 -0.45625 -0.381868
0.470681 0.367354 -0.388969
0.447587 -0.17916 0.028171
0.470681 0.593693 -0.117144
0.470681 0.556175 0.28654
0.447587 -0.336641 -0.016028
0.470681 -0.564021 0.299901
0.470681 0.115586 0.12613
0.470681 -0.061867 -0.43171
0.447587 0.08928 -0.09283
0.470681 0.360545 0.041094
0.470681 0.640077 -0.249805
0.470681 -0.272137 -0.388586
0.447587 0.4392 0.075035
0.470681 -0.633856 0.353702
0.470681 -0.140924 -0.034737
0.470681 -0.129347 -0.169052
0.470681 -0.002538 0.262557
0.447587 -0.226196 0.288433
0.447587 0.622326 0.004052
0.470681 -0.195709 0.196836
0.447587 -0.320422 0.306534
0.447587 -0.097403 -0.238926
0.470681 0.087555 0.0053
0.447587 -0.402962 -0.249984
0.447587 0.445914 -0.38454
0.470681 0.502222 -0.047435
0.470681 0.550485 -0.280728
0.447587 0.074962 -0.193343
0.470681 0.031019 -0.161299
0.470681 -0.542282 -0.152609
0.447587 0.493045 0.199794
0.470681 0.310631 0.172013
0.447587 0.154415 0.226945
0.447587 0.174749 0.279628
0.447587 0.170341 0.005433
0.470681 0.087161 0.162316
0.470681 -0.51658 0.206913
0.470681 0.286001 -0.082836
0.470681 -0.238611 0.249468
0.470681 0.668236 0.234911
0.447587 0.156066 -0.392288
0.470681 0.034101 -0.311142
0.470681 -0.209815 -0.386257
0.447587 -0.221316 0.141647
0.470681 -0.369734 0.219439
0.447587 -0.412554 0.284595
0.447587 0.502723 0.268942
0.447587 -0.189974 -0.189343
0.447587 -0.473469 -0.196295
0.470681 -0.32979 -0.327578
0.447587 -0.515352 0.076634
0.470681 0.28749 -0.416506
0.447587 -0.211098 -0.423021
0.447587 0.297226 0.226671
0.447587 -0.388874 -0.390043
0.447587 -0.559555 0.356971
0.447587 -0.337765 -0.241455
0.470681 0.041566 -0.371418
0.447587 0.088206 0.274668
0.447587 -0.334269 0.155752
0.470681 0.004743 0.212855
0.470681 -0.110498 0.168779
0.470681 -0.075095 0.25464
