-0.368039 0.253228 -0.19355375842811115
-0.368039 0.231884 0.45126924157188886
-0.368039 0.269 0.1494302415718889
-0.335118 0.283913 0.3626972415718889
-0.35522 0.148634 0.6833732415718888
-0.336035 0.334716 0.5571632415718889
-0.368039 0.102021 -0.10580075842811112
-0.368039 0.306231 0.2857312415718889
-0.368039 0.191897 0.12982924157188888
-0.368039 0.294638 -0.1274767584281111
-0.335118 0.172955 0.05625824157188887
-0.368039 0.136146 -0.18553075842811115
-0.335118 0.037514 0.6307122415718889
-0.368039 0.268649 -0.03463675842811112
-0.335118 0.316406 0.1819272415718889
-0.3497 -0.016435 0.21649224157188887
-0.335118 0.25729 -0.08075375842811111
-0.335118 0.319342 0.23143024157188888
-0.335118 0.054644 0.2197562415718889
-0.368039 -0.003214 -0.18609175842811113
-0.335118 0.148549 0.4381432415718889
-0.335118 0.034521 0.3318732415718889
-0.368039 0.199484 0.4348052415718888
-0.368039 0.194666 0.08240424157188887
-0.335118 0.044528 0.2970012415718889
-0.368039 0.021479 0.5228142415718888
-0.336379 0.195185 0.6833732415718888
-0.368039 0.226807 0.6652482415718889
-0.368039 0.210202 -0.035650758428111134
-0.335118 0.265349 0.6333922415718889
-0.348072 0.334716 0.6174402415718889
-0.335118 -0.006667 0.5028902415718889
-0.335118 0.284712 0.019881241571888864
-0.368039 0.096409 0.02397624157188888
-0.368039 0.132598 0.5089662415718889
-0.335118 0.143278 0.5339782415718889
-0.335118 0.049608 -0.07054775842811112
-0.368039 0.041329 0.17844924157188888
-0.368039 0.328607 0.6455622415718889
-0.368039 0.167102 0.3599882415718889
-0.368039 0.287885 -0.1886797584281111
-0.368039 0.246491 0.5501142415718889
-0.368039 0.300137 0.4050792415718889
-0.368039 0.196327 0.3139392415718889
-0.335118 0.182319 0.21364724157188886
-0.368039 0.319405 0.042317241571888875
-0.368039 0.126869 0.3480542415718889
-0.335118 0.242464 -0.16483775842811113
-0.368039 0.056788 0.3833032415718889
-0.335118 0.271156 0.4122142415718889
-0.368039 0.01094 0.4446582415718888
-0.335118 0.177121 0.6002512415718889
-0.335118 0.072978 0.6776472415718888
-0.335118 0.157235 0.11192324157188888
-0.368039 -0.007229 0.2834782415718889
-0.335118 0.314714 0.45905224157188884
-0.338032 0.334716 0.4035542415718889
-0.368039 0.179801 0.5197722415718888
-0.335118 0.009587 0.06624324157188888
-0.368039 0.165875 0.1686062415718889
-0.335118 0.022505 0.5367112415718889
-0.335118 0.229255 0.47981524157188893
-0.368039 -0.01438 -0.062201758428111126
-0.368039 0.046599 -0.07192575842811114
-0.335118 0.204667 0.5467862415718889
-0.368039 0.115305 0.6347062415718889
-0.368039 0.083288 -0.16047675842811113
-0.335118 0.25149 0.27161024157188884
-0.368039 0.261253 -0.12442175842811112
-0.335118 0.144301 0.3082442415718889
-0.368039 0.334649 0.5741162415718889
-0.368039 0.273061 0.10732624157188889
-0.335118 0.230514 0.5225522415718888
-0.368039 0.115777 -0.04763675842811113
-0.368039 0.306208 0.5617162415718889
-0.368039 0.225606 0.08081024157188887
-0.368039 0.286503 0.2582012415718889
-0.34269 0.334716 -0.12796575842811111
-0.335118 -0.008855 0.19068724157188888
-0.346508 -0.016435 -0.020074758428111128
-0.335118 0.06375 -0.09913075842811112
-0.335118 0.191665 0.2550852415718889
-0.34731 -0.016435 0.3190582415718889
-0.335118 0.012459 0.3757552415718889
-0.368039 0.00577 0.05457824157188888
-0.335118 0.182463 0.48147724157188887
-0.335118 0.217983 -0.12005575842811114
-0.339286 0.155865 -0.1945037584281111
-0.368039 0.21405 0.5957032415718889
-0.368039 -0.007699 -0.1203767584281111
-0.368039 0.294776 0.16526524157188888
-0.368039 0.271936 0.44258124157188883
-0.335118 0.121203 0.25054524157188884
-0.335118 0.240714 -0.00978775842811111
-0.355364 0.017183 0.6833732415718888
-0.368039 0.304411 0.6278582415718889
-0.335118 0.318177 0.6747892415718888
-0.368039 0.191104 0.5494172415718889
-0.335118 0.070599 0.13734524157188888
-0.368039 0.099535 0.6106012415718889
-0.368039 0.331587 0.17007924157188886
-0.368039 0.151564 0.6578072415718889
-0.368039 0.279269 0.6005762415718888
-0.345331 0.115759 -0.1945037584281111
-0.368039 0.235935 0.1515662415718889
-0.368039 0.144545 -0.01898375842811112
-0.335118 0.176095 -0.005550758428111119
-0.335118 0.245306 0.6133302415718889
-0.335118 0.138848 0.6107162415718889
-0.342491 0.246797 0.6833732415718888
-0.368039 0.05733 -0.18536275842811115
-0.335118 0.086352 0.5895332415718889
-0.335118 0.330472 0.30335524157188887
-0.335118 0.11157 0.32649924157188887
-0.335118 0.266427 -0.15078675842811115
-0.368039 0.272788 0.5246562415718888
-0.368039 0.113663 0.42528924157188885
-0.335118 0.211875 0.10915024157188888
-0.368039 0.076594 0.4775792415718889
-0.335118 0.090358 0.2877962415718889
-0.335118 0.067692 -0.13901475842811115
-0.335118 0.321792 0.43248524157188883
-0.368039 0.022224 0.13366924157188886
-0.368039 0.258854 0.4687412415718889
-0.368039 0.030377 -0.032320758428111135
-0.335118 0.055851 0.40705024157188885
-0.335118 0.158743 -0.02671075842811113
-0.368039 0.063178 0.6587602415718888
-0.368039 0.273152 0.07180124157188887
-0.335118 0.008985 0.34123724157188884
-0.335118 0.288 -0.1726647584281111
-0.368039 0.127582 0.3115492415718889
-0.335118 0.28797 -0.03116675842811112
-0.361051 -0.016435 0.11002524157188888
-0.368039 -0.009241 0.48730924157188893
-0.368039 0.323962 0.4662672415718889
-0.368039 0.007904 -0.14249675842811113
-0.335118 0.084926 0.34762724157188885
-0.368039 0.131422 0.1515932415718889
-0.335118 0.29922 0.3024102415718889
-0.335118 0.179513 0.3415712415718889
-0.335118 0.27899 -0.11845875842811113
-0.368039 0.082979 0.11424624157188887
-0.368039 0.302965 -0.1666227584281111
-0.335118 0.234885 0.5698862415718888
-0.335118 0.162634 0.4608112415718889
-0.335118 0.106958 0.11102324157188888
-0.335118 0.185751 0.4235812415718889
-0.335118 0.056732 -0.04490775842811112
-0.368039 0.240322 0.4229202415718889
-0.335118 0.108849 -0.06454675842811111
-0.368039 0.049968 0.11001624157188888
-0.335118 -0.000222 0.5542832415718889
-0.335118 0.26384 0.2128222415718889
-0.368039 0.292157 0.03372924157188888
-0.335118 0.044157 -0.17672775842811114
-0.335118 0.251742 0.18261224157188888
-0.368039 0.127014 -0.12298175842811113
-0.368039 0.254697 0.3294492415718889
-0.368039 0.164018 0.3006142415718889
-0.349091 0.334716 0.21574624157188887
0.271649 0.320981 -0.16158275842811112
-0.113625 0.269399 -0.16158275842811112
0.073641 0.189834 -0.16158275842811112
-0.266475 0.041279 -0.1945037584281111
-0.273436 0.334716 -0.18342975842811113
0.000999 -0.010283 -0.1945037584281111
0.284816 0.123941 -0.16158275842811112
0.025107 0.333402 -0.16158275842811112
-0.085031 0.111284 -0.16158275842811112
0.277816 -0.016435 -0.1929727584281111
-0.144909 -0.016435 -0.19380375842811112
0.151828 0.29231 -0.1945037584281111
-0.215936 0.18574 -0.16158275842811112
0.099422 0.081477 -0.1945037584281111
0.213668 0.203975 -0.16158275842811112
-0.026222 0.20682 -0.1945037584281111
0.013873 0.111538 -0.16158275842811112
0.200599 0.09087 -0.1945037584281111
0.133121 -0.007029 -0.1945037584281111
-0.190078 0.081143 -0.16158275842811112
-0.178911 0.323527 -0.1945037584281111
-0.13497 0.178735 -0.1945037584281111
-0.277331 0.135773 -0.1945037584281111
-0.229438 0.266415 -0.16158275842811112
-0.055433 0.334716 -0.16516375842811112
0.052649 0.258673 -0.1945037584281111
0.141835 0.170279 -0.1945037584281111
0.20226 -0.016435 -0.18727575842811114
0.085934 0.324021 -0.1945037584281111
0.28954 0.051225 -0.16158275842811112
0.147211 0.230863 -0.16158275842811112
0.202462 0.334716 -0.17427375842811113
0.272766 0.182819 -0.1945037584281111
0.031362 0.050992 -0.1945037584281111
0.2145 0.266966 -0.1945037584281111
-0.168158 0.247895 -0.1945037584281111
-0.298378 -0.016435 -0.1835637584281111
-0.002827 0.268368 -0.16158275842811112
-0.121762 0.334716 -0.16555375842811113
-0.058149 0.062455 -0.1945037584281111
-0.137338 0.063112 -0.1945037584281111
0.06959 0.000182 -0.1945037584281111
0.164965 0.036073 -0.16158275842811112
0.103123 0.274361 -0.16158275842811112
0.315357 0.28776 -0.1945037584281111
-0.18109 0.138685 -0.1945037584281111
-0.188592 0.020226 -0.16158275842811112
0.215816 0.149351 -0.1945037584281111
-0.272026 0.239013 -0.1945037584281111
-0.075932 0.172809 -0.1945037584281111
-0.031889 0.129434 -0.1945037584281111
-0.318326 0.057613 -0.16158275842811112
-0.088228 -0.016435 -0.17808075842811114
-0.228941 0.124424 -0.16158275842811112
0.232808 0.044665 -0.1945037584281111
0.003257 0.172638 -0.16158275842811112
0.173956 0.132624 -0.16158275842811112
0.11164 0.137441 -0.16158275842811112
-0.012954 0.050061 -0.16158275842811112
-0.071536 0.23779 -0.1945037584281111
0.056694 0.120421 -0.1945037584281111
0.097337 0.22471 -0.1945037584281111
-0.272793 0.085291 -0.16158275842811112
-0.268072 0.196431 -0.16158275842811112
0.131052 0.334716 -0.16839575842811114
-0.109517 0.216677 -0.16158275842811112
-0.245839 -0.016435 -0.1885757584281111
-0.328124 0.317128 -0.1945037584281111
0.257289 0.238475 -0.1945037584281111
0.315862 0.181819 -0.16158275842811112
-0.037684 0.285584 -0.1945037584281111
0.029882 0.199741 -0.1945037584281111
-0.125233 0.026655 -0.16158275842811112
-0.14957 0.118342 -0.16158275842811112
0.235824 0.101299 -0.16158275842811112
-0.085939 0.292493 -0.1945037584281111
0.080956 0.050657 -0.16158275842811112
0.32235 0.101412 -0.1945037584281111
-0.232185 0.074436 -0.1945037584281111
0.172809 0.206156 -0.1945037584281111
0.014726 0.302115 -0.1945037584281111
0.277542 0.08943 -0.1945037584281111
0.169156 0.082239 -0.16158275842811112
0.280557 0.215793 -0.16158275842811112
-0.121137 0.134865 -0.1945037584281111
-0.031491 0.091284 -0.16158275842811112
-0.222583 0.333593 -0.1945037584281111
-0.059845 0.029842 -0.16158275842811112
0.057617 0.302976 -0.16158275842811112
-0.205877 0.224398 -0.1945037584281111
-0.050844 0.000911 -0.1945037584281111
0.015624 0.145757 -0.1945037584281111
0.193818 0.247131 -0.16158275842811112
0.059224 0.088294 -0.16158275842811112
-0.038068 0.242943 -0.16158275842811112
-0.159563 0.191751 -0.16158275842811112
-0.267785 0.285894 -0.16158275842811112
-0.156533 0.272819 -0.16158275842811112
-0.301387 0.07827 -0.1945037584281111
0.280493 0.02583 -0.1945037584281111
-0.088161 0.061108 -0.16158275842811112
0.061291 0.166658 -0.1945037584281111
-0.025697 0.333067 -0.1945037584281111
-0.185677 0.055918 -0.1945037584281111
0.121723 0.042749 -0.16158275842811112
0.070058 0.142947 -0.16158275842811112
0.168066 -0.016435 -0.16380175842811115
-0.037612 0.168 -0.16158275842811112
-0.201595 -0.00041 -0.1945037584281111
0.252139 0.131566 -0.1945037584281111
0.184086 0.301044 -0.16158275842811112
0.237398 0.201859 -0.1945037584281111
-0.190465 0.241254 -0.16158275842811112
0.315998 0.334716 -0.18271775842811114
0.172305 0.008949 -0.1945037584281111
-0.067515 0.194427 -0.16158275842811112
0.26528 0.004434 -0.16158275842811112
-0.309086 0.328271 -0.16158275842811112
-0.075095 0.260195 -0.16158275842811112
0.235417 0.005314 -0.1945037584281111
0.161631 0.187935 -0.16158275842811112
0.302132 0.250322 -0.16158275842811112
-0.237103 0.05382 -0.16158275842811112
0.108272 -0.012191 -0.16158275842811112
-0.114936 0.154441 -0.16158275842811112
-0.228631 0.033244 -0.1945037584281111
-0.195806 0.334051 -0.16158275842811112
-0.241958 0.332035 -0.16158275842811112
-0.128313 0.08012 -0.16158275842811112
0.23146 0.251659 -0.16158275842811112
0.172193 0.244001 -0.1945037584281111
-0.313141 0.215454 -0.1945037584281111
0.256977 0.309614 -0.1945037584281111
0.311772 -0.016435 -0.16693275842811114
-0.096384 0.334716 -0.19288175842811114
-0.29362 0.13052 -0.16158275842811112
-0.292721 0.169425 -0.1945037584281111
0.275881 0.270148 -0.1945037584281111
-0.229557 0.282664 -0.1945037584281111
0.105292 0.290426 -0.1945037584281111
0.136105 0.219417 -0.1945037584281111
-0.132431 0.09933 -0.1945037584281111
0.203162 0.304568 -0.1945037584281111
-0.097512 0.014578 -0.1945037584281111
0.137974 0.286534 -0.16158275842811112
-0.219383 0.113023 -0.1945037584281111
-0.125759 0.260827 -0.1945037584281111
-0.256134 0.101191 -0.1945037584281111
-0.254785 0.241241 -0.16158275842811112
0.3016 0.286867 -0.16158275842811112
-0.332288 0.090389 -0.16158275842811112
-0.270111 0.299266 -0.1945037584281111
0.155839 0.081026 -0.1945037584281111
0.037395 0.156741 -0.16158275842811112
0.099837 0.132415 -0.1945037584281111
-0.119525 0.308202 -0.1945037584281111
-0.126652 -0.00853 -0.16158275842811112
-0.014422 0.141521 -0.16158275842811112
0.035598 0.275589 -0.16158275842811112
-0.183922 0.12545 -0.16158275842811112
-0.277951 0.044335 -0.16158275842811112
-0.112617 0.227894 -0.1945037584281111
0.227385 -0.002568 -0.16158275842811112
-0.153953 0.225961 -0.16158275842811112
-0.28605 0.256188 -0.16158275842811112
0.098828 0.235278 -0.16158275842811112
0.040191 0.201417 -0.16158275842811112
-0.303697 0.252791 -0.1945037584281111
-0.100812 0.307548 -0.16158275842811112
-0.293334 0.019721 -0.1945037584281111
0.069951 0.288442 -0.1945037584281111
0.297174 0.226328 -0.1945037584281111
0.244575 0.13646 -0.16158275842811112
-0.175708 -0.016435 -0.1791817584281111
0.202284 0.106967 -0.16158275842811112
0.269066 0.093844 -0.16158275842811112
0.067556 0.334716 -0.16801175842811114
0.076664 0.044361 -0.1945037584281111
0.036864 0.055773 -0.16158275842811112
-0.298811 0.182693 -0.16158275842811112
0.086353 0.193007 -0.1945037584281111
-0.027551 0.076152 -0.1945037584281111
-0.309736 0.286483 -0.1945037584281111
-0.165326 0.320356 -0.16158275842811112
-0.226411 0.09113 -0.16158275842811112
0.27361 0.178513 -0.16158275842811112
0.130099 0.109905 -0.16158275842811112
-0.026483 0.210005 -0.16158275842811112
0.119674 0.209942 -0.16158275842811112
-0.311271 0.123804 -0.1945037584281111
-0.017213 0.297512 -0.16158275842811112
0.188797 0.121048 -0.1945037584281111
0.185711 0.162771 -0.16158275842811112
-0.168215 0.109064 -0.1945037584281111
0.281428 0.334716 -0.18893875842811111
-0.150175 0.033705 -0.1945037584281111
-0.169422 0.168524 -0.1945037584281111
0.313406 0.109758 -0.16158275842811112
0.297566 0.052774 -0.1945037584281111
0.105702 0.009204 -0.1945037584281111
0.102624 0.32223 -0.16158275842811112
0.049279 0.224476 -0.1945037584281111
-0.245001 0.131191 -0.1945037584281111
0.200402 0.230753 -0.1945037584281111
0.100567 0.174311 -0.16158275842811112
-0.182446 0.292649 -0.1945037584281111
0.029157 0.334716 -0.19228475842811113
0.243661 0.223441 -0.16158275842811112
0.172998 0.334716 -0.16591875842811113
0.104585 0.259876 -0.1945037584281111
0.015912 0.244377 -0.16158275842811112
-0.329778 0.088932 -0.1945037584281111
-0.198213 0.195073 -0.1945037584281111
-0.302719 0.096928 -0.16158275842811112
-0.314284 0.152605 -0.16158275842811112
0.290865 0.306661 -0.1945037584281111
0.02289 0.255882 -0.1945037584281111
-0.027809 -0.016435 -0.18666575842811114
-0.13698 0.208286 -0.1945037584281111
-0.261046 -0.016435 -0.1631787584281111
-0.227581 0.153994 -0.16158275842811112
0.01706 0.29866 -0.16158275842811112
0.137352 0.141059 -0.1945037584281111
-0.193287 0.263421 -0.1945037584281111
-0.209895 0.304627 -0.1945037584281111
0.136534 0.322466 -0.1945037584281111
-0.055926 0.107966 -0.16158275842811112
-0.239855 0.294298 -0.16158275842811112
-0.2146 0.214676 -0.16158275842811112
0.19006 0.062279 -0.16158275842811112
0.299989 0.004498 -0.1945037584281111
-0.005152 0.017666 -0.1945037584281111
-0.157702 0.090945 -0.16158275842811112
0.025744 0.078844 -0.1945037584281111
0.23063 0.334716 -0.17749175842811113
0.299794 0.254961 -0.1945037584281111
-0.064428 0.210772 -0.1945037584281111
-0.151808 0.14605 -0.16158275842811112
0.040402 0.119321 -0.16158275842811112
0.010647 0.219492 -0.1945037584281111
-0.265968 0.163459 -0.1945037584281111
0.325448 0.210079 -0.16158275842811112
-0.320883 -0.016435 -0.16819875842811113
-0.06344 0.159429 -0.16158275842811112
-0.231942 0.00617 -0.1945037584281111
0.133493 0.260014 -0.16158275842811112
-0.283605 0.109664 -0.1945037584281111
-0.070957 0.085676 -0.1945037584281111
-0.213447 0.138771 -0.1945037584281111
-0.147445 0.132961 -0.1945037584281111
0.040869 0.298933 -0.1945037584281111
-0.108796 0.122413 -0.16158275842811112
0.315742 0.071933 -0.1945037584281111
-0.004129 0.162723 -0.1945037584281111
0.131998 0.018982 -0.1945037584281111
0.051083 0.005512 0.21758124157188888
-0.208359 0.005512 0.49463124157188887
0.173337 0.013742 -0.10345875842811111
0.076133 0.005512 0.4978552415718889
-0.252238 0.005512 0.19870424157188887
-0.089209 0.013742 -0.04570175842811111
0.276161 0.013742 0.43558924157188883
-0.097243 0.005512 0.3378472415718889
0.169557 0.005512 0.08274824157188888
-0.308748 0.005512 0.3625482415718889
-0.257313 0.005512 0.03655624157188887
-0.068514 0.005512 0.5738282415718888
-0.088892 0.005512 0.11348824157188889
0.178037 0.013742 0.29884124157188885
0.044164 0.005512 0.003068241571888869
0.035176 0.013742 0.3606242415718889
0.316793 0.013742 -0.06431275842811113
-0.296413 0.013742 0.5814802415718888
0.237917 0.005512 0.18566024157188887
0.203547 0.013742 0.5717422415718889
-0.094194 0.005512 0.45399424157188883
0.151626 0.005512 0.4114082415718888
-0.214826 0.005512 -0.09883775842811113
-0.201659 0.013742 0.3053942415718889
0.028581 0.013742 0.11067724157188888
-0.073679 0.005512 0.23337524157188888
0.026593 0.013742 0.6187422415718888
0.232559 0.005512 -0.0011257584281111344
0.039074 0.013742 -0.09741675842811112
-0.198483 0.013742 0.6055882415718888
-0.18592 0.005512 0.13250724157188887
-0.176779 0.005512 0.39432924157188887
0.268398 0.005512 0.2885192415718889
-0.045258 0.005512 0.03506324157188888
0.128281 0.013742 -0.027909758428111137
-0.010323 0.013742 0.4971992415718889
0.155213 0.013742 0.21032324157188886
-0.042133 0.013742 -0.1238437584281111
-0.15725 0.013742 0.2193722415718889
-0.007723 0.005512 0.2870322415718889
0.108466 0.005512 0.5994332415718889
-0.259039 0.005512 0.42828124157188885
0.264491 0.005512 0.10839424157188887
0.077914 0.005512 0.2934042415718889
0.271117 0.013742 0.6249272415718888
0.097369 0.005512 0.15066224157188887
0.284792 0.013742 0.5245162415718889
-0.124984 0.005512 -0.11615775842811113
-0.026471 0.013742 0.4137592415718889
0.254752 0.013742 -0.11340475842811112
-0.304113 0.013742 -0.09084075842811112
0.169602 0.005512 0.5008812415718888
-0.180039 0.005512 0.020705241571888883
0.226401 0.005512 0.3603202415718889
0.093933 0.005512 0.06531424157188888
-0.129323 0.013742 0.5222942415718889
-0.035492 0.005512 0.16550724157188887
-0.255288 0.013742 -0.036982758428111134
0.065659 0.005512 0.4259822415718889
0.102611 0.013742 -0.13292175842811113
-0.114829 0.013742 0.04836424157188887
0.112763 0.005512 0.3541612415718889
-0.168447 0.013742 -0.04901475842811112
0.291778 0.013742 0.03883724157188888
-0.274271 0.013742 0.2791762415718889
-0.014894 0.005512 -0.06116575842811112
-0.270672 0.013742 0.13673224157188887
-0.003463 0.005512 0.5613252415718889
0.30124 0.005512 0.16203724157188887
-0.111851 0.013742 0.17343024157188888
-0.120431 0.013742 0.27840424157188887
-0.134866 0.013742 0.6143462415718889
-0.243561 0.005512 0.3663472415718889
0.171394 0.005512 0.14957924157188887
0.307098 0.013742 0.3421592415718889
0.174205 0.013742 0.01890824157188889
0.296185 0.013742 0.23348224157188888
-0.03419 0.005512 0.3543872415718889
-0.26188 0.013742 0.5321292415718889
-0.26976 0.013742 -0.14065175842811115
0.226301 0.013742 0.057290241571888875
-0.309718 0.013742 0.1875682415718889
0.237371 0.013742 0.47936024157188883
-0.115397 0.005512 0.39321324157188886
-0.21184 0.013742 0.2395492415718889
0.217079 0.005512 0.6441022415718889
0.205602 0.005512 -0.052015758428111125
0.060497 0.005512 0.5677002415718889
0.202968 0.013742 0.2482072415718889
-0.012207 0.013742 0.21551824157188887
-0.178265 0.013742 0.5489742415718889
0.150035 0.013742 0.5566072415718889
0.018176 0.005512 0.05673124157188887
-0.127849 0.013742 -0.005610758428111123
-0.147547 0.013742 0.09354724157188887
0.260163 0.013742 -0.04829875842811113
0.201967 0.013742 0.4298922415718889
-0.182356 0.013742 0.4472242415718889
-0.315398 0.005512 0.47490424157188893
-0.23037 0.005512 0.08281624157188888
-0.08135 0.005512 0.6416942415718889
0.036999 0.013742 -0.1504857584281111
-0.057346 0.005512 0.5199382415718888
-0.059665 0.005512 0.2935802415718889
0.135395 0.005512 0.25708224157188886
0.075366 0.005512 -0.037315758428111134
-0.265503 0.013742 0.48125724157188887
0.308045 0.005512 0.48005524157188884
0.169916 0.013742 0.6124442415718889
-0.041323 0.005512 -0.018545758428111125
-0.311369 0.013742 0.3134502415718889
0.108418 0.005512 -0.07401275842811111
-0.324337 0.005512 0.6226972415718889
0.304416 0.005512 -0.1327067584281111
-0.169536 0.005512 0.2694072415718889
0.252296 0.013742 0.5713262415718888
0.091709 0.005512 0.013001241571888866
0.218735 0.005512 0.5227932415718889
0.2139 0.013742 0.12968224157188887
0.294916 0.013742 -0.015806758428111134
0.198626 0.005512 -0.14281375842811114
-0.240681 0.013742 0.5842122415718889
0.023288 0.005512 0.4469812415718889
-0.168446 0.013742 -0.09742575842811113
-0.156697 0.013742 0.3525492415718889
-0.173796 0.005512 0.6493252415718889
0.03837 0.005512 0.26821524157188886
-0.307921 0.013742 0.5223882415718889
-0.143993 0.013742 0.47395124157188884
-0.296565 0.013742 0.060524241571888876
0.273205 0.013742 0.37412724157188887
0.114954 0.005512 0.5232872415718889
0.316733 0.013742 0.2920532415718889
0.182423 0.013742 0.3720492415718889
0.115293 0.005512 0.4739182415718889
-0.052164 0.013742 0.07957724157188888
-0.253949 0.005512 0.32226124157188885
-0.128296 0.005512 0.5667862415718888
0.2285 0.013742 0.31594124157188885
0.296456 0.005512 0.5682462415718889
0.038265 0.005512 0.1745742415718889
-0.013562 0.005512 0.12317624157188888
-0.259524 0.013742 -0.08909575842811113
-0.214414 0.013742 -0.05467375842811112
0.16515 0.013742 0.4548692415718889
0.15215 0.005512 -0.06555475842811112
-0.313133 0.013742 -0.14870875842811113
-0.004211 0.005512 0.004414241571888883
-0.316444 0.013742 0.14401124157188888
-0.201563 0.005512 0.35530724157188887
0.140524 0.013742 0.04611024157188888
-0.070869 0.013742 0.18901824157188887
-0.207193 0.005512 -0.013345758428111115
-0.048275 0.013742 0.47762024157188887
0.127401 0.005512 0.12069424157188888
0.113048 0.013742 0.20618024157188888
-0.079937 0.005512 -0.10715975842811112
0.073374 0.005512 0.3395782415718889
0.257225 0.005512 0.24660224157188887
-0.324655 0.005512 0.22583424157188886
0.02502 0.013742 0.3115562415718889
-0.015744 0.005512 -0.1598717584281111
-0.03685 0.013742 0.24982324157188887
-0.096665 0.013742 0.4942462415718889
-0.228641 0.013742 -0.15516475842811114
0.256292 0.013742 0.14778024157188888
-0.180639 0.005512 0.18668124157188887
0.138839 0.013742 0.3109002415718889
0.032008 0.005512 0.4006622415718889
0.055372 0.013742 0.07966824157188887
-0.046149 0.005512 0.6080592415718888
0.118584 0.013742 0.4338382415718889
0.320228 0.013742 0.07821024157188888
-0.270748 0.013742 0.23381024157188887
-0.142402 0.005512 0.43433524157188885
-0.119857 0.005512 -0.07599175842811112
-0.138992 0.005512 0.3171002415718889
-0.221737 0.013742 0.41494924157188884
0.062037 0.013742 0.03981224157188888
0.278072 0.005512 0.19513824157188886
-0.082748 0.013742 0.4148972415718889
0.039024 0.013742 -0.05115275842811112
-0.322355 0.005512 -0.014985758428111118
-0.289025 0.005512 0.012975241571888868
-0.00311 0.005512 0.3833502415718889
-0.140292 0.005512 0.13092424157188887
-0.306911 0.013742 0.4004492415718889
-0.202887 0.013742 0.05681124157188888
-0.236069 0.013742 0.27328224157188885
-0.074682 0.013742 0.3678052415718889
0.080069 0.013742 0.4604252415718889
-0.161017 0.005512 -0.13974575842811113
0.085093 0.005512 0.3932352415718889
0.126477 0.013742 0.08284324157188888
-0.294568 0.005512 0.44347324157188883
-0.094637 0.005512 0.6010172415718888
0.275887 0.013742 -0.08240675842811113
0.193679 0.005512 0.21299824157188887
-0.007023 0.013742 0.6028042415718888
0.192163 0.005512 -0.012439758428111125
-0.048945 0.013742 -0.07283075842811113
0.214492 0.005512 0.6057002415718888
-0.016137 0.013742 0.07347724157188888
0.079832 0.005512 0.5367562415718888
0.324282 0.005512 0.11865324157188888
-0.067223 0.013742 0.004564241571888866
0.18782 0.005512 0.05221824157188888
-0.264515 0.013742 0.08711924157188888
-0.086028 0.013742 0.5386392415718889
0.255308 0.005512 0.4086622415718889
-0.209446 0.013742 0.5285572415718889
-0.167985 0.013742 0.056195241571888876
-0.090042 0.013742 -0.15473975842811113
0.258328 0.005512 0.06779024157188887
-0.19885 0.005512 -0.13193775842811115
0.209909 0.013742 0.2853922415718889
0.2078 0.013742 -0.10109975842811111
-0.165363 0.013742 0.5809692415718889
-0.241351 0.005512 0.5057302415718888
-0.235245 0.005512 0.4670432415718889
0.018542 0.013742 -0.023632758428111134
0.275115 0.005512 0.33356224157188885
0.02623 0.013742 0.5846912415718889
-0.089346 0.013742 0.26235224157188886
-0.055587 0.013742 0.3262452415718889
0.098952 0.013742 0.3189052415718889
-0.00289 0.013742 0.3449882415718889
0.05689 0.005512 0.6309922415718888
-0.308942 0.013742 0.27993324157188887
0.161464 0.013742 -0.032339758428111126
0.297137 0.005512 0.6056822415718889
0.017313 0.013742 0.14991224157188887
0.124373 0.013742 0.3842842415718889
-0.055319 0.005512 0.3979252415718889
0.327633 0.005512 0.3670072415718889
0.008161 0.013742 -0.08368075842811112
-0.246933 0.013742 0.00611424157188889
-0.245761 0.013742 0.6331912415718889
0.019124 0.013742 0.4785292415718889
0.092304 0.013742 0.5669002415718889
-0.239796 0.005512 0.14426324157188888
-0.208125 0.013742 0.10526424157188888
-0.176311 0.013742 0.3266352415718889
0.023375 0.005512 0.23433424157188887
0.1407 0.005512 0.5979722415718889
0.056432 0.013742 -0.1247627584281111
0.170326 0.013742 0.2675942415718889
0.213218 0.005512 0.16522524157188886
-0.13579 0.013742 0.2431262415718889
0.077268 0.005512 0.23568024157188888
0.060823 0.005512 -0.07258675842811113
-0.009772 0.013742 0.1816492415718889
-0.059362 0.013742 0.43585324157188887
-0.272724 0.005512 0.35499824157188886
-0.166726 0.005512 0.15708424157188888
0.326991 0.013742 0.18336224157188888
0.014779 0.005512 0.5135002415718889
-0.235305 0.005512 0.5458972415718889
-0.207397 0.005512 0.2024152415718889
-0.072294 0.013742 0.13828924157188888
-0.263592 0.005512 0.39766524157188887
0.046611 0.013742 0.4926742415718889
0.203594 0.005512 0.45959624157188883
-0.013537 0.013742 0.6329472415718889
-0.118248 0.005512 0.08864724157188889
-0.160129 0.013742 0.5213402415718889
-0.022826 0.005512 0.3230502415718889
0.291 0.005512 0.2677242415718889
0.249515 0.013742 0.5075292415718888
-0.206227 0.005512 0.38668424157188885
0.292032 0.013742 0.3978012415718889
0.078908 0.013742 0.5939972415718888
0.049159 0.005512 0.13088124157188888
0.21467 0.005512 0.40405824157188885
-0.291811 0.013742 0.25498024157188887
-0.277477 0.013742 -0.017118758428111114
0.012747 0.005512 0.08685424157188888
-0.284854 0.013742 0.17142224157188887
-0.226636 0.013742 0.3292992415718889
-0.308331 0.013742 0.08738524157188887
0.195001 0.013742 0.09471024157188887
-0.28328 0.005512 0.5567862415718888
-0.097097 0.013742 0.21816624157188888
-0.021552 0.005512 -0.10503875842811114
0.000866 0.013742 0.4304762415718889
-0.209425 0.005512 0.4408002415718889
0.197681 0.005512 0.3487912415718889
0.235791 0.013742 0.11073524157188888
-0.265024 0.005512 0.5974112415718889
0.105308 0.005512 0.28434824157188887
0.210051 0.005512 0.03385424157188888
-0.211282 0.005512 0.14846224157188886
-0.032595 0.005512 0.19696224157188888
0.257253 0.005512 0.013011241571888876
-0.279269 0.005512 0.20808924157188888
0.168747 0.005512 0.5370422415718888
-0.062626 0.013742 -0.035140758428111124
0.06732 0.005512 0.36704424157188886
0.120169 0.013742 0.5630812415718889
0.148056 0.013742 -0.15984775842811114
0.242224 0.005512 0.5381052415718889
0.246733 0.005512 -0.13892775842811114
0.298 0.005512 0.3170202415718889
0.052841 0.013742 0.3092492415718889
-0.09944 0.005512 0.29484524157188885
-0.1801 0.013742 0.08124224157188888
0.025609 0.013742 0.02207224157188889
-0.289324 0.005512 -0.11275675842811114
0.103511 0.005512 -0.10120875842811114
0.131549 0.005512 0.18748924157188887
-0.043302 0.013742 0.22303324157188886
-0.011067 0.005512 0.2531852415718889
0.223317 0.005512 -0.1218997584281111
-0.114408 0.013742 0.12910824157188888
0.102138 0.013742 0.04070524157188887
0.172027 0.013742 0.18894424157188888
0.219369 0.013742 0.21644824157188888
0.137702 0.005512 0.2850302415718889
0.073688 0.013742 -0.005564758428111133
0.075636 0.013742 0.13666724157188886
0.078935 0.013742 0.20991724157188887
-0.23583 0.013742 0.3038112415718889
0.284111 0.005512 -0.05777475842811111
0.017811 0.013742 0.28366824157188886
-0.170474 0.013742 0.4792162415718889
-0.185122 0.013742 0.2366672415718889
-0.079689 0.005512 0.16503924157188887
0.230665 0.013742 -0.047075758428111125
-0.244 0.013742 0.23235724157188886
0.27524 0.013742 -0.1385557584281111
0.089127 0.013742 0.6386992415718888
-0.15011 0.005512 0.4088902415718889
-0.251033 0.005512 -0.06529575842811111
0.241975 0.005512 0.3818252415718889
-0.144279 0.013742 -0.06977775842811113
-0.122217 0.005512 0.5925642415718889
0.07994 0.013742 -0.14657575842811113
0.076101 0.013742 0.09603424157188888
-0.163685 0.013742 0.6264192415718889
0.013001 0.013742 -0.054541758428111126
0.253982 0.013742 0.3467222415718889
-0.18491 0.013742 0.5127852415718889
-0.154217 0.005512 0.3772722415718889
0.175234 0.005512 0.40011624157188885
-0.048514 0.005512 -0.09762475842811114
-0.226413 0.005512 0.04908624157188887
0.047621 0.005512 0.33543124157188886
-0.12333 0.013742 0.19683524157188886
-0.060303 0.005512 0.5490922415718889
0.008937 0.013742 -0.15914275842811113
0.255752 0.013742 0.31831624157188887
-0.034488 0.181811 0.7494582415718889
0.076391 0.183615 0.7240952415718889
0.02356 0.163524 0.7509702415718889
-0.003523 0.183116 0.7614582415718888
-0.064049 0.175505 0.7443342415718889
0.328732 0.266096 0.43360524157188884
0.328732 0.281488 0.5126502415718889
-0.431136 0.088652 -0.012025
0.424793 0.313195 0.116027
0.411182 0.183364 0.533261
0.401247 0.221643 0.50034
-0.433913 0.724273 0.5569053573671152
-0.354576 0.422644 0.5649893573671153
-0.394036 0.422503 0.5627503573671153
-0.431602 0.438079 0.5458993573671153
-0.411948 0.699589 0.5458993573671153
-0.378921 0.724273 0.5545373573671153
-0.435015 0.426553 0.5714563573671153
0.361696 0.511362 0.26893135736711526
0.340844 0.630999 -0.1928596426328847
0.354539 0.630999 -0.2372906426328847
0.361696 0.549527 0.3026783573671153
0.361696 0.595414 0.1472203573671153
0.352582 0.630999 -0.1591916426328847
0.361696 0.506648 0.30932935736711525
-0.363012 0.630999 -0.1494916426328847
-0.368039 0.617098 0.40337135736711527
-0.335118 0.63067 -0.2253476426328847
-0.335118 0.604426 0.46269135736711525
-0.336132 0.630999 0.36309035736711526
-0.367842 0.630999 -0.27361364263288473
-0.368039 0.623779 0.4588043573671153
-0.341055 0.630999 -0.29862064263288474
-0.35843 0.630999 0.3401423573671153
-0.342456 0.630999 0.30621535736711525
-0.364715 0.499317 0.44756835736711525
-0.368039 0.62204 -0.30219964263288474
-0.335907 0.630999 -0.1405946426328847
-0.368039 0.603971 0.3651533573671153
-0.356284 0.630999 0.43472935736711527
-0.357102 0.630999 -0.1898866426328847
-0.363279 -0.499267 -0.1011625638968768
-0.368039 -0.180573 0.34097443610312317
-0.368039 -0.400516 0.1572764361031232
-0.368039 -0.446183 -0.10917256389687682
-0.368039 -0.395036 -0.1073495638968768
-0.361593 -0.499267 0.14843643610312318
-0.368039 -0.425143 0.1861324361031232
0.361696 -0.43663 0.09096443610312319
0.347371 -0.148116 0.00134343610312318
0.361696 -0.487892 0.1389624361031232
0.361696 -0.177738 0.5026194361031232
0.361696 -0.22367 0.04007343610312317
0.352371 -0.148116 0.06891443610312317
0.361696 -0.17878 0.02472943610312317
0.361696 -0.21108 -0.007980563896876819
0.328775 -0.173289 0.03516143610312317
0.361696 -0.493674 0.4370044361031232
0.361696 -0.436818 0.12439043610312318
0.361696 -0.187437 0.07184243610312319
0.335513 -0.148116 0.04668343610312317
0.112427 -0.496325 -0.1148935638968768
0.154042 -0.499267 -0.08252356389687684
0.13941 -0.499267 -0.10843856389687681
0.178112 -0.46909 0.5054984361031232
-0.152351 -0.46909 0.2596324361031232
-0.225764 -0.47732 0.01498843610312317
-0.206977 -0.47732 0.04613543610312318
-0.18982 -0.46909 0.006818436103123188
-0.165377 -0.46909 0.060804436103123166
0.361696 -0.014347 0.3524282415718889
0.361696 0.072347 0.47918324157188885
0.331305 0.334716 0.5331852415718888
0.361696 0.010551 0.3042112415718889
0.361696 0.263356 0.23796924157188887
0.361696 0.033958 -0.14409175842811114
0.361696 0.302446 0.4386952415718889
0.361696 0.237657 0.4332822415718889
0.361696 0.039887 0.4888482415718889
0.361696 0.263429 0.3697572415718889
0.361696 0.235738 0.25397424157188886
0.328775 0.325132 0.5046862415718889
-0.368039 0.157753 0.13749124157188888
-0.363738 0.334716 0.42607724157188887
-0.3562 -0.016435 0.3994042415718889
-0.368039 0.269529 0.38881524157188885
-0.368039 0.328701 -0.1018077584281111
-0.368039 0.228732 0.0046162415718888905
-0.368039 0.331276 0.5430352415718889
-0.365963 0.334716 0.38638324157188886
-0.368039 0.053308 0.3359032415718889
-0.368039 0.104612 0.15485524157188887
-0.35842 0.334716 0.5142792415718889
-0.368039 0.073889 0.15883024157188888
-0.368039 0.311623 0.5253062415718889
0.294353 0.699583 0.18175
0.293112 0.679529 -0.18707
0.293112 0.680913 0.381771
0.293863 0.699583 0.003466
0.309376 0.677636 -0.326807
0.405337 0.677636 -0.018543
0.379799 0.699583 -0.42477
0.349548 0.699583 0.092247
0.293112 0.697918 -0.08766
0.367257 0.699583 0.311449
0.372064 0.677636 -0.149429
0.293112 0.687636 -0.406857
0.351362 0.699583 0.431749
0.293112 0.689599 0.275382
0.370694 0.699583 0.23473
0.326238 0.677636 -0.255383
0.378508 0.677636 -0.344051
0.352291 0.677636 0.02373
0.374306 0.677636 -0.213404
0.419703 0.677636 0.437375
0.336128 0.699583 -0.042142
0.293112 0.685064 0.44515
0.293112 0.691516 0.063895
0.395372 0.699583 0.172655
0.40752 0.677636 0.105023
0.420105 0.677636 -0.467168
0.400787 0.699583 -0.086448
0.394233 0.677636 0.372234
0.365573 0.699583 -0.289323
0.343067 0.677636 -0.102071
0.311255 0.677636 0.323767
0.327426 0.699583 0.13901
0.412599 0.699583 -0.172155
0.344236 0.699583 -0.369761
0.415623 0.699583 0.307955
0.390402 0.699583 0.042642
0.345732 0.677636 0.195914
0.335458 0.699583 -0.442713
0.3385 0.677636 0.372359
0.369381 0.677636 0.130669
0.334476 0.699583 -0.206883
0.319463 0.677636 0.239917
0.384685 0.677636 -0.25543
0.367033 0.699583 -0.012796
0.346914 0.677636 -0.406024
0.298266 0.699583 -0.366813
0.330755 0.677636 0.485128
0.306193 0.699583 0.103935
0.293669 0.699583 -0.264622
0.348439 0.699583 0.275889
0.377823 0.699583 0.461218
0.299617 0.699583 -0.466353
0.322045 0.677636 -0.160272
0.331624 0.677636 0.057098
0.293112 0.685401 -0.12483
0.414809 0.677636 -0.322265
0.364534 0.699583 0.391328
0.315577 0.699583 0.416902
0.405825 0.699583 -0.214875
0.303354 0.677636 -0.056882
0.367001 0.699583 -0.184098
0.412897 0.699583 0.396917
0.381589 0.699583 -0.373875
0.381268 0.699583 -0.117433
0.312828 0.699583 0.034137
0.385252 0.699583 -0.043527
0.37494 0.677636 0.080816
0.386971 0.699583 0.340854
0.400896 0.699583 0.273048
0.298634 0.677636 -0.291294
0.377824 0.677636 0.286981
0.404248 0.699583 0.007285
0.379053 0.677636 0.196359
0.293468 0.677636 -0.025263
0.422881 0.699583 0.146208
0.365319 0.677636 -0.313833
0.318234 0.677636 0.176899
0.313963 0.699583 -0.232319
0.319439 0.699583 -0.112127
0.396146 0.699583 0.434287
0.394088 0.677636 0.31739
0.424707 0.699583 -0.425788
0.374014 0.699583 -0.459658
0.410471 0.677636 0.20231
0.360297 0.699583 0.357148
0.337977 0.677636 -0.020287
0.316606 0.677636 0.084723
0.342092 0.699583 -0.072305
0.329298 0.677636 -0.349846
0.392766 0.677636 0.402963
0.418646 0.677636 0.170964
0.391037 0.677636 0.151681
0.317377 0.699583 -0.393575
0.304286 0.699583 -0.43666
0.413215 0.699583 -0.054385
0.421296 0.699583 0.084624
0.405555 0.699583 0.242595
0.38739 0.699583 0.123363
0.341959 0.699583 0.46935
0.293112 0.678063 0.034345
0.369148 0.677636 0.052233
0.364461 0.677636 0.410183
0.399227 0.677636 -0.297963
0.406539 0.699583 -0.143968
0.293112 0.688213 -0.21449
0.338541 0.677636 0.332758
0.41006 0.699583 0.357653
0.383914 0.677636 -0.177885
0.343893 0.677636 -0.233224
0.293112 0.689658 0.355137
0.368131 0.699583 -0.398272
0.318235 0.699583 0.269102
0.310372 0.699583 -0.024958
0.417663 0.699583 0.119019
0.311702 0.677636 -0.376844
0.334736 0.677636 -0.190165
0.298761 0.699583 0.300448
0.366175 0.677636 0.37234
0.373596 0.699583 -0.243652
0.339138 0.699583 -0.263567
0.341039 0.699583 0.013457
0.387742 0.699583 -0.274614
0.326677 0.677636 -0.12492
0.327239 0.677636 0.108681
0.327289 0.699583 0.442082
0.364414 0.677636 0.247465
0.344982 0.699583 -0.117655
0.402396 0.677636 0.345713
0.317017 0.677636 0.391438
-0.302879 0.699583 -0.235109
-0.299455 0.678623 0.307995
-0.299455 0.69924 0.114931
-0.299455 0.694128 -0.082418
-0.33147 0.677636 0.436438
-0.312729 0.699583 -0.405927
-0.379074 0.699583 0.161226
-0.299455 0.698412 0.218236
-0.374879 0.677636 0.260673
-0.323071 0.699583 -0.321088
-0.415134 0.677636 -0.094063
-0.377198 0.699583 0.070098
-0.37743 0.677636 -0.262562
-0.396813 0.677636 -0.374621
-0.355354 0.699583 -0.019194
-0.390902 0.699583 -0.453563
-0.363334 0.699583 -0.182774
-0.313541 0.699583 0.038111
-0.299455 0.683845 -0.16564
-0.36932 0.699583 0.324759
-0.311249 0.699583 0.365729
-0.344545 0.677636 -0.123478
-0.388716 0.699583 0.432834
-0.321566 0.699583 -0.466795
-0.410543 0.677636 -0.318362
-0.299455 0.693922 -0.014989
-0.42585 0.677636 -0.146444
-0.359097 0.699583 -0.07776
-0.390556 0.699583 0.372392
-0.360452 0.699583 0.47663
-0.330992 0.677636 0.18429
-0.302767 0.677636 -0.362261
-0.348431 0.699583 0.117953
-0.348832 0.677636 0.387474
-0.424573 0.699583 0.002194
-0.386164 0.699583 -0.125486
-0.299455 0.689723 0.26353
-0.396984 0.677636 0.125658
-0.377159 0.699583 -0.33927
-0.299455 0.695988 0.462045
-0.327781 0.699583 -0.276796
-0.400366 0.677636 -0.026963
-0.35392 0.677636 -0.375284
-0.362374 0.699583 0.203213
-0.337998 0.677636 0.281885
-0.384652 0.677636 -0.417893
-0.35755 0.677636 -0.469235
-0.338478 0.677636 -0.234805
-0.420525 0.699583 0.151643
-0.403319 0.699583 -0.203941
-0.326748 0.699583 -0.0479
-0.350748 0.699583 -0.416028
-0.316394 0.677636 -0.199915
-0.415623 0.677636 0.449116
-0.417634 0.699583 0.407667
-0.400868 0.699583 0.2782
-0.422975 0.699583 -0.055142
-0.403914 0.677636 0.178623
-0.324348 0.677636 0.136337
-0.374591 0.677636 -0.21327
-0.322346 0.677636 0.009521
-0.327775 0.677636 -0.433078
-0.385054 0.677636 0.399678
-0.347452 0.677636 -0.334295
-0.313435 0.699583 0.400992
-0.299455 0.697227 0.151983
-0.395467 0.699583 -0.241865
-0.344068 0.677636 -0.298108
-0.325689 0.677636 0.061264
-0.405926 0.677636 -0.284651
-0.420913 0.699583 0.096919
-0.38904 0.699583 -0.054555
-0.421305 0.699583 0.035639
-0.36034 0.699583 0.416641
-0.419959 0.699583 -0.26465
-0.343957 0.677636 -0.169266
-0.371108 0.677636 0.448343
-0.355393 0.699583 -0.144255
-0.299455 0.679613 0.434532
-0.325638 0.677636 0.104701
-0.313293 0.677636 -0.128169
-0.367694 0.677636 0.106051
-0.326483 0.677636 -0.025491
-0.335597 0.677636 0.312893
-0.367779 0.677636 0.18014
-0.361057 0.677636 0.232902
-0.305247 0.677636 -0.051463
-0.398867 0.699583 0.315689
-0.355793 0.677636 0.341528
-0.322391 0.677636 -0.386676
-0.311469 0.677636 0.237965
-0.324632 0.677636 -0.088011
-0.300978 0.677636 0.189557
-0.378854 0.677636 -0.00542
-0.409056 0.699583 -0.357737
-0.348252 0.699583 0.021289
-0.39436 0.699583 0.461877
-0.333383 0.699583 -0.189758
-0.427739 0.699583 -0.186234
-0.324847 0.699583 0.252067
-0.336966 0.699583 0.151096
-0.321784 0.699583 -0.364492
-0.38672 0.699583 -0.390436
-0.376342 0.677636 -0.109718
-0.351664 0.699583 0.449519
-0.344554 0.677636 -0.206964
-0.397167 0.699583 -0.096095
-0.381591 0.677636 0.31045
-0.404951 0.677636 0.420201
-0.404743 0.677636 -0.442555
-0.350758 0.699583 0.303585
-0.350482 0.699583 0.269985
-0.321094 0.699583 0.197236
-0.42808 0.677636 0.369665
-0.325293 0.699583 -0.008433
-0.393542 0.699583 0.252322
-0.328631 0.699583 -0.126215
-0.418638 0.677636 -0.198634
-0.299455 0.693304 -0.310296
-0.404313 0.677636 -0.161548
-0.372295 0.677636 -0.393957
-0.334417 0.699583 0.42245
-0.369402 0.699583 -0.370924
0.297437 0.4149 0.50034
-0.120996 0.418808 0.50034
-0.281347 0.381353 0.506954
-0.166983 0.383215 0.50034
-0.335629 0.397892 0.50034
-0.386346 0.381353 0.517671
0.334842 0.381353 0.516056
0.273035 0.381353 0.523898
-0.220912 0.397666 0.50034
-0.16357 0.441464 0.50034
-0.183487 0.410329 0.533261
-0.359864 0.446343 0.50034
-0.383732 0.415546 0.50034
-0.271706 0.417897 0.50034
-0.346813 0.381353 0.53224
0.377314 0.381353 0.500625
-0.247213 0.381353 0.50726
-0.211108 0.395527 0.533261
0.305847 0.385912 0.50034
-0.376145 0.43953 0.533261
-0.319673 0.381353 0.518672
-0.11457 0.390873 0.50034
-0.16664 0.389808 0.533261
-0.340761 0.427966 0.50034
0.24581 0.381353 0.514829
-0.448015 -0.040027 -0.520191
-0.453083 0.256549 0.340838
-0.453083 -0.178449 0.024317
-0.453083 0.730375 0.218649
-0.431536 0.376872 -0.520191
-0.453083 -0.367591 -0.312631
-0.453083 0.721067 -0.415025
-0.453083 0.298605 0.038962
-0.453083 -0.106339 0.286593
-0.438047 0.732503 -0.036258
-0.453083 -0.468194 0.363385
-0.453083 0.312123 -0.288944
-0.453083 -0.082252 -0.201634
-0.447734 -0.483173 -0.520191
-0.453083 0.731928 0.454551
-0.453083 -0.526132 0.125111
-0.431136 0.102841 0.156349
-0.453083 -0.31372 0.198516
-0.438137 -0.264693 -0.520191
-0.453083 0.11349 -0.37304
-0.453083 0.507124 -0.363985
-0.453083 0.012783 -0.020738
-0.453083 -0.148275 -0.370036
-0.453083 -0.508221 -0.176967
-0.453083 0.467232 0.164617
-0.453083 0.469844 -0.018913
-0.431136 -0.000971 0.410673
-0.431136 0.416061 0.424911
-0.453083 0.645043 -0.267609
-0.453083 -0.345056 -0.138021
-0.453083 0.580919 0.39937
-0.453083 0.58832 -0.50711
-0.453083 0.621917 0.105573
-0.431136 -0.581526 0.460825
-0.453083 -0.402144 0.041028
-0.453083 -0.038722 0.118201
-0.453083 0.250245 -0.099603
-0.453083 -0.222213 -0.246183
-0.453083 -0.1982 0.397158
-0.453083 0.072013 0.292885
-0.453083 0.582475 0.251577
-0.453083 0.240219 0.172094
-0.453083 0.175642 -0.240012
-0.453083 0.419082 -0.188049
-0.453083 -0.335838 0.333228
-0.453083 0.592105 -0.077386
-0.453083 0.116062 -0.111071
-0.453083 0.038173 -0.258402
-0.453083 0.401904 0.276921
-0.453083 -0.196725 -0.11535
-0.433183 0.732503 -0.177189
-0.453083 -0.011844 -0.3956
-0.453083 -0.493836 -0.046049
-0.453083 0.144226 0.448156
-0.453083 -0.186032 0.175017
-0.453083 0.361015 -0.401272
-0.431136 0.685955 0.342025
-0.453083 -0.475899 -0.384333
-0.453083 -0.429396 0.238837
-0.431136 -0.374077 0.454564
-0.453083 0.177335 0.067553
-0.452599 0.113813 -0.520191
-0.453083 -0.366607 -0.440649
-0.453083 -0.228646 0.286461
-0.431136 0.363827 -0.056955
-0.431136 -0.083215 -0.078232
-0.431136 0.228851 -0.368994
-0.444253 0.732503 0.105588
-0.431188 0.69873 -0.520191
-0.453083 -0.257574 -0.36871
-0.453083 0.315377 0.458442
-0.453083 -0.01089 0.223108
-0.431136 0.483262 -0.495252
-0.431136 0.369799 0.12432
-0.431136 0.423448 -0.291657
-0.453083 0.550539 -0.211582
-0.453083 -0.298576 0.025921
-0.453083 -0.475564 -0.279854
-0.431136 0.526392 0.07447
-0.431436 0.732503 -0.31363
-0.431136 0.158496 0.344366
-0.431136 -0.10704 0.434803
-0.431136 -0.561189 0.333234
-0.431136 -0.578215 -0.24311
-0.453083 0.311196 -0.176131
-0.453083 0.019163 -0.125156
-0.453083 0.111322 -0.005527
-0.453083 0.486636 0.362517
-0.431136 0.312068 0.230997
-0.431136 0.652381 0.013655
-0.431136 -0.385068 -0.223023
-0.453083 0.627779 -0.404979
-0.431136 -0.087755 -0.292579
-0.453083 0.478349 -0.11189
-0.431136 -0.407572 -0.072374
-0.431136 -0.254574 0.103814
-0.431136 0.169548 0.226828
-0.453083 -0.087395 0.018054
-0.453083 0.277124 -0.442852
-0.453083 -0.559854 0.216339
-0.453083 -0.382832 0.140214
-0.431136 0.232145 0.424854
-0.453083 0.633367 -0.162855
-0.431136 -0.287725 0.432923
-0.453083 -0.283027 -0.074546
-0.453083 0.060758 0.08176
-0.453083 -0.567236 0.004234
-0.431136 -0.184591 0.48395
-0.431136 -0.123305 0.110206
-0.431136 0.404044 0.034274
-0.431136 0.488803 0.268029
-0.453083 -0.471634 0.448329
-0.453083 -0.307124 -0.249767
-0.452714 -0.396117 -0.520191
-0.453083 0.52458 0.462423
-0.453083 0.06426 -0.441446
-0.453083 -0.033505 0.328836
-0.453083 0.567886 -0.305902
-0.453083 0.368033 0.35279
-0.431136 0.092418 -0.200423
-0.453083 0.645476 0.184102
-0.453083 -0.493645 0.040298
-0.431136 0.439285 -0.410803
-0.431136 -0.525082 -0.451988
-0.453083 0.537655 -0.43874
-0.431136 -0.08264 -0.427374
-0.431136 0.242749 -0.022622
-0.431136 -0.159251 -0.199274
-0.453083 -0.215182 -0.436548
-0.431136 -0.43381 -0.157866
-0.431136 -0.262587 -0.154097
-0.431136 0.22766 -0.172362
-0.441685 0.279172 -0.520191
-0.431136 0.400841 0.19931
-0.453083 0.611489 0.324019
-0.453083 0.081009 0.369149
-0.431136 0.17973 -0.07463
-0.431136 -0.448348 0.10726
-0.453083 -0.07904 0.188326
-0.431136 0.649334 0.425587
-0.453083 0.118653 -0.290434
-0.453083 -0.123586 0.360412
-0.444533 0.035515 -0.520191
-0.431136 0.020034 -0.331016
-0.453083 0.195126 -0.443797
-0.431136 -0.168454 -0.049663
-0.453083 0.235713 0.253627
-0.431136 0.296466 0.110582
-0.453083 0.443515 0.093577
-0.453083 -0.488188 0.284546
-0.431136 -0.327732 0.091009
-0.431136 -0.580234 0.079333
-0.453083 -0.532473 0.406892
-0.431136 -0.196859 -0.311484
-0.453083 0.479254 -0.249757
-0.431136 -0.42235 0.311454
-0.431136 0.580412 0.02604
-0.453083 -0.541642 -0.308359
-0.453083 0.29807 -0.358939
-0.431136 -0.495931 0.195337
-0.431136 0.178337 0.145683
-0.431136 0.37055 -0.141961
-0.431136 0.193134 -0.304598
-0.453083 -0.008359 0.046286
-0.453083 0.184058 -0.518485
-0.431136 0.311205 0.391896
-0.431136 0.074447 0.438254
-0.453083 -0.290354 -0.429789
-0.431136 0.534077 -0.046761
-0.431136 -0.148776 0.228783
-0.431136 -0.338023 0.259003
-0.453083 0.542122 0.322173
-0.453083 -0.014025 -0.208321
-0.431136 0.551789 -0.128127
-0.431136 0.361909 -0.218103
-0.431136 -0.402934 -0.388011
-0.431136 -0.11358 -0.146091
-0.431136 0.366699 -0.327973
-0.453083 0.636285 -0.338173
-0.453083 -0.527552 0.494562
-0.453083 0.7101 0.040091
-0.431136 0.065889 -0.055478
-0.453083 0.090443 0.218437
-0.431136 -0.17606 0.321367
-0.453083 0.139472 0.284551
-0.453083 0.161753 -0.175344
-0.453083 -0.367541 0.392566
-0.453083 0.715873 0.283015
-0.431136 0.276144 -0.2281
-0.453083 -0.152692 -0.26798
-0.453083 -0.3405 -0.043064
-0.431136 -0.2611 0.230234
-0.453083 0.314448 -0.11066
-0.453083 -0.430952 -0.333555
-0.453083 0.042535 0.166448
-0.431136 0.700129 -0.234126
-0.431136 -0.378713 0.201025
-0.431136 0.423637 -0.081071
-0.431136 0.239828 0.050415
-0.453083 -0.272914 0.374944
-0.431136 -0.060746 0.389139
-0.431136 0.307665 -0.019663
-0.453083 -0.195666 0.097402
-0.431136 0.596286 0.459387
-0.440344 0.732503 -0.11166
-0.453083 -0.047724 0.45217
-0.431136 0.118387 0.093674
-0.453083 0.320299 0.289053
-0.453083 -0.021815 -0.274942
-0.453083 0.173393 -0.009262
-0.431136 0.019868 0.350764
-0.453083 -0.544574 -0.518101
-0.453083 -0.265938 -0.307629
-0.453083 0.32024 0.16302
-0.431136 0.670578 0.235882
-0.453083 -0.244155 -0.002412
-0.453083 -0.435641 0.177875
-0.431136 0.060271 0.019887
-0.453083 0.716845 0.389847
-0.453083 -0.459599 -0.221067
-0.453083 0.172856 -0.360691
-0.453083 -0.580753 0.159473
-0.453083 -0.211054 -0.177394
-0.453083 0.409412 -0.024055
-0.453083 0.431438 0.338357
-0.453083 0.649251 -0.493976
-0.453083 -0.266805 0.161213
-0.431136 -0.424125 -0.009887
-0.431136 -0.340188 -0.360739
-0.453083 0.562518 0.11639
-0.431136 -0.418312 0.415131
-0.453083 -0.023706 -0.08427
-0.453083 -0.337896 -0.51012
-0.431136 -0.055609 0.254148
-0.453083 0.253542 -0.286549
-0.431136 -0.226692 -0.054821
-0.453083 0.503018 -0.303059
-0.453083 -0.471325 -0.442471
-0.453083 -0.428859 0.491019
-0.431136 -0.583564 0.279641
-0.453083 -0.563179 -0.053546
-0.453083 -0.464311 -0.095869
-0.431136 0.131353 -0.428415
-0.453083 0.420817 -0.478757
-0.431136 -0.047613 -0.161077
-0.431136 0.034534 0.255149
-0.431136 0.649837 -0.046682
-0.431136 -0.039241 -0.028687
-0.453083 0.456208 -0.338934
