0.324916 -0.001439 0.101568
-0.405906 0.017782 0.082191
0.276499 -0.001439 0.068223
-0.203114 -0.001439 0.065896
-0.187351 0.017782 -0.19851
0.269778 0.017782 -0.187188
-0.194162 -0.001439 -0.026374
0.171254 0.017782 -0.173864
0.399663 -0.001439 0.185296
-0.110883 -0.001439 -0.106834
-0.229367 -0.001439 -0.011867
0.391557 -0.001439 0.067594
0.305332 0.017782 0.009249
-0.376569 -0.001439 -0.005469
0.082025 -0.001439 -0.164255
-0.105577 -0.001439 0.135781
-0.031129 0.017782 0.078963
0.112669 0.017782 0.112094
-0.330923 0.017782 -0.052513
-0.049303 0.017782 -0.190675
-0.155721 -0.001439 -0.130122
-0.289584 -0.001439 -0.11795
-0.212955 0.017782 -0.196006
-0.201254 -0.001439 0.008373
-0.02962 0.017782 0.158592
0.191968 -0.001439 0.004313
0.109992 -0.001439 -0.093721
-0.337354 0.017782 0.10935
0.05969 0.017782 0.006084
0.303234 -0.001439 -0.065716
0.237975 0.017782 0.082943
-0.284873 0.017782 0.099034
-0.269547 -0.001439 0.014313
0.167032 -0.001439 -0.02608
0.027676 -0.001439 -0.083155
0.212678 -0.001439 0.049656
0.133652 0.017782 -0.053017
0.332159 0.017782 0.008968
0.170521 0.017782 0.185163
-0.268215 -0.001439 0.06852
0.095824 -0.001439 0.175072
0.236296 -0.001439 -0.072574
0.295444 0.017782 -0.133485
0.29335 -0.001439 0.193707
-0.022712 -0.001439 -0.208758
0.109968 0.017782 0.163062
0.232819 0.017782 -0.117482
-0.306736 -0.000969 -0.212018
-0.214026 -0.001439 -0.091727
-0.327165 0.017782 0.082281
-0.021132 -0.001439 -0.133602
-0.161668 0.017782 -0.110184
0.459898 0.00744 -0.07474
-0.16311 0.017782 0.043621
-0.429239 0.017782 0.133135
0.414274 -0.001439 -0.158727
-0.07 0.017782 0.085085
0.061297 0.017782 -0.148986
0.108294 0.017782 0.189137
-0.33643 -0.001439 0.143972
-0.376063 0.017782 -0.031321
0.142526 0.017782 -0.179161
-0.419653 0.017782 0.172219
0.258335 -0.001439 0.139237
-0.254694 0.017782 0.104368
0.437687 -0.001439 0.130902
0.039568 0.017782 -0.095672
-0.198201 0.017782 0.096373
0.412204 -0.001439 -0.023191
0.451067 -0.001439 0.002138
-0.0067 0.017782 -0.050054
0.334098 0.017782 -0.028375
0.240942 0.017782 -0.211716
0.140555 0.017782 -0.103812
-0.08734 -0.001439 -0.193713
-0.156917 -0.001439 0.029642
0.366527 -0.001439 0.201298
-0.062122 -0.001439 -0.072138
0.141425 -0.001439 -0.023813
0.087118 -0.001439 -0.015181
0.022526 -0.001439 0.180958
0.448256 0.000103 -0.212018
0.357621 -0.001439 -0.106197
0.238903 0.017782 -0.09267
-0.326267 0.017782 0.180177
-0.292006 0.017782 0.146584
-0.012315 -0.001439 0.187736
0.397578 0.017782 -0.193918
-0.031698 0.017782 -0.169568
-0.143085 -0.001439 -0.080262
-0.284497 0.017782 0.064057
0.110106 0.017782 -0.202301
0.152983 -0.001439 0.018641
-0.238483 0.017782 -0.06681
-0.305531 0.017782 0.032377
0.36234 0.017782 -0.027487
-0.070472 0.017782 -0.156833
0.372416 0.017782 -0.144995
-0.38134 0.017782 0.167187
-0.227102 0.017782 -0.173178
-0.068696 0.017782 0.16111
-0.396545 -0.001439 0.164748
0.331681 0.017782 -0.172885
0.076962 0.017782 0.058534
-0.393956 -0.001439 0.134237
-0.375417 0.017782 -0.183167
-0.184999 -0.001439 -0.084779
0.364556 -0.001439 -0.065941
-0.260056 -0.001439 0.167486
-0.098108 -0.001439 0.006771
-0.108112 0.017782 -0.014285
0.041042 0.017782 0.070368
0.195144 0.017782 0.048879
0.051129 -0.001439 -0.201295
-0.414718 -0.001439 0.005434
-0.377683 -0.001439 0.058487
-0.085173 -0.001439 -0.141472
0.316692 0.017782 0.073162
0.254566 -0.001439 0.197702
0.007081 0.017782 0.142192
0.286251 0.017782 0.155139
-0.244489 0.017782 -0.123975
0.311876 0.005644 -0.212018
0.171712 -0.001439 0.083257
-0.428262 -0.001439 -0.179858
-0.375529 -0.001439 -0.142266
-0.265625 0.009257 0.20845
0.081689 0.017782 -0.07437
-0.200546 -0.001439 0.031277
-0.010027 -0.001439 0.054115
-0.096327 0.017782 0.162765
-0.049361 -0.001439 0.00301
-0.36381 -0.001439 -0.025805
0.394837 0.017782 -0.080736
0.348537 -0.001439 -0.196683
0.100609 -0.001439 0.20841
-0.019611 -0.001439 0.117301
-0.362392 -0.001439 0.177545
0.266949 -0.001439 -0.099201
0.13393 -0.001439 -0.130866
-0.03563 -0.001439 -0.032058
0.118812 -0.001439 0.078721
0.442104 0.017782 0.082781
0.459898 0.00054 0.184987
0.305114 -0.001439 0.121661
-0.215599 0.017782 0.00428
0.228133 0.017782 0.004007
-0.381279 0.017782 0.089772
-0.063371 0.017782 -0.109106
0.433052 0.017782 -0.000562
-0.14284 -0.001439 0.054928
-0.095617 -0.001439 -0.03838
0.035277 0.004621 0.20845
0.361968 0.017782 -0.164714
-0.193076 0.017782 -0.040417
-0.037524 0.017782 0.105997
0.224408 0.017782 -0.139668
0.195422 0.017782 0.159027
-0.093133 0.017782 0.028478
0.063341 0.017782 0.193283
0.033082 0.017782 0.046303
0.205295 0.017782 -0.151104
-0.216292 0.017782 0.156351
0.09236 0.017782 -0.12566
-0.223273 -0.001439 0.184839
-0.340982 -0.001439 -0.177872
-0.160132 0.017782 0.162067
0.430708 0.017782 0.171447
0.325538 0.017782 -0.076618
0.177808 -0.001439 -0.165531
0.27006 0.017782 0.140343
0.070943 -0.001439 0.184116
-0.155418 -0.001439 0.125577
0.050928 0.017782 -0.019288
0.01461 0.017782 0.191079
-0.128008 0.017782 0.140325
-0.119106 0.017782 0.114045
-0.106151 0.007 -0.212018
-0.009905 -0.001439 -0.059746
-0.009159 0.017782 -0.121947
-0.243452 0.017782 0.020389
-0.346204 -0.001439 0.084655
0.415284 0.017782 0.084385
-0.248052 0.017782 -0.01659
0.019742 -0.001439 -0.115332
-0.215839 0.017782 -0.123039
0.396693 0.017782 0.059131
0.203473 0.017782 -0.084899
-0.156663 -0.001439 -0.167571
0.288524 0.017782 -0.102948
-0.233766 -0.001439 -0.10972
0.288094 0.017782 0.02221
-0.417088 0.017782 -0.096659
-0.079163 0.017782 0.045434
0.431221 0.017782 0.10193
0.120168 -0.001439 -0.032208
0.179339 0.017782 0.205501
0.362562 0.017782 -0.048966
0.128388 0.017782 0.078617
0.046771 -0.001439 0.006747
-0.107483 0.017782 -0.097756
-0.095438 0.017782 0.076678
0.289653 -0.001439 -0.211848
0.107673 -0.001439 -0.174465
-0.028608 -0.001439 -0.153562
-0.092732 0.017782 -0.029871
-0.014697 0.017782 -0.079593
0.423669 -0.001439 -0.074771
0.268846 0.017782 0.171497
-0.026525 0.017782 -0.039677
0.263247 -0.001439 -0.025708
0.011119 -0.001439 0.05382
-0.087398 0.017782 0.097086
0.459898 0.01544 -0.177186
0.121757 0.017782 0.054156
0.033965 -0.001439 -0.055619
-0.294568 -0.001439 0.02109
-0.28837 -0.001439 0.07459
-0.068093 -0.001439 -0.202161
0.205008 -0.001439 0.124653
-0.186803 0.017782 0.122664
-0.137689 0.017782 0.092369
0.459898 0.01602 0.139208
-0.231381 -0.001439 0.026926
-0.424764 -0.001439 0.048532
-0.127977 -0.001439 0.076564
-0.220862 -0.001439 0.095662
-0.016733 -0.001439 0.023104
0.076251 0.017782 -0.107414
0.168635 0.005639 -0.212018
-0.40445 0.017782 0.007138
-0.385461 0.017782 -0.095037
0.267506 0.017782 -0.044247
0.351582 0.017782 0.179015
0.036843 -0.001439 0.141394
0.105617 0.017782 0.002695
-0.108908 -0.001439 -0.054413
-0.404306 0.017782 0.147687
-0.421544 0.017782 -0.157462
-0.406877 -0.001439 -0.103872
-0.228845 -0.001439 -0.150541
0.079546 -0.001439 0.149172
0.221744 -0.001439 0.163575
-0.380894 0.017782 0.011441
0.260507 0.295158 -0.016986
-0.14775 0.31438 -0.001994
0.057056 0.295158 0.040606
-0.319911 0.295158 0.037496
0.024309 0.295158 -0.121983
0.415435 0.31438 -0.083881
0.379129 0.295158 0.085122
-0.145222 0.295158 0.160111
0.200447 0.31438 0.118621
-0.277265 0.31438 -0.101192
0.156482 0.31438 -0.117061
-0.15351 0.31438 -0.12593
-0.264506 0.31438 0.142757
-0.053505 0.31438 0.078385
0.151793 0.31438 -0.008808
0.299621 0.31438 -0.112239
-0.380084 0.295158 -0.097622
-0.062371 0.31438 -0.060503
0.100221 0.31438 0.122912
0.286444 0.295158 0.091089
-0.35384 0.295158 0.137135
-0.22934 0.295158 0.030896
0.365954 0.295158 -0.003227
-0.402569 0.31438 0.060282
0.029693 0.31438 -0.037865
0.012583 0.31438 0.154588
-0.067705 0.295158 -0.152997
0.443467 0.295158 -0.16116
-0.301599 0.31438 -0.183478
-0.204444 0.31438 -0.062744
0.227647 0.295158 -0.146134
-0.194951 0.31438 0.098603
-0.228822 0.295158 -0.157281
0.080672 0.31438 -0.187143
0.145934 0.295158 0.062964
0.226809 0.31438 0.049332
-0.377024 0.31438 -0.018251
0.321176 0.295158 0.156106
0.086353 0.31438 -0.083953
0.370879 0.295158 -0.137829
-0.216948 0.295158 0.194488
-0.07276 0.295158 0.012995
-0.272013 0.295158 -0.03352
0.254543 0.31438 0.184186
-0.123282 0.31438 0.082918
-0.057771 0.295158 0.163415
0.388914 0.31438 0.146709
-0.002988 0.295158 0.016209
0.011915 0.295158 0.087032
-0.12377 0.295158 -0.06637
0.302834 0.31438 0.027467
-0.384696 0.295158 -0.174197
0.316701 0.31438 -0.050985
0.225175 0.31438 -0.066227
0.088356 0.31438 -0.009982
0.159973 0.295158 0.173679
0.135807 0.309988 -0.214421
-0.308028 0.31438 0.102361
0.41974 0.31438 0.028147
-0.327996 0.295158 -0.124063
0.307191 0.295158 -0.166309
-0.331602 0.295158 -0.047696
-0.032991 0.31438 -0.109734
0.009987 0.295158 -0.17994
-0.393455 0.31438 0.180529
0.102726 0.295158 -0.140274
-0.315274 0.295158 0.189402
0.103436 0.31438 0.177604
0.170451 0.31438 -0.169683
-0.117219 0.31438 -0.166504
0.459898 0.300264 -0.041583
0.168877 0.295158 -0.068901
-0.19619 0.295158 -0.012773
-0.260478 0.295158 0.089498
-0.174239 0.31438 0.043173
-0.020266 0.295158 -0.036708
-0.397107 0.31438 0.117266
0.246833 0.295158 0.128682
-0.180881 0.31438 -0.169549
-0.097381 0.295158 -0.1088
0.363058 0.295158 -0.088525
0.100321 0.31438 0.072996
0.426375 0.31438 0.114175
0.413932 0.295158 -0.02386
0.119613 0.295158 -0.052893
0.346939 0.31438 0.049266
-0.229485 0.31438 -0.109023
0.268163 0.295158 -0.077417
0.211334 0.295158 0.161023
0.211066 0.31438 -0.194806
0.117714 0.295158 0.022139
-0.209765 0.295158 0.139406
0.183553 0.31438 0.026422
0.198672 0.295158 -0.107068
0.049541 0.295158 0.131964
-0.277957 0.31438 0.050361
-0.366556 0.31438 0.027251
-0.031335 0.295158 0.114623
0.328747 0.31438 0.094569
0.04406 0.295158 -0.079946
-0.081733 0.31438 0.115086
-0.409011 0.295158 -0.051805
0.20652 0.31438 -0.024176
0.142392 0.295158 0.131436
-0.17579 0.31438 0.189071
-0.360582 0.31438 0.078171
0.270843 0.31438 -0.146791
-0.089625 0.31438 0.049959
-0.297838 0.31438 -0.002549
-0.236383 0.31438 -0.009644
0.191585 0.295158 0.067609
-0.029544 0.305249 0.203644
-0.190439 0.295158 -0.102679
-0.317058 0.31438 0.150077
0.323166 0.295158 -0.009744
0.409434 0.31438 -0.133731
0.056195 0.31438 0.186814
0.353451 0.31438 0.187984
-0.128669 0.31438 0.125751
-0.166423 0.295158 -0.066982
0.132523 0.295158 -0.172883
-0.004534 0.295158 -0.084554
0.384849 0.31438 -0.047796
-0.248109 0.31438 -0.061982
0.257143 0.295158 0.028281
-0.097969 0.295158 0.173528
0.386863 0.295158 0.044662
-0.262464 0.295158 -0.184524
-0.409024 0.295158 0.024501
-0.348792 0.31438 -0.178847
-0.02061 0.295158 0.053106
-0.157694 0.295158 0.104869
-0.338261 0.31438 -0.004512
-0.101328 0.31438 -0.03872
-0.272357 0.31438 0.188288
-0.044273 0.295158 -0.18577
-0.013172 0.295158 -0.147304
0.324007 0.295158 -0.085239
0.287372 0.31438 0.151872
0.425453 0.295158 0.065386
0.014693 0.31438 0.045039
0.076637 0.295158 -0.041705
0.128569 0.31438 -0.089984
0.416595 0.295158 0.176343
0.240398 0.31438 0.085641
0.261207 0.295158 -0.186489
0.061813 0.295158 -0.159429
-0.296083 0.31438 -0.056832
0.171324 0.295158 0.102136
0.344921 0.295158 -0.174274
-0.057527 0.31438 -0.016373
0.315848 0.31438 0.194477
0.394958 0.295158 -0.179533
-0.405074 0.31438 -0.201716
-0.19833 0.295158 0.066175
0.335882 0.31438 -0.121768
0.050628 0.31438 0.009088
0.075711 0.295158 0.092908
0.449645 0.295158 -0.107656
0.022478 0.295158 0.18446
0.441032 0.31438 -0.007925
-0.31362 0.31438 -0.089204
-0.303573 0.295158 0.070442
-0.228561 0.295158 0.107763
-0.254991 0.31438 -0.140079
-0.113084 0.295158 -0.010058
0.344954 0.295158 0.120909
0.449067 0.31438 -0.212659
0.22083 0.295158 0.002993
0.171236 0.302805 -0.214421
-0.357802 0.295158 -0.144464
-0.354774 0.31438 -0.081113
-0.000827 0.295158 -0.213876
-0.059791 0.295158 0.047099
-0.142906 0.295158 0.060325
-0.358525 0.31438 0.17466
0.294857 0.31438 -0.017834
0.170666 0.295158 -0.03086
-0.287549 0.295158 -0.128242
-0.403122 0.295158 0.089047
0.116548 0.295158 -0.015218
0.256616 0.295158 -0.12199
-0.16589 0.31438 -0.038431
-0.181506 0.31438 0.143062
-0.149405 0.295158 -0.096799
0.132775 0.31438 0.199494
0.387577 0.31438 0.180867
-0.088689 0.295158 -0.070188
0.02293 0.295158 -0.005767
0.301784 0.295158 0.121316
0.11516 0.295158 0.152284
-0.410029 0.31438 0.151036
0.448451 0.31438 -0.076583
-0.052376 0.31438 0.136137
-0.235777 0.31438 0.076953
0.197931 0.295158 -0.167217
-0.150792 0.295158 -0.182836
-0.100832 0.31438 -0.137219
0.065444 0.31438 0.154389
0.238181 0.31438 -0.171416
-0.419548 0.295158 -0.164617
-0.006906 0.31438 0.127427
-0.241209 0.295158 0.156867
-0.227948 0.295158 -0.081964
0.384291 0.31438 0.111722
0.149733 0.31438 -0.047938
0.428561 0.31438 -0.183656
0.248924 0.295158 -0.047953
-0.187837 0.31438 -0.137672
-0.187934 0.295158 -0.194913
0.330164 0.295158 0.022064
-0.0791 0.295158 0.202419
-0.085713 0.31438 0.150365
0.126265 0.31438 0.092523
-0.139556 0.295158 -0.038018
0.048294 0.31438 0.105874
-0.230034 0.31438 -0.196728
0.386132 0.31438 -0.100681
0.296376 0.295158 0.176747
-0.001451 0.31438 -0.054495
-0.40607 0.295158 -0.116658
-0.359392 0.31438 -0.118745
0.056291 0.295158 -0.125169
0.15636 0.295158 0.016491
-0.423373 0.31438 -0.014891
0.391562 0.31438 -0.002178
0.039505 0.31438 -0.188174
0.339977 0.31438 -0.028982
0.431383 0.295158 -0.055038
0.297365 0.31438 0.058935
0.138803 0.31438 -0.148288
-0.06904 0.31438 -0.178315
-0.013111 0.31438 0.077229
0.180448 0.31438 0.159064
-0.092666 0.295158 0.074707
-0.026272 0.31438 -0.012579
-0.11555 0.295158 0.044985
0.125641 0.295158 -0.118997
-0.160932 0.295158 -0.153273
0.325001 0.295158 0.070236
0.078143 0.31438 -0.136158
0.453189 0.31438 0.04492
-0.063963 0.31438 -0.107634
-0.274466 0.295158 -0.068084
0.407644 0.31438 0.089459
0.223653 0.31438 0.183814
-0.257487 0.295158 0.002033
-0.017476 0.31438 0.161437
0.054804 0.31438 -0.055674
0.212312 0.31438 -0.127622
0.274714 0.31438 -0.054367
-0.181782 0.295158 0.014258
-0.366074 0.31438 -0.046819
0.369628 0.31438 -0.161326
-0.333078 0.31438 0.065802
0.361953 0.295158 -0.051346
-0.122493 0.31438 0.014372
0.090805 0.295158 0.051922
0.014429 0.31438 -0.101139
-0.319117 0.295158 -0.017297
0.009522 0.31438 -0.156993
0.061935 0.31438 -0.024049
0.047043 0.31438 -0.104315
0.398822 0.295158 -0.065736
-0.356338 0.295158 0.107509
-0.110962 0.31438 -0.09065
-0.290442 0.295158 -0.163748
-0.255403 0.295158 -0.10705
-0.314154 0.31438 -0.141757
-0.187369 0.295158 0.164743
-0.381756 0.295158 0.010902
0.295936 0.295158 -0.139199
0.244718 0.295158 0.157933
0.371269 0.31438 -0.195344
-0.12591 0.31438 -0.1945
-0.265521 0.31438 0.02263
-0.275578 0.31438 -0.205755
0.087628 0.295158 -0.11535
0.34537 0.31438 0.006384
0.293957 0.295158 -0.044211
-0.367359 0.295158 -0.197483
0.259219 0.31438 0.107696
-0.134872 0.295158 0.187185
-0.006098 0.295158 0.1818
0.263712 0.31438 0.068923
0.068338 0.295158 -0.002723
-0.179704 0.31438 -0.083499
0.189279 0.31438 -0.088139
0.298936 0.31438 -0.083692
0.397382 0.295158 0.017989
0.437434 0.31438 -0.126563
-0.384906 0.295158 0.049092
0.18941 0.31438 0.091872
0.375201 0.295158 0.130383
-0.022723 0.31438 0.022615
-0.382053 0.31438 -0.073692
-0.072682 0.295158 0.094663
0.107052 0.295158 0.197961
-0.390456 0.295158 0.136804
-0.126024 0.31438 0.167166
-0.056218 0.31438 0.026982
0.160399 0.295158 -0.151981
-0.042135 0.295158 -0.061894
-0.325991 0.295158 0.13188
-0.211657 0.295158 -0.043822
-0.256761 0.295158 0.117082
-0.045186 0.295158 -0.000523
0.225917 0.295158 -0.086192
0.415864 0.31438 0.153149
0.100147 0.31438 -0.034991
-0.206257 0.295158 -0.125245
0.43521 0.31438 -0.03572
-0.313911 0.295158 0.009725
-0.343049 0.295158 0.022933
0.020792 0.31438 0.013418
0.003954 0.31438 -0.00788
0.086261 0.295158 0.16931
-0.091728 0.295158 0.132272
0.216556 0.295158 -0.040306
0.062627 0.31438 0.058747
0.102569 0.31438 0.033555
-0.086108 0.295158 -0.011138
0.403594 0.295158 0.107934
-0.331427 0.31438 0.199151
-0.157689 0.295158 0.034127
0.102915 0.295158 -0.198053
0.15665 0.295158 -0.19319
-0.217878 0.295158 0.006595
-0.248493 0.31438 0.175942
-0.015034 0.295158 -0.191085
-0.184325 0.295158 -0.041358
-0.406607 0.295158 -0.089932
0.311028 0.295158 0.046435
0.152582 0.31438 0.08823
0.295031 0.295158 0.000617
-0.021644 0.31438 -0.077669
-0.343809 0.31438 0.121743
0.108015 0.295158 0.094334
-0.12735 0.31438 -0.130456
0.295309 0.295158 -0.190004
0.196091 0.31438 -0.148572
-0.212192 0.31438 -0.150091
-0.068597 0.31438 0.177897
0.374628 0.31438 -0.023554
-0.056959 0.295158 -0.124167
-0.079682 0.31438 -0.085457
0.320199 0.295158 -0.113523
0.454207 0.31438 -0.175229
-0.395222 0.295158 -0.029641
-0.423644 0.31438 -0.042447
-0.397633 0.295158 -0.150825
-0.336695 0.31438 -0.030295
-0.197652 0.311435 0.203644
0.205266 0.295158 0.102113
0.243659 0.31438 -0.013685
-0.349825 0.295158 0.062149
-0.138665 0.31438 -0.074838
-0.363224 0.295158 -0.028364
0.446522 0.295158 0.008258
0.063101 0.299535 -0.214421
0.252253 0.295158 0.056269
0.434088 0.295158 0.037275
0.271414 0.31438 0.130273
0.036531 0.296788 -0.214421
0.410098 0.31438 -0.165851
-0.173667 0.295158 -0.122073
0.141881 0.31438 0.1146
0.227766 0.295158 -0.192833
-0.340146 0.295158 -0.073124
-0.213868 0.295158 -0.192691
-0.109802 0.295158 0.199004
0.074431 0.295158 0.136916
0.136589 0.295158 0.000301
0.33605 0.31438 -0.096417
0.332471 0.295158 0.178609
0.27324 0.31438 0.030579
0.272537 0.295158 0.158528
0.125249 0.31438 -0.028901
-0.229036 0.295158 -0.025649
-0.423386 0.31438 0.017149
0.226817 0.295158 -0.120571
0.195298 0.295158 -0.132486
-0.030256 0.296827 -0.214421
-0.154755 0.31438 0.071217
-0.086781 0.295158 -0.196035
-0.299289 0.31438 0.187725
0.118485 0.31438 -0.165057
0.4406 0.295158 0.121548
-0.390178 0.295158 0.164857
-0.421825 0.31438 0.120453
0.033397 0.31438 -0.134963
-0.428946 0.31438 -0.074836
0.178299 0.295158 0.004734
-0.044704 0.31438 -0.201502
0.041092 0.295158 -0.048495
0.074153 0.312802 0.203644
-0.021102 0.295158 0.090145
0.002468 0.295158 -0.110939
-0.126526 0.295158 0.140747
0.359444 0.295158 -0.027053
0.19815 0.295158 0.195926
-0.171687 0.31438 0.091249
0.048306 0.295158 -0.017876
0.337264 0.31438 -0.161429
-0.120864 0.31438 -0.024193
-0.240838 0.295158 0.189876
-0.060726 0.295158 -0.030917
0.330943 0.295158 -0.046733
0.233152 0.295158 0.024532
0.36334 0.31438 -0.125054
0.145964 0.295158 0.038425
-0.433896 0.301258 -0.190067
0.266631 0.31438 -0.030444
-0.217084 0.31438 0.039159
0.07068 0.31438 0.035068
0.363956 0.295158 0.103948
0.115433 0.295158 -0.083552
0.352719 0.295158 0.035872
0.346884 0.31438 -0.204309
-0.19279 0.295158 0.122294
-0.113572 0.295158 -0.186883
-0.040228 0.295158 -0.097177
0.160303 0.295158 0.14751
0.187798 0.295158 -0.054054
0.434722 0.295158 -0.204178
-0.297055 0.295158 -0.042483
-0.004696 0.31438 0.103538
-0.079665 0.31438 0.082127
-0.139363 0.31438 0.100692
0.025012 0.31438 0.081258
-0.252578 0.295158 0.036488
0.287389 0.295158 0.029919
-0.10613 0.31438 0.032719
0.365918 0.31438 0.08981
0.032642 0.295158 0.098704
-0.287293 0.295158 0.006675
-0.028408 0.31438 -0.048082
0.041101 0.295158 0.019184
0.180055 0.31438 -0.115544
0.068155 0.295158 -0.063675
0.428833 0.295158 -0.081866
0.417692 0.31438 -0.204505
-0.383379 0.295158 0.101813
-0.336793 0.31438 0.165707
-0.382282 0.31438 -0.196002
0.040843 0.31438 0.142139
-0.383531 0.31438 0.082717
0.039668 0.295158 -0.166752
-0.227225 0.31438 0.202486
0.337046 0.309486 0.203644
-0.007754 0.31438 0.051269
0.414256 0.31438 -0.111084
0.441583 0.31438 0.020547
-0.422272 0.295158 0.19921
-0.240561 0.295158 -0.13736
0.046117 0.31438 0.033909
-0.14223 0.31438 0.147694
-0.252122 0.31438 0.105182
0.18903 0.31438 -0.183366
-0.229526 0.31438 0.151925
0.045474 0.295158 0.060508
-0.24069 0.295158 -0.177014
-0.139518 0.31438 -0.172223
0.101894 0.31438 0.008627
0.144934 0.295158 0.202994
0.00941 0.31438 -0.074781
0.020306 0.295158 0.144597
0.268709 0.295158 0.181161
0.353451 0.31438 -0.080543
0.117525 0.31438 -0.201313
0.3971 0.295158 -0.135574
0.03708 0.31438 0.174181
-0.271861 0.31438 -0.021109
-0.297337 0.295158 0.034135
-0.181859 0.295158 0.081942
-0.202092 0.31438 -0.098861
-0.413438 0.295158 0.065784
0.149391 0.31438 0.167729
0.168307 0.31438 0.182451
-0.279686 0.295158 0.101571
-0.138328 0.31438 -0.101464
0.204191 0.31438 0.050415
0.090947 0.295158 0.029292
-0.184479 0.295158 -0.149119
-0.313387 0.295158 -0.214006
0.289005 0.31438 0.116054
-0.260303 0.295158 0.174574
-0.269291 0.295158 0.058413
-0.239901 0.31438 0.036082
0.178273 0.295158 0.123508
-0.365393 0.295158 -0.004461
0.181569 0.308148 0.203644
0.220665 0.31438 0.014486
-0.080542 0.295158 -0.134671
0.132663 0.295158 -0.197979
0.459898 0.296255 -0.070255
0.128331 0.295158 0.081327
0.451147 0.31438 0.19927
0.029896 0.308343 0.203644
-0.288357 0.295158 -0.098917
0.093786 0.31438 -0.06292
-0.237748 0.31438 -0.088337
0.273925 0.31438 0.091036
0.001752 0.295158 -0.034127
0.190301 0.295158 0.154055
0.377719 0.295158 0.185633
-0.204404 0.31438 -0.005617
0.353708 0.31438 -0.144917
0.358583 0.295158 0.077054
-0.418794 0.295158 -0.005083
0.11014 0.295158 0.127139
-0.258346 0.295158 -0.053087
-0.107389 0.295158 -0.1623
0.384997 0.31438 -0.145594
-0.426036 0.31438 -0.097339
-0.077829 0.306142 -0.214421
-0.430102 0.295158 0.13978
0.260688 0.301452 -0.214421
0.030261 0.295158 -0.100857
-0.155166 0.31438 -0.06037
0.168173 0.31438 0.007631
-0.189084 0.31438 0.02182
-0.282625 0.295158 -0.192912
0.069042 0.31438 0.085076
-0.140777 0.295158 -0.144979
0.106667 0.31438 -0.091719
-0.308309 0.31438 0.079424
-0.148792 0.31438 -0.201306
0.139321 0.31438 0.070546
0.128073 0.31438 -0.004774
-0.324355 0.295158 0.058656
0.315455 0.31438 -0.160862
-0.151263 0.31438 -0.151321
-0.035514 0.295158 -0.119244
-0.272301 0.31438 -0.184415
-0.323351 0.31438 -0.069946
0.399813 0.295158 0.079111
0.433336 0.295158 -0.014544
-0.268504 0.31438 -0.08154
0.337701 0.295158 -0.194525
-0.3754 0.31438 0.003151
0.000913 0.31438 0.172576
-0.403873 0.31438 -0.157984
0.241333 0.295158 -0.068
0.109805 0.295158 -0.161278
-0.224025 0.31438 -0.071883
0.217379 0.295158 0.04927
-0.189689 0.295158 -0.172693
-0.036165 0.31438 0.065888
-0.027239 0.31438 0.133898
-0.400545 0.31438 -0.022164
0.408319 0.295158 0.052765
0.397835 0.295158 0.148214
0.121472 0.295158 0.17256
-0.115299 0.31438 0.142221
-0.106528 0.295158 0.154122
-0.290354 0.295158 0.188444
0.170897 0.31438 -0.046827
-0.16364 0.295158 0.064661
0.383024 0.295158 -0.119797
0.459898 0.297818 0.13424
0.279209 0.31438 -0.076278
-0.296124 0.31438 0.147735
-0.347011 0.31438 0.015293
0.459898 0.306698 -0.092426
0.105727 0.31438 -0.148403
-0.286906 0.31438 0.069312
-0.028198 0.295158 0.02884
0.394689 0.31438 -0.2007
-0.227293 0.31438 -0.165366
-0.297768 0.31438 0.0437
-0.093373 0.295158 0.009583
-0.092409 0.31438 -0.062918
-0.057342 0.295158 0.129735
-0.356613 0.295158 0.166825
-0.306229 0.295158 0.170659
-0.258439 0.31438 -0.119561
0.085742 0.31438 0.058155
0.153096 0.295158 -0.055375
0.035375 0.31438 -0.062962
-0.188932 0.31438 -0.114902
0.251055 0.31438 0.023385
-0.205208 0.31438 0.080567
-0.192637 0.31438 0.170388
-0.410587 0.295158 -0.196393
0.364009 0.295158 0.01859
0.402173 0.295158 0.191106
0.381146 0.31438 0.049532
0.408783 0.295158 -0.087332
-0.06694 0.31438 0.04926
-0.186183 0.295158 -0.072857
0.315221 0.295158 -0.147337
0.388098 0.578541 -0.093457
0.068384 0.578541 -0.049918
-0.194946 0.578541 0.007008
0.25385 0.597763 0.049461
-0.045138 0.578541 0.083325
-0.32434 0.597763 -0.096314
-0.076483 0.597763 -0.079746
0.223881 0.578541 -0.093329
0.108431 0.597763 0.093921
-0.306711 0.578541 0.090974
0.332941 0.587227 -0.214421
-0.153713 0.578541 0.139858
0.351469 0.597763 0.119115
-0.183643 0.578541 -0.108779
0.36462 0.578541 0.012963
0.168751 0.578541 -0.007218
-0.352544 0.597763 -0.001783
0.033835 0.597763 -0.140636
0.14011 0.578541 -0.135568
-0.018193 0.597763 -0.00427
0.266743 0.578541 0.147856
0.29626 0.597763 -0.042872
0.18044 0.597763 0.14459
-0.382293 0.597763 0.145164
0.013698 0.578541 0.145935
-0.110739 0.578541 0.021267
0.309225 0.578541 -0.12499
-0.236922 0.597763 0.13289
-0.063544 0.597763 0.175281
-0.251637 0.597763 -0.057204
0.253781 0.578541 -0.186147
-0.126266 0.578541 -0.170138
-0.253723 0.597763 -0.168416
0.061546 0.578541 0.031747
-0.402452 0.578541 -0.09246
0.16502 0.597763 -0.208943
-0.276668 0.578541 0.023067
0.420944 0.597763 0.144043
-0.036036 0.578541 -0.145464
-0.147844 0.597763 -0.044658
-0.377033 0.597763 0.073389
-0.360339 0.578541 -0.162693
0.117379 0.578541 0.170285
-0.191917 0.597763 0.078478
-0.005575 0.578541 -0.070341
0.440771 0.597763 -0.044217
0.444089 0.597763 0.045886
0.172127 0.597763 0.073196
0.318224 0.578541 0.060311
0.383814 0.597763 -0.159868
-0.109584 0.578541 0.092921
0.315144 0.597763 0.194897
0.129016 0.597763 -0.056402
0.035867 0.597763 0.085504
0.077838 0.578541 -0.178681
0.231778 0.597763 -0.00739
0.392013 0.578541 0.069291
0.195968 0.597763 -0.146529
-0.302716 0.578541 -0.030517
-0.332178 0.597763 0.183823
0.090767 0.597763 -0.109402
-0.253493 0.597763 0.075205
-0.243753 0.578541 -0.114263
0.128739 0.597763 0.034943
-0.433896 0.591131 0.175991
-0.130984 0.597763 -0.11578
0.052742 0.597763 0.185573
0.337234 0.597763 -0.08209
-0.35231 0.578541 -0.053416
-0.07009 0.597763 -0.020726
0.065251 0.578541 0.132913
0.216607 0.578541 0.094514
-0.310077 0.578541 -0.143528
0.249799 0.597763 -0.137444
0.43224 0.597763 -0.114097
0.107321 0.578541 -0.008825
-0.178396 0.578541 -0.170118
-0.304633 0.597763 0.139681
-0.016077 0.597763 -0.202156
0.17633 0.597763 -0.088125
-0.33299 0.578541 0.046647
0.443138 0.578541 0.101737
-0.154548 0.578541 0.048208
-0.404653 0.597763 0.030729
0.277759 0.578541 0.09102
0.35492 0.597763 -0.034682
-0.035656 0.597763 0.133212
-0.048494 0.597763 0.037004
-0.42248 0.578541 -0.190132
0.226719 0.597763 0.168843
-0.078427 0.597763 -0.160274
-0.197961 0.597763 -0.037581
0.378726 0.578541 0.158042
-0.006778 0.597763 0.061186
0.146757 0.596943 0.203644
0.314771 0.578541 0.149603
-0.188742 0.597763 0.169695
-0.255333 0.597763 0.184114
0.045966 0.597763 -0.087206
-0.245715 0.597763 -0.007212
-0.096138 0.597763 0.141129
0.419639 0.597763 -0.002319
0.258665 0.597763 -0.070165
-0.225036 0.578541 0.041753
-0.396518 0.578541 -0.041691
-0.347715 0.578541 0.122252
-0.146059 0.578541 0.18485
0.293864 0.597763 -0.163348
0.278293 0.597763 -0.001146
0.134622 0.597763 0.130874
0.210255 0.597763 -0.054747
0.017479 0.578541 -0.178097
0.208987 0.597763 0.044621
0.134343 0.597763 -0.17699
-0.001449 0.597763 -0.114057
0.037925 0.578541 -0.018603
-0.280323 0.597763 -0.10076
-0.189175 0.597763 0.124031
-0.001636 0.578541 0.099251
-0.01027 0.597763 0.181531
-0.399643 0.578541 0.111082
-0.146767 0.597763 0.008648
0.315758 0.578541 -0.006788
-0.114187 0.578541 -0.076348
-0.219291 0.597763 -0.142998
-0.086525 0.597763 0.054516
0.415979 0.578541 -0.178244
-0.223868 0.578541 -0.203535
0.090814 0.578541 0.061147
-0.10441 0.578541 -0.033714
-0.29535 0.578541 0.174895
-0.06123 0.597763 -0.119386
-0.297306 0.578541 -0.183943
0.393364 0.597763 -0.0577
0.026258 0.597763 0.036394
0.102055 0.597763 -0.152639
-0.161496 0.578541 0.100411
-0.391649 0.578541 -0.137789
-0.218667 0.578541 0.10096
-0.22064 0.597763 -0.082185
0.446336 0.597763 -0.202889
0.298292 0.597763 0.032785
0.276767 0.597763 0.189737
0.354716 0.578541 -0.176566
0.242786 0.597763 0.124499
-0.302319 0.578541 -0.071203
0.340153 0.597763 -0.137295
-0.065571 0.578541 0.118654
0.418846 0.578541 0.189815
0.325015 0.578541 0.10016
-0.386264 0.597763 -0.182374
0.162599 0.597763 -0.039612
0.197082 0.597763 0.007897
-0.181337 0.597763 -0.076865
-0.3957 0.578541 0.174061
0.169074 0.578541 0.180289
0.062107 0.578541 -0.12296
0.263047 0.578541 -0.038843
0.093288 0.597763 0.149898
-0.048182 0.597763 -0.056068
0.43175 0.597763 -0.150789
-0.140382 0.597763 0.075929
0.27731 0.597763 -0.113521
-0.344655 0.578541 -0.119665
-0.041264 0.578541 -0.181477
0.123629 0.578541 -0.103157
-0.374869 0.597763 -0.078946
-0.075885 0.578541 -0.202401
-0.038263 0.597763 -0.09068
0.459898 0.581783 -0.134569
0.365425 0.597763 0.083946
-0.395049 0.597763 -0.003862
-0.002967 0.578541 -0.034658
-0.316868 0.578541 0.014759
0.38608 0.597763 -0.124241
-0.012783 0.578541 0.031787
0.066014 0.578541 0.086716
-0.154689 0.578541 -0.143599
0.139551 0.597763 -0.00092
0.391343 0.597763 0.026232
-0.341891 0.597763 0.078325
0.459898 0.592326 -0.008641
0.202532 0.578541 -0.021069
-0.290121 0.597763 -0.002931
-0.358652 0.578541 0.195944
-0.151929 0.597763 -0.183698
-0.416644 0.597763 0.134606
0.173381 0.597763 -0.175224
-0.324914 0.597763 -0.175408
-0.060899 0.578541 0.006364
-0.225654 0.578541 0.18229
0.42701 0.578541 -0.083982
-0.276615 0.578541 -0.150771
0.092041 0.597763 -0.065465
0.351629 0.597763 0.037985
0.325622 0.578541 -0.039409
-0.042623 0.578541 -0.028676
-0.107389 0.597763 -0.14309
0.201128 0.580591 0.203644
0.352842 0.597763 0.166603
0.015054 0.597763 -0.00179
-0.123555 0.578541 0.125659
-0.354166 0.597763 -0.19889
-0.260131 0.578541 -0.030176
-0.276685 0.597763 0.121951
0.163076 0.597763 -0.121496
-0.219069 0.597763 -0.177099
-0.187363 0.578541 0.051949
0.07004 0.578541 -0.010899
-0.376976 0.578541 0.046594
-0.371247 0.597763 0.109813
0.251356 0.578541 0.178693
-0.105234 0.578541 -0.107805
0.386594 0.578541 -0.192413
-0.279801 0.597763 0.049237
0.44688 0.597763 0.166615
-0.246702 0.597763 0.02539
0.204849 0.597763 -0.190218
0.19106 0.578541 -0.109895
0.387457 0.578541 0.126676
0.047313 0.578541 -0.165662
0.362205 0.578541 -0.112696
0.046221 0.597763 0.011056
-0.103109 0.597763 -0.181106
-0.173268 0.578541 -0.047421
0.32587 0.578541 -0.158435
0.020845 0.597763 0.113666
-0.003686 0.578541 -0.154223
-0.05941 0.578541 0.14994
-0.335086 0.578541 -0.026661
0.095003 0.578541 0.121883
0.180704 0.597763 0.103694
0.260608 0.578541 0.025478
0.291536 0.597763 0.140651
0.335289 0.597763 0.011135
-0.070043 0.597763 0.09421
0.167036 0.578541 -0.065292
0.012873 0.597763 -0.05344
-0.08331 0.578541 -0.136291
-0.277463 0.578541 0.078297
0.431872 0.597763 0.074236
-0.312098 0.597763 0.058464
-0.29048 0.597763 -0.129699
0.033963 0.578541 0.168953
-0.077192 0.578541 0.032554
0.219606 0.578541 0.129948
-0.118109 0.597763 -0.001685
-0.405208 0.597763 -0.157136
0.364342 0.597763 -0.068221
0.172682 0.578541 -0.151664
-0.32731 0.578541 0.145796
0.32153 0.597763 0.127149
-0.144348 0.578541 -0.073255
-0.365193 0.578541 -0.023083
-0.246563 0.578541 -0.14621
-0.272163 0.578541 -0.069673
0.294636 0.578541 -0.098354
-0.124925 0.578541 0.052844
-0.391254 0.597763 0.200369
0.089079 0.597763 0.004855
-0.093543 0.597763 0.170753
0.150738 0.578541 -0.09106
0.143769 0.597763 0.060466
-0.182503 0.578541 0.146684
0.08186 0.578541 0.169197
0.224944 0.578541 -0.180161
-0.428741 0.578541 -0.155128
0.044802 0.597763 0.141667
0.381959 0.597763 -0.001626
-0.254051 0.578541 0.118903
0.099796 0.597763 -0.181798
-0.375744 0.597763 -0.048976
0.13682 0.578541 0.109026
0.282866 0.578541 -0.060245
-0.358808 0.578541 0.149157
-0.313798 0.578541 0.202323
-0.227599 0.578541 -0.019374
-0.210019 0.578541 -0.121021
0.195045 0.597763 0.169667
0.376137 0.578541 0.188433
0.187825 0.578541 0.040609
-0.421705 0.578541 0.043773
0.05201 0.597763 0.109187
0.112678 0.578541 -0.070461
-0.166162 0.597763 -0.012355
0.224863 0.597763 -0.123652
-0.412061 0.597763 -0.214212
-0.33174 0.597763 -0.050041
0.367871 0.578541 -0.01697
-0.073991 0.578541 -0.05907
0.23986 0.597763 0.024504
-0.220342 0.578541 0.145184
0.272586 0.597763 0.110976
-0.171711 0.578541 0.02589
-0.311904 0.578541 0.120502
0.078251 0.597763 0.044974
-0.363492 0.597763 -0.142458
0.03804 0.578541 -0.106031
-0.3893 0.597763 -0.107889
0.3334 0.578541 0.17148
0.047697 0.597763 -0.036065
0.365257 0.578541 -0.150913
0.269306 0.578541 -0.133801
0.136567 0.597763 0.087135
-0.008498 0.597763 -0.173398
0.011014 0.578541 0.184235
-0.268961 0.597763 -0.191386
0.050597 0.597763 0.062219
-0.22353 0.578541 0.014304
0.112453 0.578541 -0.136014
0.445098 0.578541 0.009748
0.428272 0.578541 0.126067
-0.313334 0.578541 -0.116433
-0.296769 0.590198 -0.214421
-0.347683 0.578541 0.023747
0.177093 0.578541 0.122514
-0.138412 0.597763 0.03797
-0.328704 0.578541 -0.194026
-0.086208 0.578541 -0.003014
-0.41938 0.578541 -0.129866
0.019161 0.578541 0.076891
0.112771 0.578541 0.025218
-0.169466 0.597763 -0.132344
0.262441 0.578541 0.069195
-0.286033 0.597763 0.097001
0.104493 0.597763 0.199197
-0.191896 0.597763 -0.182531
0.019224 0.597763 -0.097425
-0.100855 0.578541 -0.162568
0.321328 0.597763 0.078295
0.459898 0.58026 0.075043
-0.41011 0.597763 0.160288
-0.260895 0.578541 0.057704
-0.257214 0.597763 -0.13157
-0.391311 0.578541 -0.20416
-0.276945 0.597763 -0.036662
-0.155134 0.578541 -0.026591
-0.244511 0.597763 -0.096296
0.358557 0.578541 0.100506
-0.017183 0.597763 -0.142487
0.376552 0.597763 0.111466
0.329769 0.578541 -0.108696
-0.217664 0.597763 -0.002519
-0.409446 0.597763 0.056675
-0.331947 0.578541 0.097924
0.23412 0.597763 0.066658
-0.129894 0.597763 -0.025678
0.229171 0.597763 -0.153338
0.317727 0.597763 -0.064901
0.265463 0.578541 -0.086204
-0.223855 0.597763 0.059127
-0.004906 0.578541 -0.097015
0.162022 0.578541 0.017811
-0.19842 0.597763 -0.096351
0.061494 0.597763 -0.155651
-0.171968 0.597763 -0.20205
-0.037068 0.578541 0.022914
0.416695 0.597763 -0.068836
-0.164998 0.597763 0.152871
0.230228 0.597763 -0.038417
0.104247 0.597763 -0.042766
0.277261 0.597763 0.060235
0.13219 0.597763 0.178789
-0.111693 0.597763 0.038257
-0.326702 0.597763 0.030858
0.210872 0.597763 -0.080384
0.256312 0.588728 0.203644
-0.065672 0.580244 0.203644
0.033436 0.578541 0.102177
-0.023186 0.597763 -0.051067
-0.349829 0.597763 -0.096026
0.056096 0.597763 -0.180554
-0.114716 0.597763 0.077045
0.160384 0.578541 0.059929
0.061472 0.597763 0.16173
-0.134883 0.578541 0.094483
0.418667 0.578541 0.084098
-0.233628 0.597763 0.107755
0.232667 0.597763 0.097422
-0.398544 0.597763 0.086517
0.370898 0.597763 -0.196634
0.120759 0.597763 -0.119138
-0.284053 0.597763 0.186512
-0.175635 0.578541 0.179154
-0.249811 0.578541 0.008304
0.125863 0.578541 0.144268
0.155679 0.597763 0.117398
-0.099274 0.578541 0.115682
0.120223 0.578541 0.196477
-0.132377 0.597763 0.192981
-0.198397 0.597763 0.040594
0.114326 0.578541 -0.191734
-0.056579 0.597763 0.07244
0.149883 0.578541 -0.174194
0.038104 0.578541 -0.191994
0.105597 0.597763 0.055866
-0.337153 0.578541 -0.143281
0.247287 0.578541 -0.006328
0.296307 0.597763 -0.187874
-0.046448 0.597763 0.101306
0.138723 0.597763 -0.081737
0.401035 0.578541 0.173
0.40111 0.597763 -0.181291
-0.322837 0.597763 -0.135317
-0.275103 0.578541 -0.004519
0.300323 0.597763 0.1634
-0.133885 0.597763 -0.091575
0.318108 0.597763 -0.099361
-0.214107 0.578541 -0.097032
-0.347415 0.597763 0.139733
0.434332 0.597763 0.019502
-0.286253 0.578541 -0.114018
0.235611 0.578541 0.111901
0.180813 0.597763 -0.015139
0.027961 0.578541 0.126201
0.005559 0.578541 0.053823
-0.405282 0.597763 -0.132117
0.286386 0.578541 -0.012904
-0.127559 0.597763 -0.057372
0.033577 0.597763 -0.172534
0.401543 0.597763 0.047822
0.455221 0.578541 0.034435
0.232043 0.578541 -0.13949
-0.134563 0.578541 0.020307
-0.398082 0.597763 -0.02769
0.30072 0.597763 0.064145
0.363825 0.578541 -0.054275
0.240837 0.597763 -0.181034
-0.167479 0.597763 -0.155983
0.374045 0.597763 0.145002
-0.214014 0.578541 -0.155659
0.451589 0.597763 0.089284
-0.312964 0.597763 0.103031
-0.208382 0.578541 -0.185826
0.088236 0.597763 -0.132783
0.09507 0.578541 0.093217
0.070516 0.578541 -0.200909
0.403482 0.578541 -0.070592
0.432102 0.597763 0.190422
0.041431 0.578541 0.192499
0.194272 0.578541 0.087945
-0.234126 0.578541 0.0836
0.065194 0.586339 0.203644
0.251988 0.597763 -0.046456
0.310608 0.578541 0.175782
-0.134937 0.578541 -0.043688
-0.396529 0.597763 -0.070858
0.082892 0.597763 -0.165535
-0.235125 0.597763 -0.123694
-0.412394 0.597763 0.111886
0.203861 0.578541 -0.129082
-0.017221 0.578541 -0.182618
-0.267963 0.578541 0.183785
-0.303274 0.597763 -0.058615
0.419316 0.578541 -0.148622
-0.110667 0.578541 -0.209494
-0.036613 0.578541 0.147449
0.21713 0.578541 0.160847
-0.200199 0.597763 0.144116
0.261754 0.597763 0.171847
-0.336545 0.580854 0.203644
0.038558 0.578541 -0.044426
0.265967 0.597763 0.080993
0.288917 0.578541 0.187741
0.342343 0.578541 0.029912
0.392179 0.578541 0.039859
-0.064162 0.578541 -0.148667
0.388739 0.587932 -0.214421
0.299696 0.578541 0.097042
-0.433896 0.580982 0.01783
0.001774 0.597763 0.148322
0.289415 0.597763 0.087638
-0.002345 0.597763 0.025598
0.346628 0.578541 -0.074424
-0.340416 0.578541 -0.174603
0.116936 0.597763 -0.015926
-0.213733 0.597763 0.181855
-0.433896 0.597138 0.153297
-0.387544 0.578541 0.090969
0.255397 0.578541 0.094112
-0.200286 0.578541 0.120035
-0.21625 0.597763 0.080364
0.123381 0.597763 0.110807
0.016153 0.578541 -0.111447
-0.103321 0.578541 0.059263
-0.197908 0.597763 -0.150079
0.057683 0.578541 0.008681
-0.092218 0.597763 0.097915
0.191778 0.597763 0.059084
0.019785 0.578541 -0.155738
0.224825 0.578541 -0.016691
-0.052373 0.578541 0.185653
0.071879 0.597763 0.119585
-0.034586 0.578541 -0.052841
0.434294 0.597763 0.109039
-0.24417 0.578541 -0.045867
0.003706 0.578541 -0.013305
0.363448 0.578541 0.140702
-0.286462 0.578541 0.108403
0.182865 0.597763 -0.19556
0.198088 0.597763 -0.119379
-0.258862 0.578541 -0.178451
-0.218853 0.578541 -0.039861
0.308789 0.597763 -0.015611
0.12823 0.578541 -0.045284
0.425789 0.578541 -0.198132
-0.38261 0.597763 0.033151
0.433626 0.578541 0.049437
0.436011 0.578541 -0.063747
0.139074 0.578541 0.038658
-0.134718 0.597763 -0.206316
-0.172888 0.597763 -0.110364
-0.020986 0.578541 -0.014734
0.277079 0.597763 0.026848
-0.144268 0.597763 -0.146216
0.35108 0.597763 -0.186591
-0.014101 0.597763 -0.02585
0.397785 0.578541 -0.165976
0.184537 0.597763 -0.03914
0.144488 0.597763 -0.022296
-0.037345 0.578541 -0.080162
-0.191662 0.578541 -0.088354
-0.030881 0.597763 -0.181304
-0.124737 0.578541 0.074653
0.025227 0.597763 -0.076474
0.343707 0.597763 0.08222
-0.304831 0.597763 0.171036
-0.001921 0.578541 -0.124236
0.440732 0.578541 -0.144299
0.024468 0.597763 0.057916
0.395581 0.597763 0.132213
-0.179929 0.578541 0.112856
-0.306607 0.597763 -0.186945
0.28616 0.591846 -0.214421
-0.359951 0.597763 -0.17231
0.220894 0.578541 -0.114942
0.175837 0.578541 -0.184457
-0.101602 0.597763 -0.015374
-0.261209 0.597763 0.095206
0.015526 0.578541 0.034845
0.336559 0.597763 0.194897
-0.42419 0.578541 -0.069979
-0.149977 0.597763 0.056336
0.382856 0.597763 0.067706
0.228052 0.578541 0.1925
0.115667 0.578541 0.115826
-0.352891 0.597763 -0.044241
0.078274 0.578541 0.108724
0.339506 0.578541 0.060023
-0.184437 0.578541 0.073383
-0.287862 0.597763 0.018187
-0.108436 0.597763 -0.066556
0.334829 0.597763 -0.116
-0.379793 0.578541 0.118399
-0.298834 0.578541 -0.001476
-0.17628 0.597763 0.064265
0.309978 0.578541 -0.209344
-0.050896 0.597763 -0.031158
0.099573 0.578541 -0.173191
-0.055604 0.597763 0.142268
0.139233 0.597763 -0.144067
0.198873 0.597763 -0.09765
-0.308086 0.578541 0.051004
0.02477 0.584816 0.203644
0.27289 0.597763 -0.164273
0.426123 0.578541 -0.007503
-0.173066 0.578541 -0.076147
-0.027458 0.597763 0.064149
0.184251 0.588889 -0.214421
-0.394215 0.578541 0.05837
0.357766 0.597763 0.008623
0.147437 0.597763 0.018393
-0.333838 0.597763 -0.156588
-0.381389 0.578541 0.189053
0.082122 0.597763 -0.083645
-0.191356 0.597763 0.013825
-0.350344 0.578541 0.088433
-0.278538 0.597763 0.070707
0.261426 0.597763 0.010813
0.372767 0.597763 -0.022495
-0.371219 0.578541 0.066358
-0.427874 0.597763 -0.099903
0.293654 0.578541 0.027145
0.004613 0.588865 0.203644
-0.448312 0.049452 -0.227141
-0.442623 0.881145 -0.1674
-0.448312 -0.570183 -0.013372
-0.448312 0.386335 -0.111238
-0.444002 -0.298852 -0.233642
-0.433896 0.641679 0.047508
-0.433896 -0.130109 -0.015935
-0.448312 0.617322 -0.208507
-0.433896 0.158279 -0.008608
-0.448312 -0.809786 -0.009979
-0.433896 -0.349346 -0.007282
-0.448312 -0.678112 0.159571
-0.433896 0.433593 0.07719
-0.448312 0.24718 -0.222886
-0.448312 0.765283 -0.060188
-0.448312 0.258392 0.123817
-0.448312 -0.733343 -0.156003
-0.448312 -0.137087 0.15237
-0.448312 -0.460878 -0.116224
-0.448312 0.784504 0.109798
-0.448312 0.528352 -0.056467
-0.43893 0.461867 -0.233642
-0.448312 -0.462144 0.082462
-0.448312 -0.233939 -0.108904
-0.448312 0.294539 -0.018594
-0.448312 -0.534036 -0.22398
-0.448312 0.148516 -0.135642
-0.448312 -0.096488 -0.154883
-0.448312 -0.251702 0.088297
-0.433896 -0.687771 0.036696
-0.448312 0.542647 0.133843
-0.433896 -0.617182 -0.131745
-0.433896 -0.790913 0.106553
-0.433896 0.140692 0.12093
-0.448312 0.87994 -0.045031
-0.448312 0.656917 -0.094848
-0.448312 -0.371676 0.148148
-0.441348 -0.426768 -0.233642
-0.448312 0.773787 -0.171928
-0.44234 -0.191436 -0.233642
-0.433896 -0.358794 -0.146198
-0.448312 0.06251 0.014966
-0.433896 0.349102 0.16343
-0.448312 -0.230775 -0.006932
-0.433896 0.419489 -0.020859
-0.433896 -0.684087 -0.061489
-0.433896 -0.47466 -0.0165
-0.439838 -0.670322 -0.233642
-0.448312 -0.033236 0.012947
-0.443798 0.15315 -0.233642
-0.448312 0.017055 0.149518
-0.433896 0.689685 0.134823
-0.433896 0.544627 0.033002
-0.433896 0.539964 -0.16101
-0.448312 0.808404 0.020849
-0.448312 0.236789 -0.1013
-0.448312 0.31044 -0.157063
-0.448312 -0.062521 0.106144
-0.448312 -0.166234 0.070405
-0.433896 0.69983 -0.230769
-0.448312 0.383596 -0.201017
-0.448312 0.233676 0.040905
-0.433896 0.726662 0.022489
-0.448312 -0.063178 -0.079346
-0.448312 -0.778403 -0.087884
-0.433896 -0.52271 0.131387
-0.433896 -0.155992 -0.090619
-0.433896 0.618206 -0.027695
-0.448312 0.093294 -0.067665
-0.448312 0.153495 0.198071
-0.448312 -0.806955 -0.18175
-0.433896 0.072756 -0.154284
-0.433896 0.471367 -0.124267
-0.448312 -0.598887 0.130437
-0.433896 -0.288929 -0.055388
-0.433896 -0.332056 0.067148
-0.433896 -0.221984 0.156237
-0.448312 -0.544938 -0.126779
-0.445968 0.537146 -0.233642
-0.448312 -0.376796 -0.074049
-0.448312 -0.008501 -0.145942
-0.448312 0.374363 0.03628
-0.433896 0.455395 0.152858
-0.448312 -0.171988 -0.159796
-0.448312 0.615279 0.122127
-0.433896 0.719405 -0.127229
-0.433896 -0.296376 0.147931
-0.448312 0.87033 0.061078
-0.448312 -0.76126 0.042316
-0.433896 0.075259 0.093733
-0.433896 -0.439987 0.157045
-0.438832 -0.740487 -0.233642
-0.448312 -0.40967 0.036272
-0.448312 0.827017 -0.125983
-0.433896 -0.515018 0.038513
-0.433896 -0.100962 0.051783
-0.448312 -0.859676 0.117567
-0.448312 0.125341 0.048917
-0.433896 0.225879 -0.024836
-0.433896 -0.473904 -0.180965
-0.433896 0.320694 -0.2322
-0.433896 0.819346 0.168429
-0.448312 -0.748908 0.157164
-0.433896 0.342264 -0.062494
-0.433896 0.607434 -0.143115
-0.433896 -0.621796 0.041928
-0.433896 0.212308 0.168672
-0.448312 -0.716197 0.094069
-0.448312 -0.051796 0.170384
-0.448312 0.203504 -0.174953
-0.448312 0.485472 0.011673
-0.448312 -0.610906 -0.069298
-0.448312 0.338903 0.101687
-0.448312 0.172556 -0.068801
-0.448312 -0.735701 -0.027571
-0.433896 0.502001 0.088181
-0.448312 -0.860003 -0.057686
-0.448312 0.007431 0.085273
-0.448312 0.457647 -0.066677
-0.433896 0.204451 0.09206
-0.433896 -0.304906 -0.1187
-0.433896 0.438105 -0.178593
-0.447493 0.773159 -0.233642
-0.433896 -0.685589 -0.121574
-0.448312 -0.503101 -0.074152
-0.448312 0.728999 0.08812
-0.433896 -0.433221 -0.063035
-0.433896 -0.418505 -0.159971
-0.433896 0.398479 0.124804
-0.433896 -0.548327 0.192643
-0.448312 0.762052 0.171952
-0.448312 0.672499 0.000169
-0.448312 -0.835725 0.063055
-0.433896 0.713185 -0.039636
-0.433896 -0.388335 0.09488
-0.433896 0.663444 -0.153507
-0.448312 0.588125 0.06662
-0.448312 -0.818577 0.17126
-0.448312 -0.649871 -0.018499
-0.448312 -0.375818 -0.209923
-0.433896 -0.656888 -0.171686
-0.433896 0.820784 -0.072019
-0.433896 -0.0238 -0.040527
-0.433896 -0.642485 0.099184
-0.433896 -0.181028 0.012889
-0.448312 0.291231 0.039598
-0.448312 0.072273 0.150372
-0.448312 0.845554 0.113441
-0.448312 -0.225486 -0.170794
-0.448312 0.55174 -0.105651
-0.433896 0.294942 -0.090711
-0.448312 0.771721 -0.117718
-0.433896 -0.575073 -0.176282
-0.433896 0.256243 -0.14886
-0.448312 -0.579563 0.073482
-0.448312 -0.208869 -0.055369
-0.433896 0.871872 0.172094
-0.448312 0.488462 -0.181617
-0.438321 -0.862399 -0.178215
-0.433896 -0.329725 -0.191371
-0.433896 0.282254 0.167321
-0.448312 0.176866 0.05055
-0.433896 -0.402082 -0.022041
-0.433896 -0.729096 -0.087058
-0.448312 -0.125561 0.101751
-0.448312 0.410841 0.18844
-0.447658 -0.483796 -0.233642
-0.448312 0.105516 -0.018033
-0.448312 0.569333 -0.008767
-0.448312 0.828945 -0.176314
-0.433896 0.394543 -0.064209
-0.448312 0.372016 -0.01657
-0.433896 -0.081063 -0.008569
-0.433896 -0.495881 0.172915
-0.433896 0.712248 -0.183117
-0.448312 -0.078459 -0.216586
-0.433896 0.336101 -0.117011
-0.448312 0.601456 -0.096964
-0.448312 -0.521834 -0.007968
-0.448312 0.763582 0.050636
-0.433896 -0.1053 -0.098741
-0.433896 0.105776 -0.117699
-0.448312 0.132676 -0.190144
-0.448312 -0.51882 -0.170694
-0.433896 -0.055896 -0.124703
-0.448312 0.045645 0.190565
-0.448312 0.440377 0.031845
-0.448312 0.654757 0.166543
-0.433896 -0.559826 -0.057914
-0.448312 0.042036 -0.042488
-0.448312 -0.180829 0.17574
-0.448312 0.056882 -0.11181
-0.448312 -0.262349 0.041564
-0.433896 -0.333248 0.177634
-0.433896 0.821297 -0.024769
-0.448312 -0.622482 0.170941
-0.433896 -0.037666 0.069139
-0.433896 -0.019671 0.120104
-0.433896 0.654551 0.09206
-0.433896 0.276793 0.083824
-0.448312 0.356242 -0.15643
-0.448312 0.261084 -0.062546
-0.433896 -0.329477 0.116402
-0.433896 -0.537923 0.085019
-0.433896 -0.100619 -0.05057
-0.433896 0.701969 0.178544
-0.433896 0.338273 0.012994
-0.448312 0.281861 -0.192134
-0.433896 0.190906 -0.129489
-0.433896 -0.802989 -0.052026
-0.448312 -0.152327 -0.201587
-0.440483 0.413499 -0.233642
-0.433896 -0.765836 -0.192167
-0.448312 -0.212487 0.066879
-0.433896 -0.1349 -0.138344
-0.433896 0.726213 -0.083524
-0.433896 -0.610612 -0.003893
-0.448312 0.305311 0.13283
-0.448312 0.113973 0.163753
-0.433896 -0.399564 -0.120487
-0.448312 -0.286998 -0.155739
-0.433896 0.500435 0.150132
-0.448312 -0.464262 0.023252
-0.433896 -0.166533 -0.03978
-0.448312 0.409598 -0.147959
-0.448312 0.336179 0.057032
-0.448312 0.102502 -0.2295
-0.433896 -0.337262 -0.063822
-0.433896 -0.771624 -0.127986
-0.448312 -0.823481 -0.111473
-0.448312 -0.193564 0.105382
-0.448312 -0.424372 0.113033
-0.433896 -0.192699 -0.112611
-0.448312 0.766195 0.008071
-0.448312 0.597893 0.022685
-0.433896 0.68913 0.042325
-0.448312 0.828232 0.066408
-0.433896 -0.097319 0.153631
-0.433896 -0.709095 0.134969
-0.448312 -0.693152 -0.187426
-0.448312 -0.138404 0.022624
-0.448312 -0.260157 0.132532
-0.448312 0.834509 0.204619
-0.433896 0.51265 -0.102372
-0.433896 0.509885 -0.021917
-0.448312 -0.378576 0.197843
-0.433896 0.738127 0.12609
-0.448312 -0.582292 -0.23336
-0.448312 -0.298666 0.092679
-0.433896 0.46459 0.105939
-0.448312 -0.618619 -0.177205
-0.448312 0.388993 0.087379
-0.433896 -0.149106 0.197678
-0.448312 -0.249985 -0.054654
-0.448312 0.14054 -0.043129
-0.433896 0.210777 -0.065135
-0.448312 -0.678518 0.078442
-0.448312 0.084729 0.051794
-0.448312 -0.498069 0.101399
-0.433896 -0.362189 0.031157
-0.442628 -0.862399 0.168189
-0.433896 -0.761855 0.004832
-0.448312 -0.023011 -0.106788
-0.448312 0.634627 -0.061612
-0.433896 0.474539 0.047253
-0.433896 0.313716 0.191773
-0.433896 0.459157 -0.023532
-0.448312 0.535359 0.072433
-0.448312 0.190589 0.009086
-0.448312 -0.438204 -0.011225
-0.433896 0.169359 -0.192906
-0.448312 -0.636611 -0.100512
-0.433896 -0.508542 -0.131717
-0.433896 -0.161151 0.124633
-0.448312 -0.112042 -0.191069
-0.44151 -0.000414 -0.233642
-0.448312 0.037086 0.115891
-0.433896 0.674183 -0.040438
-0.448312 0.048725 -0.181413
-0.433896 0.592542 -0.057065
-0.448312 -0.461733 0.128113
-0.433896 -0.064572 -0.171911
-0.448312 0.800301 -0.206225
-0.433896 -0.788164 0.145031
-0.448312 0.212822 0.132901
-0.448312 -0.715041 0.01368
-0.448312 -0.347033 -0.112642
-0.433896 0.584016 -0.226169
-0.443588 -0.862399 0.031488
-0.433896 0.115251 0.082661
-0.433896 0.103533 0.021325
-0.433896 -0.803196 0.024564
-0.448312 0.689315 0.097247
-0.448312 -0.67022 0.120488
-0.448312 0.176055 0.124528
-0.433896 -0.440309 0.052716
-0.448312 0.573228 0.111904
-0.448312 0.037856 0.063132
-0.448312 0.249722 0.006953
-0.448312 0.855244 -0.075578
-0.448312 0.505218 -0.136185
-0.448312 0.331619 -0.029593
