-0.246931 0.616901 -0.240497
-0.49627 -0.556116 -0.240497
-0.350026 0.637862 -0.224993
-0.260461 -0.244886 -0.240497
-0.114042 0.008688 -0.224993
-0.070355 0.194123 -0.224993
0.548084 -0.736329 -0.224993
-0.274722 -0.655845 -0.224993
-0.220074 0.320732 -0.240497
0.072965 0.353937 -0.224993
0.232059 0.707639 -0.224993
-0.063267 0.514595 -0.224993
-0.094881 -0.071574 -0.224993
-0.571198 -0.061765 -0.240497
0.315687 -0.588211 -0.224993
-0.330278 -0.30291 -0.224993
0.580206 0.411985 -0.224993
-0.213702 0.423068 -0.240497
0.550628 0.488543 -0.240497
-0.124038 0.330424 -0.224993
0.131353 -0.618019 -0.224993
0.194651 0.056284 -0.224993
-0.205086 -0.385441 -0.240497
0.330694 0.545761 -0.224993
0.069107 -0.532837 -0.224993
-0.532615 0.057635 -0.240497
-0.396495 -0.730726 -0.224993
-0.518444 0.247024 -0.240497
0.297971 0.661681 -0.224993
-0.227137 -0.050264 -0.224993
0.277756 -0.113634 -0.240497
0.349802 0.335276 -0.224993
0.287124 0.207332 -0.240497
0.435984 -0.037565 -0.224993
0.482452 0.62923 -0.224993
-0.570799 -0.296304 -0.240497
-0.028235 0.063019 -0.240497
-0.433485 0.349898 -0.240497
-0.177471 -0.289871 -0.240497
0.178242 0.114871 -0.224993
0.567998 -0.428452 -0.240497
-0.33396 -0.773868 -0.240497
-0.34792 -0.507002 -0.240497
0.393941 0.256066 -0.224993
0.163654 0.529387 -0.224993
0.167576 0.243514 -0.240497
0.356963 -0.260562 -0.224993
0.020966 0.177023 -0.224993
0.399946 0.112246 -0.240497
-0.087522 -0.278627 -0.224993
-0.127471 0.184031 -0.240497
0.129915 0.44602 -0.240497
-0.373172 -0.456525 -0.240497
0.556276 0.300143 -0.240497
0.264301 -0.594153 -0.224993
-0.047628 -0.708369 -0.224993
-0.381253 0.428549 -0.224993
-0.576555 -0.508243 -0.224993
0.213866 0.44781 -0.224993
-0.063566 -0.157403 -0.240497
0.068641 -0.374444 -0.240497
0.275875 0.121268 -0.240497
0.457814 -0.507125 -0.240497
0.338236 -0.455383 -0.224993
0.135562 -0.364187 -0.240497
0.258938 0.295795 -0.224993
0.326661 0.058656 -0.240497
0.46702 0.331732 -0.224993
0.012143 0.069175 -0.224993
-0.548579 -0.718921 -0.224993
0.227001 0.022079 -0.224993
-0.404587 -0.291329 -0.240497
0.564731 -0.324558 -0.224993
-0.504067 -0.455549 -0.224993
0.209781 -0.729149 -0.224993
-0.558012 0.32528 -0.240497
0.000648 -0.72515 -0.224993
0.226999 0.598842 -0.224993
-0.027627 -0.431647 -0.240497
0.281351 0.441098 -0.224993
0.363687 -0.743209 -0.224993
-0.148021 -0.587653 -0.240497
0.331742 0.101961 -0.240497
0.542601 0.18802 -0.224993
-0.080787 0.265141 -0.240497
-0.011104 -0.646698 -0.224993
0.319868 -0.54379 -0.240497
-0.462201 -0.331601 -0.224993
0.401368 -0.370537 -0.224993
-0.130853 -0.354528 -0.224993
0.04486 0.488099 -0.224993
0.5649 -0.646038 -0.224993
-0.258371 -0.284463 -0.224993
-0.436788 0.2859 -0.240497
-0.445479 0.070891 -0.224993
-0.155377 0.251463 -0.224993
0.145005 0.389794 -0.240497
-0.295015 -0.321464 -0.240497
0.221048 -0.28568 -0.224993
-0.082796 -0.557809 -0.224993
-0.121106 -0.029858 -0.240497
-0.209779 0.179287 -0.224993
-0.214994 -0.30858 -0.224993
-0.097645 -0.474526 -0.224993
-0.509825 -0.693012 -0.224993
0.318176 -0.658996 -0.240497
-0.290114 -0.58059 -0.240497
0.339437 0.261606 -0.224993
0.078464 -0.065291 -0.240497
-0.462768 0.38432 -0.240497
0.200476 -0.655225 -0.224993
-0.514698 -0.201678 -0.240497
-0.513523 0.542811 -0.240497
0.476649 -0.599675 -0.224993
-0.340737 -0.230996 -0.224993
-0.425757 0.529851 -0.224993
-0.283686 0.180129 -0.240497
0.556712 0.665016 -0.224993
-0.233147 -0.456815 -0.240497
-0.058069 0.351331 -0.240497
0.232169 -0.166221 -0.240497
0.459496 0.498837 -0.240497
-0.44584 -0.032452 -0.224993
-0.542178 -0.373182 -0.240497
-0.148908 -0.514796 -0.240497
-0.223708 -0.644563 -0.224993
-0.065205 0.417593 -0.224993
0.569486 -0.687012 -0.224993
0.260567 -0.40489 -0.240497
-0.355483 -0.726788 -0.224993
-0.389945 -0.360205 -0.240497
-0.358832 0.715483 -0.224993
-0.433824 -0.100095 -0.224993
0.436412 -0.723317 -0.224993
-0.498168 0.073645 -0.224993
-0.270568 -0.178788 -0.224993
-0.349144 0.323478 -0.224993
0.216389 -0.330472 -0.224993
-0.461975 -0.467487 -0.224993
-0.110319 0.102189 -0.224993
0.247478 0.525945 -0.224993
0.578962 -0.59191 -0.224993
0.582072 0.139253 -0.224993
0.418012 -0.167318 -0.224993
0.155385 0.734655 -0.224993
0.007333 -0.085363 -0.224993
0.50196 -0.530164 -0.224993
0.178145 0.572255 -0.240497
0.509616 0.062057 -0.224993
-0.188952 0.558997 -0.224993
0.388331 -0.436175 -0.224993
-0.143944 -0.740068 -0.224993
0.111881 0.363106 -0.240497
0.390312 0.040385 -0.240497
-0.109969 -0.111531 -0.224993
0.51942 0.719551 -0.224993
-0.440799 0.144575 -0.240497
-0.030637 0.497139 -0.240497
0.162953 -0.503323 -0.240497
0.416633 0.315196 -0.224993
-0.035704 0.303659 -0.240497
0.066138 0.250248 -0.240497
-0.490996 0.03096 -0.224993
-0.11412 0.663621 -0.224993
-0.578498 -0.158916 -0.240497
0.295846 -0.459922 -0.240497
0.466131 0.368938 -0.240497
0.508824 -0.576297 -0.224993
0.374604 -0.599279 -0.224993
-0.156411 0.156891 -0.240497
-0.563418 0.746634 -0.224993
0.50216 0.254516 -0.240497
-0.374633 0.035256 -0.224993
-0.036484 -0.010961 -0.224993
0.06055 -0.217758 -0.224993
0.131212 -0.568469 -0.240497
-0.363028 -0.075625 -0.224993
0.03381 -0.16937 -0.224993
0.105703 0.189849 -0.224993
-0.010561 0.346268 -0.224993
-0.144237 0.082665 -0.224993
-0.09471 0.590474 -0.240497
-0.049535 -0.083235 -0.224993
-0.052367 -0.285786 -0.240497
0.471441 0.076213 -0.224993
0.157688 -0.037315 -0.224993
0.057404 -0.600192 -0.224993
-0.249325 0.708517 -0.224993
0.066084 -0.303615 -0.224993
0.427523 0.637649 -0.240497
-0.254965 0.651776 -0.224993
0.244794 -0.527574 -0.240497
0.04468 0.287713 -0.240497
0.340275 0.401133 -0.240497
0.488493 0.437844 -0.240497
0.444134 -0.57949 -0.240497
0.353353 -0.051821 -0.224993
-0.147349 -0.674274 -0.224993
0.182134 0.334456 -0.224993
0.514741 0.357047 -0.224993
-0.18395 -0.181045 -0.224993
-0.053429 0.645631 -0.240497
0.122819 0.310856 -0.224993
0.484743 0.135626 -0.224993
0.090902 0.500471 -0.224993
0.124629 -0.678262 -0.224993
-0.188067 -0.23913 -0.240497
0.554049 0.257673 -0.240497
0.317005 -0.034732 -0.240497
-0.450124 -0.174625 -0.240497
-0.013342 -0.765373 -0.224993
0.152626 0.151067 -0.240497
0.486968 -0.425086 -0.240497
-0.517345 0.60156 -0.240497
0.33839 -0.192328 -0.240497
-0.007289 -0.595916 -0.224993
-0.261325 -0.523526 -0.240497
-0.165197 0.393907 -0.224993
0.35233 0.701311 -0.240497
0.020947 0.628633 -0.240497
-0.526412 0.310474 -0.224993
0.259067 -0.656815 -0.240497
0.09822 0.557429 -0.224993
0.324761 0.194363 -0.224993
0.179227 0.290713 -0.240497
-0.070471 0.136904 -0.224993
0.204694 0.218915 -0.240497
-0.570612 0.04594 -0.224993
-0.162639 0.463215 -0.224993
-0.300935 -0.502124 -0.240497
-0.586267 0.40062 -0.240497
-0.313825 -0.725851 -0.224993
-0.460815 -0.656524 -0.224993
0.138817 -0.09223 -0.240497
0.367465 0.554465 -0.224993
0.072607 -0.718005 -0.240497
-0.095709 0.35152 -0.240497
0.490922 -0.708043 -0.224993
0.531244 -0.153287 -0.240497
0.419352 -0.096132 -0.224993
-0.342731 -0.188203 -0.240497
-0.468874 0.324968 -0.224993
-0.405027 -0.257365 -0.224993
-0.0113 0.236893 -0.224993
-0.357863 -0.020508 -0.240497
0.406529 0.382205 -0.240497
-0.506637 -0.13614 -0.224993
0.489666 -0.162592 -0.224993
-0.149784 -0.309084 -0.224993
-0.577391 0.48368 -0.224993
0.122599 -0.309561 -0.224993
0.454676 -0.119939 -0.224993
0.243129 0.259047 -0.240497
0.57469 -0.075221 -0.224993
0.028446 0.521043 -0.240497
0.262516 -0.438405 -0.224993
-0.173314 -0.103314 -0.240497
0.001799 0.404159 -0.224993
-0.014473 -0.397142 -0.240497
-0.291798 0.647688 -0.240497
-0.381469 -0.670234 -0.224993
0.087667 0.020087 -0.224993
-0.416968 0.189249 -0.224993
-0.115818 -0.768128 -0.224993
-0.410595 -0.506397 -0.240497
-0.339447 -0.434436 -0.224993
0.067939 0.701474 -0.224993
-0.587236 -0.656356 -0.240497
-0.591606 -0.70493 -0.224993
-0.219604 -0.351147 -0.224993
-0.237853 0.399081 -0.224993
0.463439 -0.759209 -0.224993
-0.577354 0.565476 -0.240497
0.374189 0.610588 -0.240497
0.552968 0.582956 -0.224993
0.437562 -0.674624 -0.224993
-0.321906 0.082696 -0.240497
-0.4328 0.563687 -0.240497
-0.214671 0.475221 -0.240497
0.008116 0.267641 -0.224993
0.31294 0.620346 -0.224993
-0.338108 -0.639963 -0.240497
0.011879 0.674363 -0.224993
0.036279 -0.716484 -0.224993
0.174812 -0.118946 -0.240497
0.059926 -0.409575 -0.224993
-0.120807 -0.619107 -0.224993
-0.37927 0.085798 -0.224993
0.277549 0.400685 -0.224993
0.361309 -0.354928 -0.240497
-0.486816 0.211005 -0.224993
0.507614 0.196779 -0.240497
-0.587857 -0.460898 -0.224993
0.263599 -0.689098 -0.224993
0.087649 0.159492 -0.240497
0.238044 -0.218612 -0.240497
0.202138 0.665505 -0.240497
-0.0459 -0.498351 -0.240497
-0.052942 -0.357414 -0.224993
0.458402 0.719172 -0.224993
-0.192031 -0.637317 -0.240497
0.465714 -0.250794 -0.240497
-0.405234 -0.331584 -0.224993
0.159484 0.604439 -0.240497
-0.252616 -0.558809 -0.240497
-0.532346 -0.493824 -0.240497
0.290332 -0.082186 -0.224993
0.150514 -0.144846 -0.224993
-0.321542 0.461065 -0.224993
-0.390145 0.743847 -0.224993
0.300413 0.166596 -0.224993
-0.375987 0.235451 -0.224993
-0.469137 0.554261 -0.240497
-0.062194 0.052274 -0.240497
-0.056036 0.225982 -0.240497
-0.581704 0.255567 -0.240497
0.266013 0.656585 -0.240497
-0.069883 -0.528559 -0.240497
-0.346879 -0.115242 -0.240497
0.08245 -0.460505 -0.240497
-0.226645 0.289556 -0.224993
-0.201103 -0.705695 -0.224993
-0.054272 0.019831 -0.224993
0.008828 -0.239883 -0.224993
0.11366 -0.188171 -0.240497
0.392047 -0.286017 -0.224993
-0.189001 -0.061804 -0.224993
0.195118 -0.423791 -0.224993
-0.322629 0.306141 -0.240497
0.317415 -0.115567 -0.224993
-0.391049 0.611381 -0.224993
-0.524207 -0.267624 -0.240497
0.389436 -0.247142 -0.240497
-0.125264 -0.565859 -0.224993
-0.164069 -0.435832 -0.240497
0.193506 0.720882 -0.224993
0.272377 0.709469 -0.224993
0.288094 -0.302571 -0.224993
0.278872 0.479979 -0.240497
-0.590482 0.354672 -0.224993
0.096612 0.101038 -0.240497
-0.359034 0.560981 -0.240497
0.0049 0.590469 -0.240497
0.171717 -0.258245 -0.224993
0.243136 0.19061 -0.224993
-0.276071 0.383945 -0.240497
0.564407 0.516467 -0.224993
-0.288852 0.27088 -0.224993
-0.44588 0.031096 -0.224993
-0.410045 0.251395 -0.224993
0.393216 0.179962 -0.240497
0.035136 -0.533717 -0.240497
-0.262381 -0.213898 -0.224993
-0.497329 -0.329193 -0.224993
0.061112 -0.107602 -0.224993
0.468812 -0.048705 -0.224993
-0.147881 0.350226 -0.240497
0.288592 -0.241358 -0.224993
-0.117024 -0.383886 -0.240497
-0.239437 0.100745 -0.240497
0.245704 0.143933 -0.224993
-0.480747 0.683754 -0.224993
0.384177 0.506498 -0.224993
0.067436 0.564452 -0.240497
-0.21359 0.047474 -0.224993
-0.228844 -0.015986 -0.224993
-0.039357 -0.614748 -0.224993
0.03805 0.1456 -0.224993
-0.484264 -0.243276 -0.224993
0.267598 0.325872 -0.240497
0.312513 0.747745 -0.240497
-0.209393 0.213488 -0.224993
-0.271617 0.03833 -0.224993
0.410758 -0.498959 -0.224993
0.401035 -0.402998 -0.240497
-0.271599 0.14825 -0.240497
0.554519 0.752206 -0.240497
-0.566698 -0.428458 -0.224993
0.407004 -0.220578 -0.224993
0.427409 0.354187 -0.240497
0.183417 0.445118 -0.240497
-0.139925 -0.149698 -0.224993
0.032862 0.317504 -0.224993
0.318076 0.349078 -0.240497
0.572204 -0.137915 -0.240497
-0.578362 -0.58838 -0.240497
0.014838 0.105996 -0.240497
-0.498347 0.12311 -0.224993
0.352142 -0.668883 -0.224993
-0.289381 -0.155315 -0.240497
-0.05876 -0.680423 -0.240497
0.492724 -0.273641 -0.224993
0.132177 0.106698 -0.224993
-0.475257 0.150005 -0.224993
-0.388097 0.655496 -0.224993
0.161949 -0.343134 -0.240497
-0.513608 0.466563 -0.224993
0.235924 -0.357967 -0.224993
-0.384217 0.202546 -0.224993
-0.213444 -0.592451 -0.240497
0.316774 0.014252 -0.224993
-0.018158 -0.30383 -0.224993
0.527387 0.613025 -0.240497
0.040936 0.076905 -0.240497
-0.240797 -0.177356 -0.240497
-0.284515 0.355431 -0.224993
0.194149 -0.538983 -0.240497
0.330903 -0.319661 -0.240497
-0.156285 -0.708946 -0.224993
0.18265 0.369662 -0.240497
0.549578 0.008562 -0.224993
0.432384 0.043584 -0.224993
0.489304 0.599113 -0.240497
0.313276 -0.624816 -0.240497
0.087012 -0.26667 -0.240497
-0.215502 -0.124164 -0.224993
-0.075704 0.669208 -0.224993
0.566277 0.170539 -0.240497
-0.591919 0.003644 -0.240497
-0.158427 0.568044 -0.240497
-0.126137 -0.239514 -0.240497
0.366075 0.431062 -0.240497
-0.207128 0.347515 -0.224993
-0.267597 -0.62745 -0.240497
0.450973 0.183711 -0.240497
0.5536 -0.573865 -0.240497
-0.341604 -0.335741 -0.240497
0.523324 -0.237288 -0.240497
-0.540554 -0.300418 -0.224993
0.141109 -0.743068 -0.224993
0.420214 0.604081 -0.224993
-0.592131 -0.260598 -0.240497
0.572905 -0.759012 -0.240497
0.241051 -0.746737 -0.224993
-0.164692 0.66808 -0.224993
0.403089 -0.336475 -0.240497
-0.165062 0.743152 -0.224993
-0.43066 0.426705 -0.224993
0.330818 -0.74372 -0.224993
0.179817 -0.629655 -0.224993
0.38774 -0.766319 -0.224993
-0.33214 0.608361 -0.240497
-0.380868 -0.772066 -0.240497
-0.595217 -0.108 -0.224993
-0.498271 -0.527276 -0.224993
0.211791 -0.602049 -0.240497
-0.486761 -0.608283 -0.224993
0.363156 0.137466 -0.240497
0.427315 0.570442 -0.224993
0.558438 -0.618131 -0.240497
0.299569 -0.168798 -0.240497
-0.068486 0.382176 -0.240497
-0.132238 0.378283 -0.224993
0.194644 0.15326 -0.224993
-0.229872 0.247185 -0.224993
-0.544416 0.173744 -0.240497
0.15561 -0.596249 -0.240497
-0.443179 -0.627528 -0.224993
-0.074467 -0.18373 -0.224993
-0.195967 0.274125 -0.240497
0.104128 -0.533191 -0.224993
0.20468 0.482399 -0.240497
0.140409 -0.460015 -0.224993
-0.08212 0.098552 -0.240497
-0.328921 0.023115 -0.240497
-0.065273 -0.212914 -0.240497
0.369005 0.670267 -0.224993
-0.298004 -0.054688 -0.240497
0.123721 0.609728 -0.240497
-0.034878 0.461295 -0.224993
-0.174484 0.617954 -0.224993
0.007922 0.202022 -0.240497
-0.185194 0.491569 -0.240497
0.446371 -0.631505 -0.240497
0.089824 -0.683115 -0.224993
-0.546009 -0.194644 -0.224993
-0.063195 0.604576 -0.224993
0.409207 0.480001 -0.240497
0.210406 -0.452438 -0.224993
-0.134653 0.49222 -0.240497
-0.172114 0.080456 -0.240497
0.531644 -0.459877 -0.224993
-0.554399 0.641345 -0.224993
-0.470406 -0.012025 -0.224993
-0.153467 -0.17411 -0.240497
-0.085875 0.530967 -0.240497
0.320367 -0.717844 -0.240497
-0.221938 -0.760102 -0.224993
0.539024 0.084037 -0.240497
0.06515 0.217211 -0.224993
-0.530167 -0.628741 -0.224993
0.30217 -0.682605 -0.224993
-0.186808 -0.524709 -0.224993
-0.503462 0.328893 -0.240497
-0.254156 -0.436468 -0.224993
-0.164082 0.288473 -0.224993
-0.503814 0.705711 -0.224993
-0.55211 -0.560042 -0.240497
0.039076 -0.649035 -0.240497
0.557199 -0.386514 -0.240497
-0.408466 -0.437004 -0.224993
-0.416672 -0.011698 -0.240497
0.111781 -0.347379 -0.224993
0.374384 -0.548834 -0.224993
0.522034 0.481449 -0.224993
-0.014286 0.164295 -0.224993
-0.288381 0.679211 -0.240497
0.429955 0.239592 -0.240497
-0.280321 -0.69743 -0.224993
0.362971 -0.425286 -0.240497
0.17901 -0.173745 -0.240497
0.434103 -0.285659 -0.240497
0.540538 0.327525 -0.240497
0.456163 0.026203 -0.240497
0.124433 -0.41002 -0.240497
-0.303714 0.537477 -0.240497
-0.007907 0.626034 -0.224993
-0.153926 0.220464 -0.240497
-0.414318 0.07061 -0.240497
-0.439247 -0.719968 -0.240497
-0.055031 -0.430985 -0.224993
0.304932 0.28765 -0.224993
0.553766 0.122046 -0.240497
0.437312 0.212577 -0.224993
0.371059 0.234508 -0.224993
0.060628 -0.334564 -0.224993
0.513427 -0.107705 -0.224993
0.116612 0.268067 -0.224993
-0.329651 0.189337 -0.240497
-0.080683 0.493698 -0.240497
-0.509763 0.571668 -0.224993
-0.139689 0.126793 -0.224993
-0.423264 -0.536254 -0.224993
0.199436 -0.065592 -0.224993
0.063932 -0.564723 -0.224993
-0.490606 -0.273851 -0.224993
0.252641 0.581029 -0.224993
0.07511 0.628315 -0.224993
-0.494695 0.660601 -0.240497
0.36115 -0.136839 -0.224993
0.568052 -0.272157 -0.240497
0.123351 0.419844 -0.224993
-0.374893 -0.506903 -0.224993
0.131095 0.224593 -0.240497
-0.22058 0.142433 -0.240497
-0.057616 0.70246 -0.224993
0.06426 -0.494403 -0.224993
-0.445046 0.634346 -0.240497
0.383363 -0.087503 -0.240497
-0.315931 -0.172604 -0.240497
-0.180706 -0.61297 -0.224993
0.164028 0.672452 -0.224993
0.146943 0.55037 -0.240497
0.179203 -0.561252 -0.224993
0.027487 0.461785 -0.224993
-0.231754 -0.233322 -0.240497
0.010759 0.36246 -0.240497
-0.421856 0.100606 -0.240497
-0.43052 -0.069389 -0.224993
-0.442831 0.198569 -0.240497
0.358054 -0.287244 -0.240497
-0.244488 0.425275 -0.240497
0.523828 -0.329325 -0.224993
0.292807 -0.045936 -0.224993
0.234684 -0.398019 -0.224993
-0.376079 0.491892 -0.224993
0.170098 -0.414735 -0.240497
0.038224 0.693507 -0.224993
0.141329 -0.698931 -0.240497
0.174308 -0.225172 -0.224993
-0.436637 0.316621 -0.240497
-0.189872 -0.211188 -0.224993
0.173579 0.08878 -0.240497
-0.52116 0.441236 -0.240497
0.315805 0.233884 -0.240497
-0.159924 -0.370107 -0.240497
-0.588407 -0.315939 -0.224993
-0.138387 0.419141 -0.224993
0.522038 0.111336 -0.224993
-0.473325 0.422904 -0.240497
-0.355125 -0.69626 -0.224993
-0.257458 0.181409 -0.224993
0.100122 0.339633 -0.224993
-0.332864 -0.272531 -0.224993
-0.073298 -0.586876 -0.240497
-0.001759 0.443989 -0.240497
0.440659 0.152387 -0.224993
0.307266 0.492631 -0.240497
-0.380841 -0.594225 -0.224993
-0.192888 0.122912 -0.240497
0.359461 -0.481373 -0.224993
0.291533 0.538352 -0.240497
0.466017 0.254815 -0.224993
-0.091299 -0.243299 -0.224993
-0.131033 0.691616 -0.224993
0.222555 0.286106 -0.240497
0.361801 -0.712895 -0.224993
0.205836 0.102254 -0.224993
-0.424502 0.702683 -0.224993
0.156678 -0.53838 -0.224993
0.486953 0.037728 -0.224993
0.304246 -0.396574 -0.224993
0.300326 -0.334468 -0.240497
0.356505 0.109986 -0.224993
-0.499083 0.183321 -0.224993
0.262073 0.068208 -0.224993
-0.379098 0.314635 -0.224993
0.264853 -0.043723 -0.240497
-0.541158 0.137829 -0.240497
-0.269672 0.541794 -0.240497
-0.264032 0.486038 -0.240497
0.235453 0.111177 -0.240497
0.227876 -0.045749 -0.224993
-0.523143 -0.390649 -0.224993
0.195313 -0.473395 -0.240497
0.193273 0.025526 -0.224993
-0.000542 0.041618 -0.224993
-0.41657 0.16242 -0.240497
-0.46875 0.286907 -0.224993
0.555566 0.387439 -0.240497
0.427382 0.529932 -0.224993
-0.131425 0.518054 -0.224993
-0.411855 -0.189152 -0.224993
-0.490531 -0.409617 -0.224993
-0.285511 -0.351275 -0.224993
-0.410163 0.575679 -0.224993
0.461193 0.692398 -0.240497
-0.132476 0.620044 -0.224993
0.206493 -0.377395 -0.240497
-0.480066 0.091592 -0.240497
0.396421 0.015644 -0.224993
-0.159848 -0.765286 -0.224993
-0.134898 -0.106794 -0.240497
-0.5111 -0.431173 -0.240497
-0.330506 0.396818 -0.240497
0.087499 0.276569 -0.224993
-0.09397 0.176072 -0.224993
0.296125 -0.52457 -0.224993
-0.35115 -0.477387 -0.224993
-0.163848 0.543139 -0.224993
0.288412 0.349888 -0.240497
0.296078 0.136472 -0.224993
-0.226438 -0.150966 -0.240497
0.224093 0.059782 -0.224993
-0.513698 -0.226927 -0.224993
-0.26102 -0.119531 -0.224993
0.52099 -0.048406 -0.240497
-0.091839 0.430512 -0.224993
0.191407 -0.333885 -0.240497
0.452677 0.636438 -0.224993
0.027015 -0.063291 -0.224993
-0.216228 -0.483705 -0.240497
0.05042 -0.283898 -0.240497
0.568452 -0.008074 -0.240497
0.566824 -0.489632 -0.224993
-0.407291 -0.562697 -0.224993
0.100354 -0.044466 -0.224993
-0.456718 -0.089753 -0.240497
-0.074479 -0.484146 -0.240497
-0.031079 -0.100208 -0.240497
-0.407233 -0.695242 -0.224993
-0.370575 -0.194086 -0.224993
-0.196284 0.304182 -0.224993
0.401189 0.28452 -0.224993
0.553476 -0.520357 -0.240497
0.479839 0.402406 -0.224993
-0.416744 -0.3835 -0.240497
0.124023 0.029131 -0.240497
0.093992 0.130918 -0.240497
0.456061 0.099311 -0.240497
-0.187963 0.412265 -0.224993
-0.003957 -0.197352 -0.240497
0.008256 -0.138826 -0.224993
-0.014102 0.286633 -0.224993
-0.453549 0.231109 -0.240497
-0.180301 -0.314458 -0.224993
0.144996 0.053204 -0.224993
0.211762 0.416259 -0.224993
0.097925 -0.427238 -0.224993
0.196596 -0.702759 -0.224993
-0.541388 0.524426 -0.224993
-0.397823 0.346523 -0.240497
-0.410726 -0.124249 -0.224993
-0.180219 0.162699 -0.224993
-0.453471 -0.059667 -0.240497
0.455614 -0.417424 -0.240497
-0.533399 0.368546 -0.240497
-0.338529 -0.162984 -0.224993
0.446427 -0.235808 -0.224993
0.330454 0.374502 -0.224993
0.142748 -0.25913 -0.224993
0.247284 0.387619 -0.240497
-0.010174 -0.326937 -0.240497
0.413336 -0.690368 -0.224993
0.238016 0.356689 -0.240497
0.484873 0.544303 -0.224993
-0.090243 -0.146366 -0.240497
-0.21012 0.615327 -0.224993
0.289504 -0.569294 -0.240497
-0.430191 -0.666459 -0.224993
-0.44021 -0.307666 -0.224993
0.004975 -0.508178 -0.240497
-0.345015 0.369813 -0.224993
-0.414702 0.130917 -0.224993
0.372318 0.485346 -0.240497
0.384151 -0.19525 -0.224993
0.420409 -0.637064 -0.224993
-0.326055 0.047605 -0.224993
-0.36147 -0.757626 -0.224993
0.512595 -0.213203 -0.224993
0.164611 -0.060459 -0.240497
0.02723 0.545165 -0.224993
-0.499048 -0.082913 -0.224993
0.469444 -0.32056 -0.240497
-0.03421 -0.379146 -0.224993
-0.022367 -0.732425 -0.240497
0.281462 0.687116 -0.240497
0.016448 -0.600229 -0.240497
-0.322777 -0.591726 -0.240497
0.010411 -0.677677 -0.224993
-0.064836 0.164204 -0.240497
0.135853 -0.331415 -0.240497
-0.568255 -0.739677 -0.224993
-0.175883 0.367001 -0.240497
0.530292 -0.758652 -0.224993
-0.134616 -0.69458 -0.240497
-0.308453 -0.565181 -0.224993
-0.252753 0.22502 -0.224993
0.479963 0.519186 -0.240497
0.307173 0.044771 -0.224993
-0.528247 -0.019604 -0.224993
-0.567136 -0.398236 -0.240497
-0.113167 -0.441951 -0.224993
0.09724 -0.296629 -0.224993
-0.45985 -0.355349 -0.240497
-0.445666 0.263762 -0.224993
0.480467 -0.103501 -0.224993
-0.04561 0.399038 -0.240497
-0.084039 0.230789 -0.240497
-0.519047 -0.5476 -0.224993
0.345012 0.619307 -0.240497
0.314441 0.421533 -0.224993
-0.495569 -0.038302 -0.224993
0.569998 -0.300419 -0.240497
-0.562421 -0.356889 -0.224993
-0.482068 -0.145865 -0.240497
-0.552386 0.253673 -0.240497
0.342547 -0.169048 -0.224993
0.568024 -0.239148 -0.240497
0.243933 -0.116991 -0.240497
0.458612 0.750047 -0.224993
-0.488788 0.395325 -0.240497
0.568166 0.641605 -0.240497
-0.550408 0.348092 -0.224993
0.146102 -0.390328 -0.240497
-0.592316 0.630568 -0.240497
-0.232074 -0.377461 -0.240497
-0.002113 -0.56122 -0.224993
0.133098 -0.213385 -0.240497
-0.048617 0.532876 -0.240497
0.33954 -0.089986 -0.240497
-0.344064 -0.039377 -0.224993
0.465196 0.439731 -0.224993
0.336155 -0.479614 -0.240497
-0.386776 -0.61827 -0.240497
-0.136692 -0.047235 -0.224993
-0.133239 0.159355 -0.224993
-0.016997 0.582498 -0.224993
-0.295226 -0.631848 -0.240497
0.191551 -0.503021 -0.224993
0.068819 0.326088 -0.240497
-0.431463 -0.575843 -0.240497
0.498266 -0.445367 -0.224993
-0.133173 -0.192435 -0.224993
0.087984 -0.133647 -0.240497
-0.025011 0.682739 -0.224993
-0.131495 -0.294857 -0.240497
-0.191007 -0.26211 -0.224993
0.338284 0.428959 -0.240497
-0.316192 -0.430352 -0.240497
0.082855 -0.406435 -0.240497
0.40356 0.433502 -0.240497
0.49257 -0.644149 -0.240497
0.208763 -0.305263 -0.240497
-0.535698 0.749135 -0.224993
-0.280795 0.066592 -0.240497
0.520949 -0.008057 -0.224993
0.071077 0.380069 -0.240497
0.43498 -0.512607 -0.224993
-0.036324 -0.248829 -0.240497
0.459544 0.301898 -0.240497
-0.109709 -0.495294 -0.240497
0.263905 0.249152 -0.224993
-0.447918 -0.197521 -0.224993
0.073244 0.081637 -0.240497
-0.526731 0.273484 -0.240497
-0.485359 -0.576348 -0.224993
-0.395805 0.377948 -0.240497
-0.251751 -0.656464 -0.240497
-0.138368 0.312469 -0.240497
-0.161432 -0.335487 -0.224993
-0.35482 0.098769 -0.224993
-0.428818 0.504923 -0.240497
-0.388393 0.455266 -0.224993
-0.299771 -0.456184 -0.224993
-0.457972 0.714622 -0.224993
0.454614 -0.378231 -0.240497
0.359543 0.723019 -0.224993
-0.221932 0.453552 -0.224993
0.227206 -0.646331 -0.240497
0.253699 -0.07012 -0.224993
0.257934 -0.559117 -0.240497
0.393363 -0.619003 -0.240497
-0.237922 -0.703716 -0.224993
0.335128 -0.51695 -0.240497
0.43279 0.505576 -0.240497
-0.584924 -0.351746 -0.240497
0.102667 0.644757 -0.240497
-0.09755 0.322932 -0.224993
-0.1273 -0.659346 -0.240497
-0.458109 -0.565075 -0.224993
-0.072081 -0.261984 -0.240497
-0.114788 0.707472 -0.240497
0.108338 -0.656091 -0.240497
-0.030735 0.35982 -0.240497
0.426859 -0.353148 -0.224993
-0.093232 0.040473 -0.224993
-0.072991 -0.314804 -0.224993
0.104576 0.079865 -0.224993
0.12542 -0.495013 -0.224993
-0.313973 0.652151 -0.224993
-0.532085 -0.740802 -0.224993
-0.098415 -0.622095 -0.240497
0.458717 -0.719966 -0.240497
0.245455 0.498654 -0.224993
0.26249 -0.333803 -0.224993
0.196317 0.585546 -0.224993
0.510779 0.422103 -0.240497
0.306948 0.111447 -0.224993
-0.233379 0.678225 -0.240497
0.068785 -0.159587 -0.224993
-0.213231 -0.184537 -0.240497
-0.085885 -0.677909 -0.240497
-0.222363 -0.434682 -0.224993
0.485163 0.656294 -0.224993
0.078265 0.655306 -0.224993
0.38293 -0.511014 -0.224993
0.3938 0.681328 -0.224993
0.361144 0.371337 -0.224993
0.490438 0.235568 -0.224993
0.017376 0.751735 -0.240497
0.510816 -0.666234 -0.240497
-0.160913 0.013903 -0.240497
0.45712 -0.484907 -0.224993
-0.470152 -0.305694 -0.224993
0.447046 -0.262895 -0.224993
-0.486198 -0.44236 -0.240497
0.574093 0.731393 -0.224993
0.045305 -0.473095 -0.240497
-0.028573 -0.458699 -0.240497
-0.319801 -0.486278 -0.224993
-0.312063 0.209898 -0.240497
-0.293283 -0.299361 -0.224993
-0.436988 -0.329574 -0.240497
0.186437 0.747597 -0.224993
-0.496723 0.609548 -0.224993
0.403092 -0.119427 -0.224993
-0.369613 -0.562167 -0.224993
0.437059 0.332832 -0.224993
0.035448 0.19369 -0.240497
-0.055852 0.678767 -0.240497
0.54649 0.731718 -0.224993
-0.512436 0.212306 -0.240497
-0.225827 0.028911 -0.240497
0.335158 -0.262942 -0.240497
0.540359 0.274791 -0.224993
0.398899 0.076376 -0.224993
0.031461 0.609408 -0.224993
0.19947 -0.000629 -0.224993
0.072773 -0.622625 -0.224993
-0.020705 -0.576578 -0.240497
0.101342 0.726981 -0.224993
0.154691 0.301557 -0.240497
0.51976 -0.350829 -0.240497
-0.21461 0.54623 -0.224993
0.482218 -0.520764 -0.240497
-0.073671 -0.696405 -0.224993
0.521939 -0.306086 -0.240497
0.23923 -0.456948 -0.240497
-0.361184 -0.654802 -0.240497
0.060337 0.128828 -0.224993
0.575056 0.562885 -0.240497
0.332557 0.719321 -0.240497
0.548306 -0.302507 -0.224993
0.10951 -0.581794 -0.224993
-0.537306 -0.137312 -0.240497
-0.464369 -0.388706 -0.240497
0.166691 0.502882 -0.240497
-0.419944 -0.742516 -0.240497
0.027065 -0.333246 -0.224993
-0.335483 -0.557876 -0.224993
-0.111131 -0.153381 -0.224993
-0.585723 -0.133229 -0.240497
0.29607 -0.493661 -0.240497
0.299196 0.472431 -0.224993
0.169073 0.19348 -0.224993
-0.185189 -0.403148 -0.240497
-0.283489 -0.209071 -0.240497
0.422595 -0.581574 -0.224993
-0.312113 0.491889 -0.224993
-0.28518 -0.609049 -0.224993
0.15108 0.441619 -0.224993
0.115166 0.289634 -0.240497
0.45958 -0.212728 -0.224993
-0.438069 0.485459 -0.224993
-0.343478 0.685401 -0.224993
-0.564334 -0.697578 -0.224993
-0.086665 0.285823 -0.224993
-0.428197 -0.259121 -0.240497
-0.159796 -0.076411 -0.224993
0.53496 -0.261726 -0.224993
-0.593745 -0.761011 -0.224993
0.488386 0.3326 -0.240497
0.207718 0.741247 -0.240497
0.401451 -0.599226 -0.224993
-0.448787 -0.512039 -0.224993
-0.254092 -0.361946 -0.240497
0.065046 -0.239228 -0.240497
0.089663 -0.199088 -0.240497
-0.482514 0.706394 -0.240497
-0.522827 -0.514517 -0.224993
-0.035898 0.183767 -0.224993
-0.275504 -0.507658 -0.224993
0.142758 -0.636829 -0.240497
-0.312943 -0.75811 -0.240497
-0.534405 -0.457581 -0.240497
-0.338723 0.582959 -0.240497
0.205019 0.60484 -0.240497
0.571924 0.436845 -0.224993
0.063564 0.461704 -0.240497
-0.341447 -0.680165 -0.240497
-0.014714 0.47962 -0.224993
0.187269 0.551969 -0.224993
0.24148 -0.703107 -0.224993
0.580862 -0.049778 -0.224993
-0.239855 -0.579675 -0.224993
-0.319624 -0.030006 -0.224993
-0.306448 0.292687 -0.224993
-0.089862 0.074479 -0.224993
0.007529 0.519035 -0.224993
0.037347 0.40733 -0.224993
0.50502 0.125215 -0.240497
-0.068632 -0.062708 -0.224993
-0.300097 0.74801 -0.240497
0.332687 -0.413333 -0.224993
-0.071361 -0.662773 -0.224993
-0.595595 -0.085102 -0.240497
0.243424 0.450109 -0.240497
-0.379454 -0.71854 -0.240497
0.274939 0.089384 -0.240497
-0.210754 -0.734199 -0.224993
-0.100491 -0.546657 -0.240497
0.253485 -0.377176 -0.224993
-0.365809 -0.106422 -0.224993
0.116827 -0.11134 -0.240497
-0.490256 -0.11599 -0.240497
0.236256 0.170933 -0.240497
-0.315974 -0.653521 -0.240497
-0.282156 -0.727362 -0.224993
0.479564 -0.579073 -0.240497
0.17362 -0.730079 -0.224993
0.306829 0.213894 -0.224993
-0.246029 -0.755645 -0.240497
0.280756 -0.668097 -0.224993
0.064453 0.721873 -0.240497
0.152355 0.642187 -0.240497
0.174722 0.167034 -0.240497
-0.535136 -0.605066 -0.240497
0.520707 0.552027 -0.224993
0.056605 0.546866 -0.224993
-0.175291 -0.700906 -0.240497
-0.478221 -0.701312 -0.224993
-0.250462 0.305404 -0.224993
0.223333 -0.116928 -0.224993
-0.253475 -0.478256 -0.224993
-0.256245 -0.046698 -0.240497
-0.531218 0.230921 -0.224993
-0.264344 -0.58994 -0.224993
-0.295234 -0.107988 -0.240497
0.015258 -0.264787 -0.224993
0.38345 -0.63697 -0.224993
0.490835 0.155217 -0.240497
-0.29145 0.402288 -0.224993
-0.218102 0.525974 -0.240497
-0.33016 -0.352707 -0.224993
-0.281689 -0.134761 -0.224993
0.498841 -0.612562 -0.224993
-0.302897 0.187136 -0.224993
0.542955 -0.17004 -0.224993
-0.293626 0.310526 -0.240497
-0.249722 0.577358 -0.240497
-0.06771 -0.343327 -0.240497
0.19321 0.39992 -0.240497
-0.39064 -0.242905 -0.240497
0.21821 0.628453 -0.240497
0.15851 -0.210175 -0.240497
-0.544449 -0.275146 -0.224993
-0.370083 0.673644 -0.224993
-0.272829 0.118643 -0.240497
0.02108 0.334051 -0.240497
0.375623 -0.459789 -0.224993
0.441521 0.375756 -0.240497
-0.228082 0.161288 -0.224993
0.471108 0.473952 -0.240497
0.325618 -0.208067 -0.224993
-0.212319 -0.227569 -0.224993
0.113031 0.457224 -0.224993
-0.422341 0.460628 -0.224993
-0.09224 0.196261 -0.240497
0.540768 -0.422314 -0.240497
0.049662 -0.381527 -0.224993
0.011892 -0.481744 -0.224993
0.124734 0.331007 -0.240497
0.268025 -0.622709 -0.240497
-0.521274 0.080453 -0.240497
0.547668 -0.050074 -0.224993
-0.374314 -0.342594 -0.224993
-0.483969 0.448385 -0.224993
-0.056215 -0.019038 -0.240497
-0.308118 -0.145966 -0.224993
0.331387 0.280107 -0.240497
0.561801 0.319543 -0.224993
0.111454 -0.020279 -0.224993
0.430824 -0.012275 -0.224993
-0.519338 0.180037 -0.240497
-0.535473 -0.695707 -0.224993
-0.519244 0.415933 -0.240497
-0.289662 -0.40463 -0.240497
-0.238729 -0.31754 -0.224993
-0.022389 -0.71086 -0.224993
0.479033 0.105714 -0.224993
0.43998 0.486838 -0.224993
0.441097 -0.19218 -0.224993
-0.219992 0.105669 -0.224993
-0.362604 0.016234 -0.240497
0.018739 -0.743764 -0.240497
0.547197 -0.698995 -0.224993
0.2546 -0.192654 -0.240497
0.22799 -0.582641 -0.240497
0.330873 -0.684803 -0.224993
0.44914 0.557691 -0.224993
-0.343392 -0.09482 -0.224993
0.482114 0.199225 -0.240497
-0.449195 0.609476 -0.240497
0.417812 0.190953 -0.240497
0.217097 0.165665 -0.224993
0.353524 0.061983 -0.224993
0.241541 0.314008 -0.224993
-0.517592 0.037442 -0.240497
0.109214 0.666315 -0.224993
0.248046 0.719337 -0.240497
-0.151655 -0.225834 -0.224993
-0.000993 0.734167 -0.224993
0.401815 0.631381 -0.240497
0.278803 0.231048 -0.240497
0.430758 -0.418391 -0.224993
-0.467635 -0.727809 -0.240497
0.523211 -0.732917 -0.224993
0.279974 -0.138639 -0.240497
-0.411628 0.01544 -0.224993
-0.041188 0.322615 -0.224993
0.200867 -0.045921 -0.240497
-0.54188 0.437532 -0.224993
-0.584411 0.210404 -0.240497
-0.318607 0.107533 -0.240497
-0.468733 -0.108014 -0.224993
0.393522 -0.143468 -0.224993
0.074005 -0.434581 -0.224993
-0.394298 0.406057 -0.224993
-0.529605 -0.349757 -0.224993
0.479339 -0.619092 -0.240497
-0.411986 0.620172 -0.240497
0.532421 -0.520441 -0.224993
0.408403 0.512467 -0.224993
0.179791 0.220159 -0.240497
-0.30312 0.088016 -0.224993
0.374627 0.530609 -0.224993
0.215255 0.345864 -0.224993
-0.121205 0.394321 -0.240497
0.138663 0.694184 -0.240497
-0.179127 0.217575 -0.240497
-0.369643 -0.374547 -0.240497
-0.108758 0.459233 -0.240497
0.450875 -0.138965 -0.240497
-0.449161 0.006503 -0.224993
0.196537 0.249456 -0.240497
0.538592 0.466859 -0.240497
-0.315195 -0.227741 -0.224993
-0.293585 0.456416 -0.224993
0.474656 -0.676512 -0.224993
0.194117 -0.118722 -0.224993
-0.510274 0.630273 -0.224993
-0.402488 -0.223987 -0.224993
0.240627 -0.148885 -0.224993
-0.05245 -0.563981 -0.240497
0.517386 0.18016 -0.224993
0.164995 -0.6846 -0.240497
-0.563056 0.586554 -0.224993
-0.170546 0.63679 -0.240497
-0.375923 0.117482 -0.224993
-0.445132 0.333864 -0.224993
-0.473417 -0.642031 -0.240497
0.188518 -0.750059 -0.224993
-0.03324 -0.126954 -0.224993
0.019774 0.289553 -0.240497
-0.254467 0.599304 -0.224993
0.382055 -0.40545 -0.224993
-0.183394 -0.087049 -0.224993
-0.587761 0.037509 -0.240497
-0.096855 -0.745116 -0.240497
-0.005715 0.18734 -0.224993
-0.549286 0.033748 -0.224993
0.041351 0.119972 -0.240497
-0.036409 0.119741 -0.240497
0.063181 0.677384 -0.224993
-0.479755 -0.531642 -0.240497
-0.199636 0.060399 -0.240497
-0.554007 0.612944 -0.240497
-0.550785 0.22733 -0.240497
0.416217 0.453518 -0.224993
0.026478 -0.444022 -0.240497
0.087503 -0.109161 -0.240497
0.222594 -0.474915 -0.240497
0.257427 0.435979 -0.224993
-0.178137 -0.034452 -0.240497
0.217474 -0.262425 -0.240497
0.108073 -0.625424 -0.224993
0.475016 -0.142667 -0.240497
0.263202 0.637939 -0.224993
-0.393126 0.227627 -0.240497
0.10643 -0.551871 -0.240497
0.328637 -0.635676 -0.224993
0.575211 0.043086 -0.224993
0.092363 -0.762096 -0.224993
0.373429 0.341203 -0.224993
0.279727 -0.185947 -0.240497
-0.489041 0.258011 -0.240497
-0.168823 -0.273228 -0.224993
0.360104 0.307042 -0.224993
-0.438031 -0.547808 -0.240497
-0.544175 -0.656872 -0.240497
0.500402 0.28232 -0.224993
-0.497968 0.233902 -0.240497
0.05532 0.347636 -0.240497
-0.304448 0.328323 -0.224993
-0.523315 0.48483 -0.240497
0.491459 0.723711 -0.224993
-0.00116 -0.662524 -0.240497
0.242572 0.057004 -0.240497
-0.478006 -0.375931 -0.224993
0.098213 -0.708589 -0.224993
0.299636 -0.124108 -0.240497
0.138556 -0.66585 -0.240497
0.046461 -0.322471 -0.240497
0.313473 -0.377289 -0.240497
-0.559848 0.300971 -0.224993
-0.109033 0.3083 -0.240497
-0.041445 -0.208631 -0.240497
-0.25378 0.250862 -0.224993
-0.123986 0.355549 -0.224993
0.164111 -0.369328 -0.240497
0.058115 0.407304 -0.240497
-0.141679 0.195923 -0.224993
-0.074847 -0.417182 -0.224993
0.530215 0.504164 -0.224993
-0.494795 0.281257 -0.224993
0.578562 0.750111 -0.240497
0.417681 -0.033858 -0.240497
-0.034007 -0.634092 -0.240497
0.331059 0.48878 -0.240497
-0.260503 -0.385175 -0.240497
0.356672 -0.455068 -0.240497
-0.526594 0.513421 -0.240497
0.199941 0.683793 -0.224993
0.542139 -0.200889 -0.224993
-0.456637 0.086053 -0.240497
-0.481598 0.130761 -0.240497
-0.212332 -0.03938 -0.240497
0.358798 0.211588 -0.224993
0.02689 0.221621 -0.224993
-0.009677 -0.119078 -0.224993
-0.334925 -0.519952 -0.224993
-0.42929 0.378483 -0.240497
-0.048273 -0.179668 -0.240497
-0.067844 -0.084047 -0.240497
0.41052 -0.457067 -0.240497
-0.346204 0.264255 -0.224993
-0.035434 -0.346542 -0.240497
0.155006 0.222996 -0.240497
-0.39367 0.028886 -0.240497
0.560344 -0.063202 -0.240497
-0.577749 0.547233 -0.224993
0.450141 -0.596707 -0.224993
0.058995 0.16704 -0.240497
0.017148 -0.53669 -0.224993
-0.008771 0.321502 -0.224993
0.09794 -0.470104 -0.224993
-0.191013 0.738241 -0.224993
0.264027 0.595249 -0.240497
0.249132 -0.172863 -0.224993
-0.397566 -0.652148 -0.240497
0.1131 0.398254 -0.224993
0.524737 0.214325 -0.240497
0.034131 -0.594872 -0.224993
-0.43147 0.054008 -0.240497
0.24338 0.333436 -0.240497
0.377514 0.59276 -0.224993
0.167921 -0.575431 -0.240497
-0.448395 0.163281 -0.224993
0.305016 0.683547 -0.240497
0.005062 0.229185 -0.240497
0.574629 0.206889 -0.224993
0.162273 -0.167024 -0.224993
-0.426537 -0.489993 -0.224993
0.441126 -0.309454 -0.224993
-0.190234 -0.42637 -0.240497
0.04159 -0.094061 -0.224993
0.238102 -0.601155 -0.224993
0.376401 0.10915 -0.240497
0.223403 0.245833 -0.240497
-0.10832 0.523234 -0.240497
0.377794 0.26844 -0.240497
-0.319963 -0.796857 0.154864
0.421405 -0.796857 0.076592
-0.044179 -0.796857 0.006673
-0.511504 -0.796857 -0.019441
0.195612 -0.776186 -0.012392
-0.267508 -0.796857 -0.079356
0.43783 -0.776186 -0.090004
0.088887 -0.796857 0.11566
-0.158298 -0.776186 0.125703
-0.476017 -0.776186 0.128796
0.035393 -0.776186 -0.127269
-0.409451 -0.776186 -0.124643
-0.374182 -0.776186 0.01384
-0.13292 -0.776186 -0.110455
0.218456 -0.796857 -0.143507
0.247516 -0.796857 0.108232
0.325677 -0.796857 -0.021333
-0.534069 -0.776186 -0.158349
-0.177025 -0.776186 0.00922
0.062827 -0.776186 -0.017141
0.336684 -0.776186 -0.128951
-0.274148 -0.776186 0.060457
0.529648 -0.796857 -0.156606
0.364845 -0.796857 0.169096
0.520008 -0.796857 0.027488
0.505896 -0.796857 0.172049
-0.327374 -0.776186 -0.1914
-0.060284 -0.776186 0.128728
0.12474 -0.776186 -0.0932
-0.050968 -0.776186 -0.167518
0.429881 -0.776186 -0.188259
-0.240765 -0.776186 -0.164986
0.524425 -0.776186 -0.062555
0.178931 -0.776186 0.157649
0.143504 -0.776186 -0.178183
-0.460296 -0.776186 0.045098
-0.566613 -0.776186 0.15915
0.128496 -0.776186 0.036608
0.33785 -0.776186 0.093694
-0.378135 -0.796857 0.096648
0.257287 -0.796857 -0.072693
-0.113172 -0.796857 -0.035343
-0.465326 -0.796857 -0.194478
0.441236 -0.776186 0.001611
-0.003736 -0.796857 0.075688
-0.436737 -0.796857 -0.045905
-0.40739 -0.776186 0.167101
-0.022306 -0.796857 -0.068264
-0.245563 -0.776186 0.150522
-0.112596 -0.796857 0.046579
-0.358277 -0.796857 -0.058782
-0.166822 -0.796857 -0.175922
-0.540633 -0.776186 0.083179
0.435667 -0.776186 0.148751
-0.549394 -0.776186 -0.081467
0.522475 -0.776186 0.101828
0.190176 -0.796857 0.063329
-0.290077 -0.796857 -0.004828
0.252827 -0.776186 0.028168
-0.398488 -0.776186 -0.204598
-0.174347 -0.776186 0.193635
0.245343 -0.776186 0.181037
-0.480008 -0.796857 -0.098952
-0.206381 -0.796857 0.082007
-0.322136 -0.796857 -0.127124
0.05515 -0.776186 0.052557
-0.18209 -0.776186 -0.056786
0.373535 -0.776186 -0.074212
0.30481 -0.776186 0.152897
0.283158 -0.796857 -0.158651
0.133193 -0.796857 -0.034023
0.362647 -0.776186 -0.186286
0.032779 -0.776186 0.134937
0.067984 -0.796857 -0.176819
0.468381 -0.796857 -0.144478
0.182606 -0.796857 -0.070412
-0.216639 -0.776186 -0.106927
0.386995 -0.796857 -0.019181
-0.107792 -0.796857 -0.189776
0.038619 -0.796857 -0.067553
-0.078346 -0.796857 -0.100496
0.355169 -0.776186 0.023925
-0.122616 -0.776186 0.169926
0.011052 -0.796857 -0.007428
0.137719 -0.776186 0.096811
-0.22562 -0.776186 -0.019091
-0.061397 -0.776186 0.055745
0.003247 -0.776186 -0.178631
-0.020322 -0.776186 0.166901
0.480033 -0.796857 0.065088
-0.231429 -0.796857 0.031307
-0.113102 -0.796857 0.101343
-0.578353 -0.776186 -0.209802
0.572465 -0.796857 -0.083898
-0.456406 -0.796857 0.202752
-0.557928 -0.776186 0.024617
-0.273123 -0.796857 0.109467
-0.160019 -0.776186 0.066259
-0.432069 -0.776186 0.099531
-0.46443 -0.776186 -0.145945
0.55123 -0.796857 0.145567
-0.523843 -0.796857 0.132295
0.303052 -0.776186 0.055101
-0.372157 -0.796857 -0.153349
-0.31905 -0.796857 0.047334
-0.327301 -0.796857 0.100245
0.256354 -0.796857 -0.214452
0.253477 -0.776186 -0.026372
0.17856 -0.776186 -0.120042
-0.49992 -0.796857 0.176681
0.324652 -0.776186 -0.220546
0.471182 -0.796857 -0.207661
-0.035188 -0.796857 -0.222195
-0.200607 -0.796857 0.155137
-0.314555 -0.776186 -0.048717
0.296734 -0.776186 -0.093969
0.564218 -0.796857 -0.011291
0.549484 -0.796857 0.066615
-0.403222 -0.796857 0.047319
-0.423268 -0.776186 -0.004022
0.083106 -0.776186 -0.135556
-0.279507 -0.776186 -0.136598
0.531729 -0.776186 -0.109925
0.124319 -0.796857 0.147639
0.493448 -0.776186 -0.006309
-0.507634 -0.776186 0.0395
0.379181 -0.776186 0.069007
-0.523537 -0.776186 -0.205777
-0.591852 -0.776186 -0.047037
-0.204057 -0.776186 -0.196056
0.081333 -0.776186 0.157262
-0.265338 -0.776186 -0.206104
0.484408 -0.776186 0.135725
-0.522648 -0.796857 -0.117694
0.381092 -0.796857 -0.148858
0.487126 -0.776186 -0.090405
-0.010427 -0.776186 0.030894
0.42357 -0.776186 -0.13407
0.393094 -0.796857 -0.214082
0.221056 -0.776186 -0.092108
-0.005074 -0.796857 -0.110705
-0.42161 -0.796857 -0.163578
0.125261 -0.796857 -0.13351
-0.443393 -0.776186 -0.228258
-0.496719 -0.796857 0.094293
0.202974 -0.796857 0.115673
0.409778 -0.776186 0.036069
0.451977 -0.796857 0.109485
-0.082534 -0.776186 -0.061022
-0.361742 -0.776186 0.056825
0.400937 -0.796857 0.129553
-0.086716 -0.776186 -0.139192
-0.171403 -0.796857 -0.101525
0.41698 -0.776186 -0.044673
0.110118 -0.796857 -0.210102
0.266047 -0.796857 0.067928
-0.438046 -0.796857 0.143129
-0.323691 -0.796857 0.199984
-0.155145 -0.796857 -0.222538
-0.473076 -0.796857 0.001926
0.024647 -0.776186 -0.238951
-0.365475 -0.776186 0.133173
0.288183 -0.776186 0.002303
0.501855 -0.776186 -0.185353
0.331535 -0.776186 -0.058805
0.143854 -0.796857 0.191109
0.041929 -0.796857 0.087325
0.565034 -0.776186 -0.192641
0.490902 -0.796857 -0.047286
-0.445726 -0.776186 -0.085948
-0.103719 -0.776186 4.2e-05
-0.222828 -0.796857 -0.227395
0.513693 -0.796857 -0.222755
0.284453 -0.796857 0.18293
-0.567499 -0.796857 0.198852
-0.394156 -0.776186 -0.054119
-0.567803 -0.776186 -0.118841
-0.015122 -0.776186 -0.032857
0.088563 -0.796857 0.007723
-0.211137 -0.796857 -0.144966
0.038221 -0.796857 -0.205927
0.31933 -0.776186 -0.166353
-0.095196 -0.796857 0.192684
-0.341707 -0.796857 -0.000557
0.255597 -0.796857 -0.126193
0.004431 -0.796857 0.192175
0.180997 -0.796857 0.023436
-0.484637 -0.776186 -0.064091
0.566773 -0.776186 0.104607
0.291285 -0.776186 -0.04148
-0.04972 -0.796857 -0.132593
-0.216294 -0.796857 0.195891
0.098357 -0.796857 0.076369
-0.222318 -0.796857 0.121213
-0.124702 -0.796857 -0.073585
0.318139 -0.796857 0.121378
-0.557267 -0.776186 0.120522
-0.548588 -0.796857 -0.033586
0.22174 -0.796857 -0.182994
0.405228 -0.796857 -0.098801
-0.012566 -0.776186 0.128079
-0.072542 -0.796857 -0.028874
0.185743 -0.776186 0.196559
0.213118 -0.796857 0.153751
0.529923 -0.796857 0.20326
0.367665 -0.776186 0.126324
-0.073649 -0.796857 0.09817
-0.490239 -0.796857 -0.224543
0.148605 -0.776186 -0.216857
0.329703 -0.796857 -0.093229
0.564921 -0.776186 -0.130212
-0.57312 -0.796857 0.088698
0.20921 -0.776186 -0.048741
-0.071456 -0.776186 0.170018
0.564475 -0.796857 0.183318
-0.356445 -0.796857 -0.21894
-0.238005 -0.776186 0.090399
-0.074438 -0.776186 -0.198179
-0.293187 -0.776186 -0.172659
-0.139553 -0.776186 -0.158291
-0.143534 -0.776186 -0.023906
-0.35683 -0.796857 0.164637
-0.190329 -0.796857 0.038336
0.131737 -0.776186 -0.001316
0.27822 -0.776186 0.117102
0.517842 -0.776186 0.062442
-0.208488 -0.796857 -0.076085
-0.262606 -0.776186 0.011354
0.388997 -0.796857 0.200225
0.092451 -0.776186 -0.073457
-0.294561 -0.776186 0.132297
-0.393559 -0.796857 -0.022856
0.316013 -0.796857 0.026674
-0.387184 -0.796857 -0.084459
-0.250981 -0.796857 -0.045857
0.022838 -0.776186 -0.040761
0.071192 -0.796857 -0.049355
-0.581175 -0.796857 -0.00775
-0.357584 -0.776186 -0.026818
0.358587 -0.776186 -0.030719
0.460586 -0.796857 -0.068433
-0.536867 -0.796857 0.17613
-0.495822 -0.776186 -0.165304
-0.30776 -0.796857 -0.217477
-0.335343 -0.796857 -0.162034
-0.46061 -0.776186 -0.027116
-0.364054 -0.796857 -0.117554
-0.548844 -0.796857 0.054188
0.161201 -0.776186 -0.049346
0.172771 -0.796857 -0.184239
0.580571 -0.796857 -0.228619
-0.037572 -0.776186 -0.10536
0.429227 -0.796857 0.187135
0.490618 -0.776186 0.02997
-0.326899 -0.796857 -0.076058
0.52908 -0.796857 -0.017593
0.557121 -0.776186 0.016893
-0.192079 -0.796857 -0.029672
-0.181924 -0.776186 0.097372
0.151886 -0.796857 -0.102856
-0.461274 -0.796857 0.094735
-0.576312 -0.796857 -0.181194
-0.511737 -0.776186 -0.086651
-0.401054 -0.796857 -0.233036
-0.437393 -0.776186 -0.187289
0.053632 -0.796857 0.010505
-0.266873 -0.776186 0.178322
-0.117866 -0.796857 -0.134277
0.390298 -0.796857 0.015789
0.183864 -0.796857 -0.147643
0.469619 -0.776186 -0.172269
0.018872 -0.796857 0.160681
0.467887 -0.796857 0.014134
0.073415 -0.776186 -0.218965
0.32738 -0.796857 -0.192808
0.454177 -0.796857 -0.022746
-0.439414 -0.776186 0.17972
-0.493382 -0.796857 -0.137989
-0.539034 -0.796857 0.00096
-0.414401 -0.776186 0.128846
0.045215 -0.776186 0.166804
0.219383 -0.776186 0.022374
0.394651 -0.776186 -0.175005
-0.256978 -0.796857 -0.121904
0.16137 -0.796857 -0.015234
0.264791 -0.776186 0.153403
-0.116403 -0.796857 0.143995
0.110397 -0.776186 -0.182832
-0.275649 -0.796857 0.150503
0.353258 -0.796857 0.050068
0.15138 -0.796857 0.128287
-0.334837 -0.776186 -0.100876
0.460763 -0.776186 0.047627
-0.14521 -0.796857 0.093024
-0.509917 -0.796857 -0.052525
0.529203 -0.796857 -0.189695
-0.028072 -0.776186 0.199009
0.251209 -0.776186 -0.189372
0.545076 -0.796857 -0.047491
0.486016 -0.796857 -0.115937
-0.087465 -0.796857 -0.226463
-0.231157 -0.796857 -0.195905
0.428288 -0.776186 0.101175
-0.333102 -0.796857 -0.031808
-0.074878 -0.776186 0.02629
-0.467927 -0.796857 0.171984
-0.23954 -0.776186 0.0548
-0.407561 -0.796857 0.083312
0.212044 -0.776186 0.092586
-0.155137 -0.796857 -0.129412
0.108443 -0.776186 -0.033676
0.498858 -0.796857 0.109114
0.343657 -0.796857 -0.152404
-0.050625 -0.796857 0.157206
0.467951 -0.796857 0.153773
-0.182715 -0.796857 0.125192
-0.306844 -0.776186 0.012923
0.341974 -0.776186 0.177615
-0.455568 -0.796857 -0.123238
-0.335904 -0.776186 0.029748
0.078239 -0.776186 -0.102058
-0.361482 -0.796857 -0.187412
-0.02614 -0.796857 -0.153908
-0.170168 -0.776186 0.155143
0.123344 -0.776186 0.067887
-0.291353 -0.776186 -0.10724
0.355838 -0.776186 -0.225678
0.008398 -0.776186 0.09626
0.405274 -0.776186 0.174865
-0.282269 -0.776186 -0.060816
-0.045325 -0.796857 0.038397
-0.186611 -0.796857 -0.237209
0.194149 -0.796857 -0.102383
0.157485 -0.776186 0.024158
0.009437 -0.776186 0.056219
-0.355437 -0.776186 0.087441
-0.059172 -0.796857 -0.059701
-0.097109 -0.796857 0.073666
0.423825 -0.796857 -0.066873
0.30624 -0.776186 -0.138225
-0.147574 -0.776186 0.037862
0.154103 -0.796857 0.159131
-0.33423 -0.776186 0.179524
0.048288 -0.776186 -0.155386
0.440902 -0.796857 -0.119308
-0.56932 -0.796857 -0.092244
-0.211659 -0.796857 0.007902
0.050552 -0.776186 0.108227
0.364811 -0.796857 -0.122918
0.332618 -0.776186 0.140065
0.526557 -0.776186 0.163324
0.159211 -0.796857 0.090543
0.511221 -0.796857 0.142084
0.362965 -0.796857 -0.000539
0.022538 -0.796857 -0.145299
-0.486872 -0.776186 -0.19945
-0.286769 -0.776186 -0.227305
-0.338074 -0.796857 0.130797
-0.571118 -0.796857 -0.05403
-0.593739 -0.796857 0.178379
0.456383 -0.776186 0.191255
-0.036243 -0.776186 0.07215
-0.297397 -0.776186 0.04137
0.081879 -0.776186 0.039005
-0.049061 -0.796857 -0.189032
-0.015843 -0.776186 -0.002977
0.473292 -0.776186 0.106648
-0.367051 -0.796857 0.035999
-0.397994 -0.776186 -0.152155
-0.044583 -0.776186 -0.028627
0.416442 -0.796857 -0.017156
0.102789 -0.796857 0.047245
-0.550389 -0.776186 -0.218878
-0.493469 -0.776186 0.006368
-0.154378 -0.776186 -0.066189
-0.3087 -0.776186 0.091139
0.568976 -0.796857 0.03891
0.571777 -0.776186 0.147197
0.471559 -0.796857 -0.237085
-0.123875 -0.776186 -0.052853
-0.093114 -0.776186 0.105957
-0.141033 -0.796857 0.057286
0.063307 -0.776186 0.134317
0.416116 -0.776186 -0.229996
0.290376 -0.796857 0.083671
0.105951 -0.776186 -0.154238
-0.443185 -0.796857 -0.016825
-0.14835 -0.796857 0.179428
-0.488273 -0.776186 0.197644
0.334569 -0.776186 0.003873
0.023304 -0.776186 0.198287
0.224747 -0.796857 -0.060935
-0.194731 -0.776186 0.066082
0.357979 -0.796857 -0.089168
0.17366 -0.776186 -0.164587
0.116325 -0.796857 0.107952
-0.465246 -0.796857 -0.06587
-0.233813 -0.776186 -0.054895
-0.378463 -0.776186 -0.130457
0.051437 -0.776186 -0.081976
0.552271 -0.776186 -0.090536
-0.097801 -0.776186 0.156516
-0.091805 -0.776186 -0.176025
-0.122145 -0.776186 0.084599
0.239687 -0.776186 -0.136609
0.211429 -0.796857 0.181785
-0.007165 -0.776186 -0.079748
-0.305249 -0.796857 0.178824
-0.379785 -0.796857 0.184022
-0.248739 -0.776186 -0.082007
-0.588652 -0.776186 0.075416
-0.338338 -0.776186 -0.136918
-0.303299 -0.776186 -0.023074
0.27727 -0.796857 0.139276
0.09221 -0.776186 0.09713
0.185312 -0.776186 0.100554
-0.550002 -0.796857 -0.172145
-0.024421 -0.776186 -0.181559
0.577256 -0.776186 -0.155148
-0.427491 -0.796857 0.033734
0.578272 -0.796857 -0.177959
-0.12337 -0.776186 0.019646
0.266782 -0.796857 0.016104
0.528105 -0.776186 0.128945
0.110826 -0.796857 -0.072127
-0.406339 -0.796857 -0.186658
-0.351338 -0.796857 0.200406
-0.525402 -0.776186 0.114018
-0.300244 -0.796857 -0.069135
0.272138 -0.776186 -0.061274
-0.43331 -0.776186 -0.110485
0.086513 -0.796857 -0.231461
-0.566918 -0.776186 0.050573
