-0.584673 0.042227 -0.257699
-0.283106 0.524731 -0.240128
-0.288036 -0.48499 -0.257699
-0.327188 -0.316876 -0.257699
-0.217331 0.405414 -0.257699
0.180874 -0.06281 -0.240128
-0.313931 0.323222 -0.240128
0.282105 0.22637 -0.257699
0.090113 0.46644 -0.240128
-0.427668 0.068755 -0.257699
-0.241521 -0.502896 -0.257699
-0.366296 -0.384941 -0.240128
0.072955 -0.492514 -0.240128
0.535074 -0.405243 -0.240128
-0.304065 -0.110436 -0.240128
0.4297 0.287623 -0.240128
-0.446133 -0.035305 -0.257699
-0.049987 0.373914 -0.240128
0.17669 -0.020476 -0.257699
-0.045064 -0.592118 -0.257699
-0.360832 0.598054 -0.240128
0.064353 -0.430382 -0.240128
-0.332331 0.383398 -0.257699
-0.094106 0.622234 -0.257699
0.569208 -0.55636 -0.257699
-0.066778 0.284744 -0.257699
-0.302532 0.678311 -0.240128
0.040177 0.164365 -0.257699
-0.054388 -0.293978 -0.257699
0.666776 0.327363 -0.240128
-0.290707 -0.164566 -0.257699
0.571041 0.557438 -0.240128
-0.436646 0.257602 -0.240128
-0.378774 0.166636 -0.240128
0.170235 0.0247 -0.240128
-0.488495 -0.565395 -0.240128
-0.417656 -0.039786 -0.240128
-0.337569 -0.264151 -0.257699
0.272208 -0.459912 -0.240128
-0.542384 0.659716 -0.240128
0.166078 0.328338 -0.240128
-0.339586 0.466905 -0.240128
0.428929 -0.205582 -0.257699
0.223828 -0.182508 -0.240128
-0.104523 0.32092 -0.240128
-0.470349 0.578473 -0.257699
0.162743 0.137969 -0.240128
-0.352389 -0.04047 -0.257699
-0.203433 -0.077139 -0.257699
-0.328779 0.591864 -0.240128
-0.200742 -0.128775 -0.257699
0.256725 0.555023 -0.257699
0.094648 0.381317 -0.257699
-0.558758 0.009375 -0.257699
0.110886 0.568895 -0.257699
0.420767 0.367623 -0.257699
0.238238 -0.462493 -0.240128
-0.037102 0.342471 -0.257699
0.231933 0.515104 -0.257699
-0.205439 0.229472 -0.240128
0.036424 0.144814 -0.240128
-0.430941 -0.113116 -0.257699
0.044931 -0.607764 -0.240128
0.484859 0.404601 -0.257699
-0.290996 -0.23906 -0.257699
-0.29752 -0.458812 -0.257699
-0.413197 0.047512 -0.257699
0.498414 0.350647 -0.257699
-0.082538 -0.506354 -0.257699
0.618547 -0.465479 -0.257699
-0.503925 -0.078193 -0.257699
0.04795 0.063466 -0.257699
-0.011414 0.194835 -0.257699
-0.530386 0.068975 -0.257699
-0.252278 0.429368 -0.257699
0.567811 -0.297227 -0.240128
-0.142379 -0.154141 -0.240128
-0.117144 -0.494554 -0.257699
0.516108 -0.501298 -0.240128
0.099976 -0.521717 -0.240128
-0.31088 0.170632 -0.257699
-0.272377 -0.456603 -0.240128
0.596825 -0.255499 -0.257699
-0.402393 -0.402983 -0.240128
0.195006 -0.425754 -0.257699
0.146761 0.274652 -0.257699
0.282584 0.375425 -0.257699
-0.280572 -0.202322 -0.257699
-0.241415 0.162219 -0.240128
-0.631263 0.126091 -0.257699
-0.406921 -0.094119 -0.257699
0.134468 -0.054965 -0.240128
-0.009012 -0.524358 -0.240128
0.350024 -0.068577 -0.240128
0.524365 0.600672 -0.257699
-0.60636 -0.193468 -0.257699
-0.640717 0.545823 -0.257699
-0.045996 -0.453044 -0.257699
-0.053455 -0.169954 -0.240128
-0.124627 0.286556 -0.240128
0.585246 0.204914 -0.240128
0.181561 -0.51571 -0.240128
0.068588 0.334913 -0.257699
-0.110965 -0.000335 -0.240128
0.099803 -0.029167 -0.257699
-0.118511 -0.564994 -0.257699
-0.616668 -0.241752 -0.240128
-0.433151 -0.168184 -0.240128
-0.61934 -0.602314 -0.257699
-0.218901 0.056878 -0.257699
-0.622799 0.527727 -0.257699
0.065994 0.649264 -0.257699
-0.359863 -0.225563 -0.257699
0.337867 0.603612 -0.257699
0.110322 0.181681 -0.240128
-0.581736 -0.114829 -0.257699
0.190475 0.132017 -0.240128
0.421508 -0.162746 -0.240128
0.488952 0.571501 -0.257699
0.076453 0.046828 -0.257699
0.527714 0.129925 -0.257699
0.541646 0.576314 -0.257699
0.075491 0.519776 -0.240128
-0.488648 -0.115035 -0.257699
0.045408 0.587599 -0.257699
0.013406 0.3817 -0.240128
0.510355 -0.086441 -0.240128
-0.360344 0.207108 -0.257699
0.482731 -0.170445 -0.240128
0.573939 0.155107 -0.257699
0.13508 0.064407 -0.257699
-0.480894 -0.236106 -0.240128
-0.114197 0.644769 -0.257699
0.628161 -0.406956 -0.240128
-0.553159 0.21438 -0.257699
0.360397 -0.567615 -0.240128
-0.456596 0.355225 -0.240128
0.266906 -0.628662 -0.240128
-0.3271 0.644623 -0.257699
-0.566512 0.676448 -0.257699
-0.445728 -0.636568 -0.240128
-0.405514 -0.622529 -0.257699
-0.534579 -0.562575 -0.257699
0.017406 0.016993 -0.257699
0.506308 -0.34703 -0.240128
-0.514574 -0.436942 -0.257699
0.056072 -0.321785 -0.257699
0.045597 -0.388889 -0.257699
-0.144935 -0.474907 -0.257699
-0.506531 0.432389 -0.240128
-0.088834 0.52439 -0.240128
0.425641 0.153958 -0.257699
0.415425 0.457508 -0.257699
-0.282626 0.051202 -0.257699
-0.263152 0.061152 -0.240128
-0.373339 0.022708 -0.257699
0.428871 -0.252568 -0.240128
0.64806 -0.428723 -0.240128
0.197406 -0.001639 -0.240128
-0.514622 0.575871 -0.257699
-0.55055 -0.621344 -0.257699
0.450778 0.0387 -0.257699
0.224718 0.067635 -0.257699
-0.594988 0.337099 -0.257699
-0.174051 0.410894 -0.257699
-0.011444 0.383201 -0.240128
0.137552 -0.62005 -0.240128
-0.525388 -0.175396 -0.257699
0.006764 -0.11142 -0.257699
0.559731 0.066648 -0.240128
0.338677 0.250708 -0.257699
-0.405455 -0.472544 -0.257699
-0.495271 0.550685 -0.257699
0.16099 -0.220077 -0.257699
-0.068567 0.338572 -0.257699
0.380258 0.36651 -0.257699
-0.370658 -0.148554 -0.257699
-0.157851 -0.49027 -0.240128
0.56149 -0.071513 -0.240128
0.225455 -0.067028 -0.257699
0.111552 0.204979 -0.257699
0.129223 0.361519 -0.240128
0.592745 0.420998 -0.240128
0.594398 0.124745 -0.257699
-0.59989 0.595843 -0.257699
-0.100075 0.01412 -0.257699
0.437339 -0.38454 -0.240128
-0.0427 0.003185 -0.240128
-0.371111 -0.194406 -0.257699
0.140174 0.679071 -0.257699
0.470008 -0.526666 -0.257699
0.21103 0.410056 -0.257699
0.151529 0.100857 -0.257699
-0.000192 -0.285992 -0.240128
-0.624845 -0.089626 -0.240128
-0.477149 0.513031 -0.240128
-0.202719 -0.043224 -0.257699
-0.335851 -0.199432 -0.257699
0.27917 -0.375061 -0.257699
0.64683 -0.159392 -0.240128
-0.088988 0.100232 -0.240128
-0.473954 0.015372 -0.257699
-0.51563 0.214945 -0.240128
0.306348 -0.339378 -0.257699
-0.36435 -0.465896 -0.257699
-0.243084 -0.332495 -0.257699
-0.43383 -0.538217 -0.240128
0.401305 0.514795 -0.257699
0.45772 0.522438 -0.257699
-0.095635 -0.347317 -0.240128
0.276772 0.625928 -0.257699
0.549038 -0.592043 -0.257699
-0.628631 -0.314541 -0.240128
-0.024761 -0.148023 -0.240128
-0.425382 0.013958 -0.257699
0.507809 -0.59961 -0.257699
0.592077 0.154911 -0.240128
-0.033413 -0.062109 -0.240128
-0.271584 -0.427991 -0.240128
-0.593135 0.407448 -0.257699
0.33019 0.138849 -0.240128
0.633552 -0.593913 -0.257699
-0.143795 -0.044949 -0.240128
0.66961 -0.450305 -0.240128
-0.204941 -0.394053 -0.240128
0.514689 0.231665 -0.257699
-0.24802 0.661581 -0.257699
0.092924 0.013226 -0.257699
0.033518 0.463601 -0.257699
0.550079 0.336089 -0.257699
0.565379 0.234707 -0.240128
0.582099 -0.017454 -0.240128
0.41785 0.194772 -0.240128
0.311178 0.400155 -0.240128
0.385281 -0.543818 -0.240128
-0.463911 0.618937 -0.240128
0.131721 0.3939 -0.240128
-0.472431 -0.286814 -0.240128
0.43333 0.388367 -0.240128
-0.569096 -0.172404 -0.240128
0.167483 0.580988 -0.240128
0.243391 -0.320281 -0.240128
0.456982 -0.298697 -0.257699
-0.578424 -0.349541 -0.240128
-0.016904 -0.336782 -0.240128
-0.390128 0.428852 -0.240128
-0.507931 -0.050787 -0.240128
0.519374 -0.628781 -0.240128
-0.484889 -0.044314 -0.257699
-0.455812 -0.502959 -0.240128
0.062346 -0.605798 -0.257699
0.180185 0.529801 -0.257699
0.466393 0.387131 -0.240128
0.371635 0.668576 -0.240128
0.377313 -0.410154 -0.240128
-0.511343 -0.34651 -0.257699
-0.427195 0.231685 -0.240128
0.36536 0.343854 -0.257699
0.309921 0.32485 -0.240128
-0.438157 0.205681 -0.257699
-0.087788 -0.199098 -0.257699
0.468284 0.145261 -0.240128
0.359156 0.082552 -0.240128
0.073054 0.085786 -0.240128
0.291661 0.565856 -0.240128
-0.279796 0.015756 -0.257699
0.089696 -0.378695 -0.240128
-0.46789 0.210179 -0.257699
0.642193 0.046108 -0.257699
0.179612 -0.189204 -0.257699
-0.317404 -0.435823 -0.240128
-0.307548 0.455247 -0.257699
-0.579091 -0.232513 -0.257699
-0.050449 0.463477 -0.257699
0.641622 -0.193945 -0.257699
-0.006943 0.095559 -0.257699
0.113065 0.087182 -0.257699
0.410395 0.123195 -0.257699
0.608991 0.423856 -0.257699
0.423342 -0.035352 -0.240128
0.490588 0.16971 -0.240128
-0.479352 -0.445576 -0.257699
-0.156205 0.640013 -0.257699
-0.589504 -0.405356 -0.240128
-0.03625 0.629733 -0.257699
0.257942 0.37132 -0.257699
0.716884 -0.666093 0.142527
-0.361715 -0.673453 -0.279534
0.255659 -0.668398 -0.281127
-0.410424 -0.673453 0.214742
-0.04632 -0.673453 -0.038316
-0.684292 -0.673453 -0.019435
0.468341 -0.650025 -0.054001
-0.10347 -0.668683 -0.281127
-0.423542 -0.650025 -0.038988
0.483923 -0.673453 -0.277888
0.686961 -0.673453 -0.074904
0.124361 -0.650025 -0.134642
-0.227225 -0.673453 0.018719
-0.577226 -0.650025 0.145106
0.55164 -0.650025 0.09682
0.018798 -0.650025 0.128218
-0.552238 -0.673453 -0.143285
0.381386 -0.673453 0.08573
0.303081 -0.673453 -0.126064
-0.236711 -0.673453 0.1759
-0.173362 -0.673453 -0.14303
0.564476 -0.673453 -0.155628
-0.348211 -0.673453 0.090208
-0.309039 -0.673453 -0.150328
-0.551118 -0.673453 0.003226
-0.109482 -0.650025 0.0862
0.100729 -0.673453 0.006637
0.2524 -0.673453 0.156936
-0.033289 -0.650025 -0.171895
-0.687751 -0.673453 0.183132
0.412283 -0.650025 -0.166102
0.143826 -0.650025 0.121774
0.371562 -0.650025 -0.280888
0.476046 -0.673453 0.191293
-0.458397 -0.650025 0.102509
0.322837 -0.673453 -0.010818
0.600777 -0.653232 -0.281127
0.209921 -0.673453 -0.065011
-0.418638 -0.673453 -0.168966
0.689234 -0.673453 -0.183049
0.142237 -0.673453 -0.250383
0.567832 -0.650025 -0.012796
0.618544 -0.673453 0.174465
-0.327121 -0.673453 -0.010943
0.034905 -0.650025 -0.090052
0.46883 -0.650025 0.043831
-0.077248 -0.650025 0.18649
-0.673778 -0.673453 -0.219192
-0.146114 -0.673453 -0.03106
0.051349 -0.673453 -0.203127
-0.571264 -0.673453 -0.260196
0.002944 -0.673453 0.042404
-0.501294 -0.650025 0.192652
-0.327131 -0.650025 0.194036
0.06204 -0.673453 0.201222
0.384702 -0.650025 -0.077319
0.335815 -0.650025 0.160709
-0.017766 -0.673453 -0.27399
-0.580107 -0.673453 0.234712
0.286665 -0.673453 0.065989
-0.502454 -0.673453 -0.07485
-0.110685 -0.673453 -0.198223
0.293428 -0.673453 -0.207142
0.488025 -0.673453 -0.182061
-0.185657 -0.673453 -0.278907
-0.160187 -0.650025 0.1715
-0.473796 -0.650025 0.023879
0.407229 -0.673453 -0.001421
-0.247937 -0.673453 -0.202744
0.614705 -0.650025 -0.097999
-0.441922 -0.670542 -0.281127
-0.62772 -0.673453 -0.12404
-0.097622 -0.650025 -0.088922
0.461595 -0.673453 0.116934
0.643559 -0.673453 0.103302
-0.587283 -0.673453 0.076344
-0.344018 -0.650025 -0.090918
-0.400787 -0.673453 0.039973
0.218168 -0.673453 0.089031
0.410072 -0.650025 0.174467
-0.290151 -0.666287 -0.281127
0.131954 -0.650025 -0.063354
0.209253 -0.650025 -0.230085
-0.480362 -0.650025 -0.138427
-0.221233 -0.673453 0.106537
0.194586 -0.673453 0.198118
-0.292755 -0.650025 0.045881
0.638984 -0.673453 -0.019746
-0.628139 -0.650025 0.01591
-0.397155 -0.650025 0.149928
0.55605 -0.650025 0.195979
0.716884 -0.670355 -0.00873
0.55126 -0.673453 -0.079883
-0.353554 -0.673453 -0.203821
-0.287867 -0.650025 0.115613
-0.646543 -0.673453 0.126062
0.662312 -0.673453 -0.25988
-0.275335 -0.673453 -0.065632
-0.043251 -0.673453 0.113097
-0.521364 -0.650025 0.076778
0.371985 -0.673453 -0.215053
-0.610512 -0.650025 -0.184662
-0.081729 -0.650025 0.013643
0.179055 -0.673453 -0.005597
-0.014768 -0.673453 0.182847
-0.683843 -0.650833 -0.281127
-0.589705 -0.673453 -0.051136
0.49332 -0.650025 -0.11495
0.630034 -0.650025 -0.198853
0.090276 -0.673453 0.092132
0.278893 -0.673453 -0.065273
-0.170581 -0.650025 -0.219743
0.165724 -0.650025 0.059654
0.069029 -0.673453 -0.270086
0.019623 -0.673453 -0.033263
-0.688819 -0.652766 -0.106921
0.117026 -0.650025 -0.19791
0.121088 -0.673453 0.180132
0.716884 -0.654987 0.074728
0.509824 -0.673453 -0.010046
-0.036779 -0.673453 -0.100202
-0.419111 -0.650025 -0.11146
0.539602 -0.673453 -0.243995
-0.625737 -0.673453 0.193491
-0.510193 -0.673453 -0.237514
-0.23033 -0.650025 0.231553
-0.158198 -0.650025 -0.089924
0.569322 -0.673453 0.042065
0.268478 -0.650025 -0.005048
-0.1382 -0.673453 0.039998
-0.441344 -0.650025 -0.218357
0.362132 -0.673453 -0.145253
0.338362 -0.650025 0.050713
0.276734 -0.673453 0.210406
0.054449 -0.673453 -0.144539
-0.254885 -0.673453 -0.120573
-0.106295 -0.650025 -0.145684
-0.051884 -0.650025 0.062023
0.312217 -0.670734 -0.281127
0.57008 -0.673453 0.144778
-0.508548 -0.673453 0.141786
-0.3721 -0.650025 -0.14741
-0.165712 -0.650025 0.084935
0.297425 -0.673453 0.123389
-0.688819 -0.668319 0.036499
-0.553234 -0.650025 -0.194141
0.712313 -0.673453 -0.124798
-0.6263 -0.673453 -0.250543
0.716884 -0.664784 -0.251712
0.653086 -0.673453 -0.141118
0.184323 -0.650025 -0.113523
-0.27093 -0.650025 -0.005221
-0.486193 -0.673453 -0.188067
0.079542 -0.650025 0.140278
0.056691 -0.673453 0.049821
-0.121278 -0.673453 0.133286
-0.375759 -0.673453 -0.04751
0.187847 -0.673453 0.141986
-0.642369 -0.673453 -0.067671
0.61651 -0.650025 0.035333
-0.295855 -0.650025 -0.231026
-0.373363 -0.650025 0.001424
0.440558 -0.650025 -0.115952
-0.207272 -0.673453 -0.072567
0.070789 -0.673453 -0.04539
-0.239968 -0.673453 -0.267757
-0.394453 -0.650025 0.096465
0.427377 -0.650025 0.078421
-0.472667 -0.673453 -0.032167
0.571248 -0.650025 -0.201594
0.339609 -0.673453 -0.085013
-0.448018 -0.673453 0.179851
0.090366 -0.650025 -0.096563
-0.337338 -0.673453 0.039571
0.381299 -0.650025 0.132907
-0.097986 -0.650025 -0.038465
-0.253945 -0.673453 0.068152
0.010267 -0.650025 -0.14019
0.612804 -0.673453 0.225664
-0.285225 -0.673453 0.20861
-0.582577 -0.673453 -0.103148
-0.521395 -0.651687 -0.281127
0.32633 -0.650025 -0.178779
0.417747 -0.667284 -0.281127
0.247295 -0.673453 -0.121939
0.455821 -0.673453 0.003145
0.201911 -0.673453 -0.271739
-0.670076 -0.673453 -0.171087
0.042936 -0.650025 0.001791
-0.543688 -0.650025 -0.067187
-0.357473 -0.673453 0.162875
-0.461197 -0.650025 -0.080512
0.507754 -0.673453 0.058428
-0.535385 -0.673453 0.21818
-0.453472 -0.673453 0.06007
-0.023009 -0.650025 -0.004034
-0.119937 -0.650025 0.207449
0.427797 -0.673453 -0.044235
0.603818 -0.673453 -0.051564
-0.294127 -0.650025 -0.108178
-0.56916 -0.650025 0.19486
0.655593 -0.650025 0.157075
0.533074 -0.650025 0.023733
0.514839 -0.650025 -0.05886
0.245818 -0.673453 -0.19688
0.246905 -0.673453 0.041511
0.347958 -0.650025 -0.04218
-0.206111 -0.673453 0.060116
0.585791 -0.673453 -0.240359
-0.01599 -0.650025 -0.066139
-0.010153 -0.673453 -0.204328
0.013709 -0.650025 0.080739
0.682827 -0.650025 -0.224387
0.096153 -0.673453 -0.163605
-0.180413 -0.673453 0.022138
-0.688819 -0.670676 -0.06497
0.370896 -0.650025 0.012601
-0.064177 -0.673453 -0.195534
-0.628816 -0.650025 -0.029316
-0.54415 -0.673453 0.108023
0.452838 -0.673453 -0.239534
0.134637 -0.673453 0.082331
-0.688819 -0.666757 0.112238
0.40641 -0.673453 0.046438
-0.070309 -0.650025 0.142301
0.012746 -0.650025 0.211563
0.140996 -0.650025 -0.004809
-0.218833 -0.673453 -0.151644
0.516885 -0.650025 0.174628
-0.057601 -0.650025 -0.134523
-0.317729 -0.650025 -0.191437
0.318098 -0.650025 0.230707
0.677302 -0.673453 0.066651
0.418431 -0.673453 0.137807
-0.524177 -0.650025 -0.118498
0.600501 -0.650025 0.123261
-0.587806 -0.650025 -0.003006
0.326202 -0.673453 -0.239614
0.39242 -0.650025 -0.12389
0.56333 -0.650025 -0.118676
-0.273468 -0.650025 0.173042
0.457845 -0.650025 -0.160926
-0.234838 -0.650025 -0.039324
0.442244 -0.650025 -0.202545
0.498354 -0.650025 0.226617
-0.199127 -0.673453 0.212372
0.044978 -0.650025 0.169409
-0.358191 -0.673453 0.212104
0.136034 -0.673453 -0.1008
0.24675 -0.673453 -0.033476
-0.348779 -0.650025 0.12818
-0.138279 -0.673453 -0.235029
-0.535005 -0.650025 0.035115
-0.628615 -0.673453 0.065555
0.012083 -0.673453 -0.240629
0.523093 -0.650025 0.128248
0.656694 -0.650025 0.239704
0.340396 -0.650025 0.118605
0.585633 -0.673453 0.087483
0.192085 -0.650025 -0.185436
0.55582 -0.661741 -0.281127
-0.030942 -0.673453 0.221714
0.716884 -0.652456 0.239323
-0.091606 -0.673453 0.047007
0.172922 -0.650025 -0.054523
-0.388719 -0.650025 -0.186588
-0.592554 -0.650025 -0.232844
-0.525116 -0.673453 -0.029462
-0.092869 -0.673453 -0.235974
-0.167974 -0.673453 0.119188
-0.518443 -0.650025 -0.171488
0.686863 -0.650025 0.118916
0.646476 -0.673453 -0.083166
-0.445093 -0.673453 0.0058
-0.322597 -0.673453 -0.251841
0.222719 -0.673453 0.008178
0.371648 -0.650025 -0.177603
0.694956 -0.673453 0.025942
-0.022403 -0.650025 0.139424
0.2962 -0.650025 0.17005
0.385933 -0.650025 -0.027899
0.039834 -0.650025 0.241618
0.520075 -0.673453 -0.15749
-0.197352 -0.673453 0.167278
-0.374127 -0.650025 0.059044
-0.533942 -0.673453 0.17306
-0.115178 -0.650025 0.165418
0.362553 -0.650025 0.213746
0.613692 -0.673453 -0.130593
0.680394 -0.673453 0.178233
0.63715 -0.650025 0.071368
0.089343 -0.650025 0.218847
-0.444879 -0.650025 0.147718
-0.497694 -0.650025 -0.011833
0.663889 -0.650025 -0.040224
0.301977 -0.650025 0.034914
0.147888 -0.673453 -0.206266
-0.477804 -0.653865 -0.281127
0.680909 -0.650025 -0.115087
-0.114758 -0.673453 0.008185
-0.602432 -0.650025 -0.146001
0.110162 -0.650025 -0.029289
-0.250673 -0.650025 0.128335
0.163134 -0.650025 0.196298
0.208285 -0.650025 -0.03011
0.096127 -0.673453 -0.242056
0.716884 -0.652341 -0.165964
0.716884 -0.650404 -0.083131
-0.113486 -0.673453 0.237512
-0.631913 -0.673453 -0.162733
-0.471647 -0.673453 -0.238241
-0.144775 -0.650025 -0.132261
0.449721 -0.673453 0.163322
0.417873 -0.650025 0.21627
-0.344549 -0.673453 -0.121124
-0.607254 -0.650025 0.168667
-0.610712 -0.650025 0.126802
0.302989 -0.650025 0.093802
-0.625307 -0.673453 -0.212809
-0.385737 -0.650025 -0.093959
0.654227 -0.673453 -0.215596
-0.66605 -0.650025 -0.043443
0.096238 -0.673453 0.055101
0.25989 -0.673453 0.115104
0.418323 -0.673453 -0.21931
0.37415 -0.673453 0.161193
-0.572449 -0.650025 0.051238
0.587426 -0.650025 0.168146
-0.269341 -0.673453 -0.242983
0.008725 -0.650025 -0.182262
-0.560064 -0.650025 -0.027837
0.587876 -0.673453 -0.086538
-0.334793 -0.650025 -0.038781
0.325642 -0.673453 0.187658
-0.688819 -0.663381 0.073297
0.242267 -0.673453 0.192575
0.058002 -0.650025 0.078324
-0.291242 -0.673453 -0.202911
-0.180732 -0.650025 -0.060777
0.710911 -0.673453 0.198865
0.173344 -0.650025 0.022225
-0.461799 -0.673453 -0.116942
-0.298651 -0.673453 0.089355
0.049474 -0.650025 -0.172449
-0.079865 -0.673453 0.081824
0.503883 -0.673453 -0.235446
-0.039782 -0.673453 0.03647
0.222092 -0.650025 0.13385
-0.536422 -0.650025 0.144559
-0.219103 -0.650025 -0.204463
-0.672654 -0.650025 0.206654
-0.332829 -0.650025 -0.277776
0.02855 -0.673453 -0.117191
-0.446615 -0.650025 -0.152082
0.227729 -0.650025 0.061629
0.136714 -0.654875 -0.281127
-0.20684 -0.673453 -0.011346
0.716884 -0.652194 -0.211947
0.186704 -0.673453 -0.213934
-0.321289 -0.673453 0.125637
-0.577417 -0.673453 -0.207338
-0.134669 -0.650025 -0.18479
-0.021814 -0.673453 0.08413
0.103202 -0.671421 -0.281127
0.544982 -0.673453 0.070372
0.505232 -0.673453 -0.090545
-0.02421 -0.673453 -0.23874
-0.629878 -0.650025 -0.097041
0.626339 -0.673453 0.134701
-0.411379 -0.673453 -0.085314
0.358455 -0.673453 -0.013945
-0.060438 -0.650025 -0.087305
0.039445 -0.656938 -0.281127
-0.595449 -0.650025 -0.077341
0.289636 -0.673453 -0.023527
-0.431805 -0.673453 0.104427
0.44947 -0.650025 -0.023978
0.354595 -0.650025 -0.107005
-0.008844 -0.673453 -0.161474
-0.152248 -0.673453 0.196856
0.275815 -0.650025 -0.18543
-0.108964 -0.673453 -0.112929
-0.688179 -0.673453 -0.140656
0.701841 -0.650025 -0.051086
-0.238438 -0.673453 -0.089276
0.382635 -0.673453 -0.256838
-0.305571 -0.673453 -0.083829
0.176997 -0.673453 -0.088173
0.460812 -0.673453 -0.132849
-0.658277 -0.673453 0.163816
-0.659481 -0.673453 -0.269635
-0.497134 -0.673453 0.066713
0.374802 -0.650025 0.060463
-0.323641 -0.650025 0.081483
-0.139726 -0.673453 0.083521
0.169485 -0.673453 0.085638
0.447131 -0.673453 0.058166
-0.512644 -0.650025 0.23076
-0.30491 -0.650025 0.002833
0.629123 -0.650025 -0.046882
0.046501 -0.650025 -0.053752
-0.116137 -0.673453 -0.071137
0.059795 -0.673453 -0.096165
0.003666 -0.673453 0.148869
0.151498 -0.673453 0.038374
0.498453 -0.650025 0.012886
0.142231 -0.673453 -0.030341
-0.309867 -0.650025 0.164002
-0.29728 -0.650025 -0.052629
-0.479235 -0.650025 0.14356
0.522793 -0.673453 -0.191959
-0.688819 -0.659675 0.151478
0.600144 -0.650025 -0.026564
-0.148638 -0.650025 0.135433
0.217 -0.650025 0.209677
-0.269524 -0.650025 -0.140936
-0.056387 -0.650025 -0.011708
-0.353186 -0.650025 -0.178926
0.042227 -0.673453 0.120014
0.525239 -0.673453 0.198
0.133773 -0.673453 -0.157539
-0.437696 -0.650025 0.041009
-0.417791 -0.673453 -0.014569
0.662883 -0.650025 -0.189295
0.644469 -0.650025 -0.276924
0.078158 -0.650025 -0.219356
0.101752 -0.673453 0.129696
0.210314 -0.673453 -0.098973
0.479119 -0.650025 -0.204981
-0.052783 -0.673453 0.188957
-0.09583 -0.673453 0.202535
0.580513 -0.673453 0.197216
-0.370502 -0.673453 0.117008
0.34769 -0.673453 0.082836
-0.51363 -0.673453 0.023391
0.143215 -0.650025 0.155573
-0.291114 -0.650025 -0.170617
0.345657 -0.673453 0.027546
-0.210512 -0.650025 -0.096612
-0.596144 -0.650025 0.215084
0.233355 -0.673453 -0.232737
0.634981 -0.673453 -0.169506
0.309621 -0.673453 -0.161303
0.279032 -0.650025 -0.124166
0.716884 -0.664294 0.107038
-0.420592 -0.673453 0.144442
-0.501709 -0.650025 -0.206424
0.022902 -0.650025 0.028721
-0.169934 -0.650025 0.05169
0.345332 -0.673453 -0.276907
0.454539 -0.650025 0.201098
-0.554239 -0.650025 0.232374
-0.091499 -0.673453 -0.015549
-0.419656 -0.673453 -0.227286
0.64353 -0.650025 0.016143
-0.647125 -0.650025 -0.137622
0.270129 -0.673453 -0.230677
0.025935 -0.673453 0.192258
-0.34233 -0.673453 -0.15414
-0.093845 -0.673453 -0.165342
0.105234 -0.650025 0.163125
-0.226808 -0.650025 0.152446
0.083384 -0.650025 -0.144342
-0.395544 -0.650025 -0.062572
-0.459718 -0.650025 -0.013086
0.252948 -0.673453 0.083026
-0.176835 -0.650025 0.199761
-0.570891 -0.650025 -0.156618
0.395627 -0.673453 -0.101192
-0.031802 -0.650025 -0.217141
-0.201542 -0.650025 0.082544
0.483472 -0.673453 0.092569
-0.144251 -0.673453 -0.267219
0.548601 -0.673453 -0.000474
-0.395342 -0.650025 -0.218551
0.297846 -0.650025 -0.052827
0.623169 -0.650025 -0.230715
0.223276 -0.650025 -0.198794
-0.55211 -0.650025 -0.101929
0.549226 -0.673453 0.119974
-0.218838 -0.650025 0.189341
0.33568 -0.673453 -0.118875
0.268609 -0.650025 0.046687
0.013567 -0.673453 -0.083837
0.058118 -0.673453 -0.239798
0.670812 -0.673453 -0.015167
0.415475 -0.650025 -0.086638
-0.269101 -0.673453 0.140302
-0.479012 -0.673453 -0.000293
0.384725 -0.673453 -0.04979
0.28142 -0.673453 -0.102392
-0.429398 -0.650025 -0.188628
-0.233148 -0.650025 -0.121324
-0.495496 -0.673453 0.215871
-0.688819 -0.671016 -0.24715
-0.06149 -0.650025 0.10163
0.356951 -0.673453 0.134431
0.134812 -0.650025 0.051866
-0.286951 -0.673453 -0.01948
0.613617 -0.650025 -0.171408
0.075202 -0.650025 0.108872
0.42642 -0.673453 -0.150124
0.15578 -0.650025 -0.090284
0.539086 -0.673453 0.151303
0.446872 -0.650025 0.132304
-0.273041 -0.650025 0.077327
0.064667 -0.650025 -0.025176
-0.468939 -0.650025 0.173334
-0.606441 -0.673453 0.101318
-0.243206 -0.650025 -0.162617
0.591985 -0.650025 0.228375
-0.260833 -0.654206 -0.281127
-0.009305 -0.650025 0.059298
-0.599163 -0.650025 0.034895
-0.431163 -0.650025 0.215153
0.002581 -0.650025 -0.109861
-0.246193 -0.673453 0.205715
-0.394766 -0.650025 -0.026726
-0.007719 -0.650025 -0.255125
-0.473674 -0.650025 0.055521
0.152894 -0.673453 -0.059695
0.631311 -0.673453 -0.256316
0.531645 -0.650025 -0.032772
-0.21487 -0.673453 -0.182418
0.227531 -0.650025 -0.054956
0.150351 -0.673453 -0.131369
0.252178 -0.650025 -0.165409
-0.443379 -0.673453 -0.0425
-0.582573 -0.673453 0.164485
0.44326 -0.650025 -0.28043
-0.255796 -0.650025 -0.079389
0.259755 -0.650025 -0.059778
0.389297 -0.673453 -0.186801
0.515815 -0.650025 -0.251354
-0.359958 -0.650025 0.031803
0.583198 -0.673453 -0.000234
0.648298 -0.650025 -0.121873
0.405148 -0.650025 -0.204509
-0.432612 -0.650025 -0.069378
0.30052 -0.673453 0.010164
-0.353949 -0.673453 0.004745
-0.63194 -0.650025 -0.231681
-0.539318 -0.673453 0.068701
0.000688 -0.650025 0.168316
0.37167 -0.650025 0.103871
0.415616 -0.673453 0.196739
0.591323 -0.650025 -0.130947
0.118946 -0.650025 0.21124
-0.38555 -0.673453 -0.167257
0.409471 -0.650025 -0.051131
-0.682313 -0.650025 -0.186323
-0.365373 -0.673453 -0.231935
-0.558012 -0.650025 0.094282
0.486286 -0.673453 -0.151633
-0.499709 -0.673453 0.112619
-0.415531 -0.650025 0.118463
-0.490867 -0.673453 0.17623
-0.178105 -0.650025 -0.002639
0.492932 -0.650025 -0.019415
-0.202635 -0.650025 0.032399
0.31825 -0.650025 -0.22206
-0.139122 -0.673453 -0.109727
0.486846 -0.673453 -0.059146
-0.178282 -0.673453 -0.202158
0.595274 -0.650025 0.070889
-0.473582 -0.650025 -0.17369
-0.176208 -0.673453 -0.030632
-0.167699 -0.673453 -0.241369
0.563524 -0.650025 0.060013
0.083129 -0.650025 0.013347
-0.030038 -0.650025 -0.122572
-0.116783 -0.673453 -0.038132
0.455116 -0.673453 0.221149
0.60305 -0.650025 0.193618
0.513586 -0.673453 0.087719
0.193513 -0.673453 -0.243001
-0.559512 -0.673453 -0.231197
0.71289 -0.650025 0.021659
-0.004663 -0.673453 -0.002279
0.340255 -0.673453 -0.21336
0.425029 -0.650025 -0.006001
-0.63189 -0.673453 0.033903
-0.066114 -0.673453 0.004529
0.094545 -0.650025 -0.260004
0.0786 -0.673453 -0.118926
0.201839 -0.650025 0.014533
-0.594397 -0.650025 -0.116649
-0.563715 -0.673453 -0.173058
-0.459835 -0.673453 0.120347
0.573824 -0.650025 -0.170866
0.044258 -0.650025 0.199554
0.683617 -0.673453 -0.04564
-0.320212 -0.650025 -0.071088
0.198413 -0.650025 0.063989
0.305202 -0.650025 -0.012984
0.151448 -0.650025 0.087959
-0.551134 -0.673453 -0.051102
-0.5187 -0.673453 -0.135333
-0.400523 -0.650025 -0.157891
0.63884 -0.673453 0.053789
0.117422 -0.673453 -0.078122
0.54689 -0.650025 -0.155245
0.339303 -0.673453 -0.16692
0.298081 -0.650025 -0.146358
0.508383 -0.650025 0.040373
-0.665864 -0.673453 0.003189
-0.622897 -0.673453 -0.279446
0.578795 -0.650025 -0.256105
-0.374758 -0.650025 -0.268304
0.687318 -0.673453 -0.240976
0.043825 -0.673453 0.152374
-0.667392 -0.650025 -0.235004
0.438032 -0.673453 0.030667
0.559166 -0.650025 0.16181
0.477801 -0.673453 0.058287
0.587406 -0.650025 -0.055797
0.316942 -0.673453 0.042769
-0.03507 -0.650025 -0.274369
-0.363954 -0.650025 -0.059524
-0.229944 -0.673453 0.135947
0.238475 -0.650025 -0.018876
0.03161 -0.673453 0.227009
0.163521 -0.673453 -0.269783
0.388198 -0.650025 0.193157
0.234727 -0.650025 0.09075
0.01678 -0.673453 0.106743
0.321383 -0.650025 -0.127255
-0.583695 -0.650025 0.117139
0.331896 -0.673453 -0.038133
-0.645059 -0.650025 0.062215
0.546733 -0.673453 -0.133124
0.180019 -0.650025 -0.022042
0.101749 -0.673453 0.208021
0.280618 -0.673453 0.175258
0.631194 -0.650025 0.114056
-0.003916 -0.650025 0.103242
0.269243 -0.673453 0.01131
0.073062 -0.650025 0.049992
0.716884 -0.670733 -0.038373
-0.161906 -0.673453 -0.000454
-0.329668 -0.673453 0.21363
-0.596977 -0.673453 -0.016463
0.660752 -0.650025 -0.155448
-0.186985 -0.673453 -0.117988
-0.122259 -0.650025 -0.232524
0.465752 -0.650025 0.101304
0.131792 -0.650025 0.023569
-0.408603 -0.673453 -0.053085
0.566735 -0.650025 -0.075577
0.66828 -0.650025 -0.068272
0.271257 -0.650025 0.195385
-0.242103 -0.650025 -0.222909
-0.100215 -0.673453 0.15988
-0.238219 -0.650025 0.06593
0.024369 -0.673453 -0.179682
-0.5803 -0.650025 -0.185926
-0.28844 -0.673453 -0.122971
0.323419 -0.650025 0.016486
0.145809 -0.673453 0.193754
-0.121465 -0.650025 0.11174
-0.083279 -0.673453 -0.043985
0.619724 -0.673453 0.019975
0.642017 -0.673453 0.21987
0.149378 -0.673453 0.106343
-0.079299 -0.650025 -0.199565
0.545246 -0.673453 0.217835
0.196548 -0.650025 0.154988
-0.334832 -0.650025 0.054972
-0.063045 -0.673453 -0.110261
-0.605441 -0.650025 -0.044936
0.405842 -0.673453 -0.074607
-0.01713 -0.650025 -0.148508
-0.537932 -0.650025 -0.148897
0.275234 -0.650025 -0.085243
0.535746 -0.650025 0.056542
0.388832 -0.673453 -0.158817
0.190119 -0.673453 0.170495
0.007079 -0.650025 -0.050324
-0.664863 -0.650025 -0.015522
0.212206 -0.673453 0.05759
0.476391 -0.673453 0.155162
-0.390831 -0.673453 -0.108187
0.652494 -0.650025 -0.013142
0.309291 -0.650025 0.061706
-0.044394 -0.650025 0.215297
0.642415 -0.673453 0.188545
-0.077534 -0.673453 -0.272791
-0.673173 -0.650025 0.1276
0.254422 -0.650025 -0.136613
0.353856 -0.650025 0.18758
-0.668931 -0.650025 0.041775
-0.241307 -0.650025 0.021889
-0.367221 -0.673453 0.046392
-0.289153 -0.650025 0.145908
0.434238 -0.650025 0.05181
0.52215 -0.650025 0.212877
0.177609 -0.650025 -0.140163
-0.128758 -0.655542 -0.281127
-0.55562 -0.650025 -0.248863
-0.490667 -0.673453 -0.266844
0.438246 -0.673453 -0.26399
-0.372886 -0.673453 0.073229
0.053543 -0.650025 -0.130413
0.348202 -0.650025 -0.147622
0.284085 -0.673453 -0.147732
-0.494487 -0.650025 -0.086341
0.042778 -0.650025 0.048651
0.062905 -0.673453 0.102277
0.403711 -0.673453 0.221222
0.612159 -0.650025 -0.06817
-0.296718 -0.650025 -0.13988
-0.032685 -0.650025 -0.04065
0.23484 -0.673453 -0.075919
-0.647296 -0.652034 -0.281127
-0.290154 -0.650025 0.194505
0.497508 -0.650025 -0.275544
0.556125 -0.673453 -0.026588
0.544114 -0.650025 -0.200871
0.232245 -0.650025 0.034357
0.356138 -0.673453 -0.251141
0.030866 -0.673453 -0.220845
0.657932 -0.673453 0.126203
-0.047632 -0.650025 -0.195238
0.284389 -0.650025 0.120151
0.128604 -0.673453 0.12695
0.701063 -0.673453 -0.21706
0.594815 -0.673453 0.033239
0.176774 -0.650025 0.224724
-0.091388 -0.650025 0.106004
-0.377303 -0.673453 0.144824
-0.079876 -0.650025 -0.235193
0.453538 -0.673453 -0.036822
-0.642817 -0.673453 -0.101917
-0.380608 -0.673453 0.012158
-0.626426 -0.673453 0.003109
0.70069 -0.650025 -0.190774
0.516998 -0.650025 0.102307
0.697167 -0.650025 -0.14819
0.102967 -0.650025 -0.22905
-0.634449 -0.650025 0.114769
0.052228 -0.673453 -0.065002
-0.411509 -0.673453 0.188167
-0.027036 -0.673453 -0.072175
0.610986 -0.650025 -0.256795
0.185945 -0.673453 0.062544
0.686627 -0.650025 0.076878
0.266271 -0.650025 -0.219008
-0.339223 -0.650025 -0.008878
0.220703 -0.657391 -0.281127
0.215807 -0.673453 0.123338
-0.031775 -0.650025 0.027232
-0.084401 -0.650025 -0.130907
0.45681 -0.650025 -0.257784
-0.313665 -0.650025 0.135035
0.474442 -0.673453 -0.216126
0.488171 -0.673453 0.214693
0.35975 -0.650025 -0.239654
-0.274782 -0.673453 -0.091939
-0.384814 -0.673453 -0.212845
0.396857 -0.650025 0.111714
-0.445516 -0.673453 0.223474
-0.293874 -0.673453 0.034176
0.523496 -0.673453 0.017163
0.536101 -0.650025 -0.268616
-0.230114 -0.650025 -0.261895
-0.452737 -0.673453 -0.072803
0.006816 -0.673453 0.07165
-0.496458 -0.650025 -0.248017
-0.124085 -0.650025 0.064659
0.564146 -0.650025 0.032005
-0.598002 -0.650025 0.079906
0.61248 -0.673453 -0.02705
-0.093067 -0.650025 -0.266339
-0.274481 -0.650025 0.027489
0.524538 -0.673453 0.112103
0.590772 -0.673453 0.112879
-0.620748 -0.650025 0.20336
-0.640704 -0.650025 -0.056803
0.152329 -0.650025 -0.246064
-0.237227 -0.673453 0.048413
-0.152319 -0.673453 -0.056159
0.365786 -0.650025 -0.206152
0.195481 -0.650025 0.18731
-0.525245 -0.673453 -0.107806
0.436599 -0.673453 0.110647
-0.606446 -0.673453 -0.093473
-0.209064 -0.650025 -0.043766
-0.013678 -0.650025 0.193447
-0.246915 -0.650025 0.178716
-0.263262 -0.673453 0.044195
-0.684248 -0.650025 0.008386
0.363147 -0.673453 -0.113141
-0.230502 -0.673453 -0.04891
0.219895 -0.673453 -0.150734
-0.600899 -0.673453 -0.15637
-0.601144 -0.673453 -0.245515
-0.486854 -0.673453 -0.095195
-0.466763 -0.650025 -0.215035
0.315707 -0.650025 0.190651
0.677211 -0.673453 -0.149697
0.116432 -0.673453 -0.128041
-0.388015 -0.673453 0.202383
0.676986 -0.650025 0.187947
-0.325188 -0.673453 -0.042456
-0.558368 -0.673453 0.206974
-0.594152 -0.673453 -0.188042
-0.319781 -0.650025 0.218457
0.214984 -0.673453 -0.037633
0.446647 -0.673453 0.194908
0.054789 -0.673453 -0.023542
0.340135 -0.650025 -0.2034
-0.537788 -0.673453 -0.164237
0.597809 -0.650025 -0.23282
-0.487239 -0.650025 0.229576
0.282458 -0.650025 -0.030307
0.386368 -0.673453 -0.018041
-0.116044 -0.650025 0.017882
-0.032052 -0.673453 0.138333
0.034135 -0.673453 0.005705
0.571169 -0.673453 -0.211205
0.071241 -0.673453 0.029108
0.656243 -0.673453 -0.059819
-0.178747 -0.673453 0.048028
0.324245 -0.650025 -0.03244
0.214093 -0.673453 -0.196308
-0.191131 -0.650025 -0.271136
-0.457369 -0.650025 -0.266766
-0.060919 -0.673453 0.059363
-0.349539 -0.650025 0.208392
0.354246 -0.650025 0.143458
0.163699 -0.673453 0.211539
-0.022076 -0.673453 0.054401
-0.486375 -0.673453 -0.145467
0.453816 -0.650025 -0.230352
-0.518562 -0.650025 -0.068804
-0.560002 -0.673453 0.175582
-0.12774 -0.673453 0.191203
-0.618589 -0.673453 0.21757
0.585801 -0.673453 -0.123805
0.383393 -0.673453 0.057747
-0.55144 -0.650025 -0.127776
0.608909 -0.673453 0.20031
0.62062 -0.650025 -0.125031
-0.203266 -0.650025 -0.224724
-0.22495 -0.673453 0.218975
0.591162 -0.650025 0.0035
-0.020951 -0.650025 0.224022
0.42816 -0.673453 -0.125198
0.279089 -0.673453 0.09913
-0.259119 -0.650025 -0.204635
0.390234 -0.650025 -0.260865
-0.419304 -0.673453 0.056701
-0.031385 -0.673453 -0.180258
0.242675 -0.650025 0.184146
0.143852 -0.650025 -0.21367
0.005426 -0.673453 -0.126362
0.112111 -0.673453 0.028756
-0.344258 -0.673453 0.063462
-0.371882 -0.650025 0.151179
0.185408 -0.673453 0.223503
-0.591747 -0.650025 -0.208074
0.042575 -0.650025 0.135168
0.009731 -0.650025 -0.025708
0.135815 -0.673453 0.158565
0.488715 -0.673453 0.116752
-0.507874 -0.650025 0.017977
0.150079 -0.650025 -0.029435
-0.346347 -0.650025 -0.128694
-0.309439 -0.650025 0.103631
0.130216 -0.650025 -0.105917
0.493155 -0.673453 0.018533
-0.511516 -0.673453 -0.17463
0.122802 -0.673453 -0.202643
0.123478 -0.673453 -0.234532
0.114926 -0.673453 0.106561
0.416795 -0.650025 0.126034
0.331535 -0.673453 0.2219
0.253893 -0.673453 -0.172267
-0.56551 -0.673453 -0.023405
0.09707 -0.650025 0.090576
0.057044 -0.650025 -0.199127
-0.094947 -0.650025 0.052999
-0.14547 -0.650025 0.227354
0.376084 -0.673453 0.008151
-0.070955 -0.650025 -0.110554
-0.469597 -0.673453 0.219593
0.515861 -0.673453 -0.033659
-0.15239 -0.650025 -0.028736
0.23831 -0.673453 -0.010628
-0.316734 -0.673453 0.025797
-0.369765 -0.673453 -0.071096
0.4177 -0.650025 0.243903
-0.091715 -0.673453 -0.086255
0.385987 -0.673453 -0.124658
0.452737 -0.673453 -0.164719
-0.30563 -0.673453 0.195501
0.356882 -0.673453 -0.183626
-0.303465 -0.650025 -0.269036
-0.538829 -0.650025 -0.016181
-0.344803 -0.650025 -0.255979
-0.255031 -0.650025 -0.02605
-0.109328 -0.650025 0.13259
-0.179521 -0.650025 0.135922
-0.137062 -0.650025 -0.101492
0.299525 -0.650025 -0.181191
0.150379 -0.673453 0.014334
0.709484 0.708821 -0.273927
-0.469918 0.708821 -0.265408
-0.337289 0.708821 0.172914
0.389537 0.685393 -0.02694
-0.671721 0.708821 0.076387
-0.078517 0.708821 -0.029402
0.716884 0.706308 0.005555
0.154868 0.708821 0.039974
-0.688819 0.692923 -0.164712
-0.335686 0.708821 -0.067154
0.276374 0.708821 -0.26341
-0.086274 0.706311 -0.281127
0.549987 0.685393 -0.140452
0.551207 0.708821 0.107503
-0.524621 0.685393 -0.053003
0.126471 0.708821 -0.153705
-0.265379 0.708821 -0.27864
0.011207 0.685393 0.142608
-0.498866 0.708821 0.111416
0.467448 0.707793 -0.281127
-0.191132 0.685393 -0.138652
0.248444 0.708821 0.199519
0.360948 0.685393 0.113183
-0.017065 0.685393 -0.155875
0.056749 0.708821 -0.275318
0.386781 0.708821 -0.166903
0.699965 0.708821 -0.132316
0.697302 0.708821 0.142972
-0.263041 0.708821 0.050482
0.058318 0.685393 -0.049162
0.257453 0.708821 -0.046745
-0.137358 0.708821 0.083235
0.596948 0.708821 -0.023854
-0.424735 0.685393 0.017617
-0.381055 0.708821 -0.180748
-0.607573 0.685393 0.176054
-0.557645 0.685393 -0.16385
-0.671534 0.708821 -0.038852
0.128251 0.685393 0.149412
-0.185945 0.708821 0.203789
0.246753 0.708821 -0.154108
0.488708 0.708821 0.005051
-0.088346 0.708821 0.175487
0.038771 0.708821 0.04686
-0.578682 0.685393 0.0509
-0.500621 0.708821 0.215535
-0.451417 0.708821 -0.113382
-0.274701 0.708821 -0.180983
0.45548 0.708821 -0.100907
0.448087 0.685393 0.161749
0.616539 0.708821 0.188618
-0.358894 0.708821 0.076945
-0.190233 0.708821 -0.225926
-0.101238 0.708821 -0.116516
0.314199 0.685393 0.022195
0.074995 0.708821 0.219379
-0.054337 0.685393 0.052482
0.36339 0.708821 -0.276302
0.472486 0.708821 -0.186733
-0.420605 0.685393 0.182186
0.499807 0.708821 0.228179
-0.251331 0.685393 0.132834
-0.606006 0.685393 -0.093224
0.630158 0.708821 -0.18668
0.418865 0.708821 0.05644
-0.364355 0.708821 -0.263473
-0.686407 0.708821 0.163265
0.141306 0.685393 -0.046665
0.338028 0.685393 0.208367
0.622483 0.708821 -0.103359
-0.22773 0.708821 -0.068892
0.339431 0.685393 -0.090588
0.19491 0.708821 0.109857
0.621492 0.708821 0.051346
-0.103013 0.685393 -0.191886
0.313593 0.685393 -0.187667
0.176597 0.708821 0.22784
-0.53931 0.685393 -0.240965
0.058056 0.685393 -0.180592
0.520827 0.685393 -0.060887
-0.595002 0.708821 -0.020515
0.203115 0.685393 -0.094691
-0.506039 0.685393 0.028196
0.223072 0.685393 0.01883
-0.688819 0.696409 -0.248177
0.481524 0.685393 0.089637
-0.451814 0.685393 -0.184868
-0.001844 0.708821 0.22421
-0.176874 0.708821 0.020511
-0.016305 0.685393 -0.06118
-0.145361 0.685393 -0.062407
-0.620076 0.685393 -0.202104
-0.271267 0.708821 0.204067
-0.402867 0.685393 -0.061987
-0.315176 0.708821 0.000717
-0.330863 0.685393 -0.136517
0.189359 0.708821 -0.194867
0.54451 0.685393 0.041839
0.306052 0.708821 0.148962
-0.572054 0.708821 0.115519
0.530811 0.685393 0.168732
0.531877 0.685393 -0.280971
0.092163 0.685393 0.011492
0.69533 0.685393 -0.195976
0.065352 0.708821 0.108286
0.048252 0.708821 -0.119096
-0.026053 0.708821 -0.253044
0.716884 0.706294 0.071902
-0.057787 0.685393 0.122004
-0.251433 0.685393 -0.009397
-0.466756 0.708821 -0.034553
-0.422228 0.685393 0.08208
0.638888 0.685393 0.129327
-0.155233 0.685393 0.152288
0.716884 0.696952 0.202811
-0.275243 0.708821 -0.111409
0.532293 0.685393 -0.21804
0.278679 0.685393 -0.105676
0.013308 0.685393 -0.005207
0.647769 0.70282 -0.281127
-0.164271 0.696149 -0.281127
-0.628347 0.708821 -0.145577
-0.648014 0.708821 0.017928
0.10484 0.685393 -0.10166
0.378817 0.708821 0.169689
-0.209448 0.708821 0.094959
0.657386 0.708821 -0.025179
0.437396 0.685393 -0.229577
0.199134 0.708821 -0.034916
-0.300623 0.708821 0.109543
-0.643853 0.685393 0.224813
-0.369706 0.685393 -0.003505
-0.548985 0.685393 0.180819
0.448219 0.685393 -0.047559
0.19633 0.708821 0.168447
0.353446 0.708821 0.05887
0.113313 0.685393 -0.205737
0.364335 0.685393 -0.216779
-0.004024 0.708821 0.09124
0.066117 0.685393 0.162653
-0.126391 0.685393 -0.005795
0.247456 0.708821 0.067422
-0.375889 0.685393 0.136474
0.654932 0.685393 0.234308
0.007474 0.685393 -0.208247
0.123596 0.708821 0.088267
0.249348 0.708821 0.139987
-0.553774 0.708821 -0.097391
0.313828 0.685393 -0.039924
0.118141 0.708821 -0.276244
0.429012 0.708821 0.114491
-0.112832 0.685393 0.219989
0.302904 0.685393 0.08187
0.318376 0.708821 -0.135416
-0.407688 0.685393 -0.13657
-0.367099 0.685393 0.216743
0.716884 0.692129 -0.053379
-0.036393 0.685393 0.189336
-0.219064 0.708821 -0.179827
-0.479596 0.685393 0.17136
-0.054391 0.708821 -0.193369
-0.124341 0.708821 -0.243051
0.583681 0.685393 -0.201799
-0.305255 0.708821 -0.242935
0.670687 0.708821 -0.080108
-0.501903 0.708821 -0.211129
0.292975 0.708821 0.22822
-0.432408 0.708821 0.128329
0.211319 0.69684 -0.281127
0.646423 0.685393 -0.23164
0.508117 0.708821 -0.11922
-0.048679 0.708821 -0.095093
-0.577436 0.685393 0.228987
0.392532 0.708821 -0.07356
-0.496799 0.685393 -0.123084
0.428262 0.708821 0.005339
-0.414515 0.708821 -0.250334
0.162626 0.708821 -0.11569
-0.066945 0.708821 0.223071
0.454782 0.685393 0.221567
-0.575209 0.708821 -0.207694
0.568062 0.685393 0.217806
-0.687843 0.708821 -0.09142
-0.295384 0.685393 -0.047513
0.413645 0.708821 -0.280186
-0.412715 0.708821 0.234374
-0.253462 0.708821 -0.226665
0.381798 0.685393 -0.122707
-0.323827 0.708821 0.227761
0.132829 0.685393 0.221035
-0.325183 0.685393 0.043781
0.570765 0.685393 -0.060105
0.379743 0.685393 0.023509
-0.146459 0.685393 -0.160853
0.387167 0.685393 0.214766
0.587332 0.708821 0.14866
-0.622848 0.708821 0.069115
-0.22926 0.685393 0.18153
-0.024124 0.708821 0.021282
0.175151 0.685393 0.001622
0.679607 0.685393 0.096591
-0.367372 0.685393 -0.103587
0.197143 0.685393 0.066962
-0.528937 0.708821 0.064496
-0.469437 0.685393 0.069692
-0.322099 0.708821 -0.192028
0.652666 0.685393 -0.133224
-0.0897 0.708821 0.09138
-0.531581 0.708821 -0.011554
-0.688819 0.700313 0.216635
0.42539 0.685393 -0.183153
0.036741 0.685393 0.202602
0.488275 0.708821 0.171849
0.595234 0.685393 -0.154223
-0.215646 0.685393 0.033621
0.273324 0.685393 -0.001201
-0.519862 0.708821 -0.276887
-0.624364 0.685393 -0.048884
-0.117746 0.708821 0.034096
-0.104406 0.685393 0.137983
-0.49039 0.708821 -0.082896
0.00546 0.708821 -0.100151
-0.622404 0.708821 0.138617
-0.342096 0.685393 -0.2266
0.35061 0.708821 -0.018328
-0.074368 0.685393 -0.155639
-0.327267 0.687868 -0.281127
-0.061149 0.685393 0.006267
0.590873 0.685393 0.106816
0.518623 0.708821 -0.164453
0.08203 0.708821 0.06558
-0.468779 0.708821 0.015901
0.077794 0.708821 -0.234891
0.581264 0.708821 0.029334
0.445176 0.708821 -0.145055
-0.517205 0.685393 0.145394
0.186546 0.685393 -0.156405
-0.688819 0.689518 0.113389
-0.684521 0.685393 0.040088
0.481551 0.685393 0.04286
0.538801 0.685393 -0.00274
0.203542 0.685393 -0.233443
-0.298134 0.685393 0.176948
-0.51869 0.708821 -0.169657
-0.575568 0.685393 -0.061007
-0.659678 0.708821 -0.217236
-0.455728 0.685393 0.212709
0.401558 0.708821 -0.213645
-0.132855 0.708821 0.18856
0.483964 0.708821 -0.058366
0.506268 0.685393 0.132771
-0.406749 0.685393 -0.206868
-0.159976 0.685393 -0.108446
-0.383082 0.685393 0.037723
0.405506 0.685393 0.142185
-0.165799 0.685393 0.240443
-0.201102 0.685393 -0.01101
0.098556 0.685393 0.190945
0.024682 0.708821 -0.166966
-0.078706 0.685393 -0.065348
0.019942 0.708821 -0.253518
-0.258238 0.685393 0.090643
0.092487 0.685393 -0.142663
0.637523 0.685393 0.082938
-0.649977 0.685393 0.178001
0.164542 0.685393 0.193114
0.010996 0.708821 0.178709
-0.182262 0.708821 0.06288
0.647383 0.708821 0.015982
0.040984 0.685393 0.081348
-0.310773 0.685393 -0.091089
-0.403424 0.708821 -0.010984
0.60914 0.685393 0.008321
0.092686 0.708821 -0.05014
0.479261 0.685393 -0.153296
0.615026 0.708821 0.229805
0.32832 0.708821 0.104443
0.125795 0.708821 0.009089
-0.474657 0.685393 -0.232025
-0.578399 0.685393 -0.123563
0.02745 0.708821 -0.036028
-0.475453 0.708821 -0.161159
0.306052 0.708821 -0.220047
-0.141851 0.685393 -0.214798
-0.376129 0.685393 0.177065
0.571341 0.708821 -0.256543
0.624568 0.708821 -0.053509
-0.546198 0.708821 0.23974
0.241665 0.708821 -0.242575
-0.345897 0.708821 0.123169
-0.168087 0.685393 0.094698
-0.18239 0.685393 -0.194134
-0.57488 0.708821 0.014316
0.15085 0.685393 -0.191329
0.300013 0.685393 0.195386
0.335669 0.708821 -0.247321
-0.3164 0.685393 0.137983
-0.368878 0.708821 -0.142587
-0.651156 0.685393 -0.118541
-0.617495 0.685393 0.007039
0.060506 0.708821 0.004579
-0.674063 0.685393 -0.001282
-0.218663 0.708821 -0.271273
-0.557172 0.685393 0.084406
0.278071 0.685393 -0.146941
0.716884 0.68928 0.114176
-0.396794 0.685393 -0.279014
0.135553 0.708821 -0.08658
0.533729 0.708821 0.200661
0.204101 0.685393 0.211439
-0.414228 0.708821 -0.099568
-0.598981 0.708821 -0.172156
0.348933 0.708821 0.14276
0.563945 0.708821 0.067151
0.494484 0.685393 -0.090801
-0.252951 0.685393 -0.089144
-0.373711 0.708821 -0.036596
-0.000359 0.690043 -0.281127
-0.258673 0.708821 0.163112
-0.014749 0.685393 0.062034
-0.284963 0.685393 0.233305
0.55058 0.685393 -0.0933
-0.117977 0.708821 -0.048053
-0.33677 0.685393 -0.036315
-0.221837 0.708821 -0.136064
-0.054093 0.708821 0.157594
0.23956 0.685393 -0.107229
-0.464177 0.685393 0.136056
0.410724 0.708821 -0.11295
-0.189475 0.708821 -0.072902
0.28445 0.708821 0.106108
-0.526954 0.708821 -0.127286
0.617203 0.708821 -0.223256
0.709965 0.708821 -0.16936
-0.646566 0.708821 -0.179318
-0.561331 0.685393 -0.02542
-0.091343 0.708821 -0.223816
-0.03123 0.685393 -0.212545
0.084634 0.708821 -0.197057
-0.048851 0.685393 -0.032897
0.716884 0.686143 0.166189
-0.277794 0.708821 -0.071563
-0.382469 0.708821 0.107436
-0.439422 0.708821 -0.149286
-0.688819 0.685659 -0.210943
-0.442191 0.708821 0.058115
0.142674 0.708821 -0.219774
-0.651371 0.708821 -0.27697
-0.303756 0.708821 0.06396
0.127835 0.685393 0.051499
0.305573 0.708821 0.052622
-0.506061 0.685393 0.082667
-0.535117 0.708821 0.026867
-0.127007 0.693451 -0.281127
0.553969 0.708821 -0.176321
0.051142 0.708821 -0.081948
-0.645976 0.685393 0.046705
0.109682 0.708821 0.127424
-0.221477 0.708821 0.214462
0.715235 0.685393 0.242489
-0.601961 0.685393 0.118534
0.710701 0.708821 -0.22012
0.225312 0.708821 -0.076633
-0.068848 0.685393 -0.256327
-0.597879 0.685393 -0.247589
-0.017671 0.708821 0.125264
-0.269485 0.708821 0.01222
-0.008477 0.708821 -0.023026
0.639546 0.685393 -0.077325
-0.493896 0.708821 0.053505
0.139845 0.685393 0.114809
-0.136934 0.685393 0.113553
0.438887 0.685393 -0.268405
0.400156 0.685393 0.076816
-0.297185 0.685393 -0.164932
0.509156 0.708821 0.043458
-0.14345 0.685393 0.044054
0.308429 0.708821 -0.066947
0.249651 0.708821 0.025897
-0.651927 0.708821 -0.087738
-0.586751 0.708821 0.193923
0.110377 0.685393 -0.019616
-0.457988 0.708821 0.102931
0.366787 0.708821 -0.099922
-0.66052 0.685393 0.143623
0.408703 0.685393 0.185999
-0.440081 0.685393 -0.259573
-0.544222 0.708821 0.146864
0.167027 0.708821 0.132251
0.669169 0.708821 -0.189444
0.005059 0.685393 0.032321
0.596745 0.708821 0.080577
0.464126 0.685393 -0.00503
0.497801 0.685393 -0.209992
-0.672103 0.708821 -0.134801
0.507799 0.708821 0.086252
0.458759 0.708821 0.02382
0.220353 0.708821 -0.177999
-0.088821 0.685393 0.028049
0.472106 0.708821 -0.243774
0.020076 0.685393 -0.061146
-0.073849 0.685393 -0.101689
0.050167 0.708821 -0.213408
0.614769 0.685393 0.162715
0.563352 0.708821 -0.033513
0.329365 0.708821 0.232752
0.428442 0.708821 -0.029501
-0.406793 0.685393 -0.172031
0.137332 0.685393 -0.120248
0.223864 0.708821 -0.010521
0.294606 0.708821 -0.166473
0.695252 0.708821 -0.032057
0.621694 0.708821 0.110443
0.598182 0.685393 -0.095707
-0.010086 0.708821 -0.180363
-0.457582 0.685393 -0.010929
-0.16505 0.708821 0.176369
0.237041 0.685393 0.093604
0.331047 0.685393 -0.272554
-0.562921 0.708821 -0.249263
-0.606602 0.708821 -0.118202
-0.411194 0.708821 0.04358
0.029376 0.708821 0.125499
-0.140877 0.708821 -0.092413
0.245189 0.692224 -0.281127
0.052092 0.708821 0.183135
0.310353 0.708821 -0.015416
0.289212 0.685393 0.130823
0.355587 0.708821 -0.153183
-0.457712 0.708821 -0.073521
-0.530586 0.708821 0.09844
0.637798 0.685393 0.200913
-0.330503 0.685393 0.104059
-0.136086 0.708821 -0.138787
0.119337 0.685393 -0.245799
0.581466 0.708821 -0.134154
-0.158612 0.708821 -0.189081
0.330494 0.685393 -0.156407
-0.389119 0.708821 0.206782
0.391169 0.685393 -0.240894
-0.409172 0.708821 0.16095
0.310684 0.708821 -0.100463
0.34626 0.685393 -0.048097
0.278194 0.708821 -0.201579
0.217984 0.685393 -0.201701
-0.266076 0.708821 0.114131
0.506699 0.685393 -0.011878
0.421136 0.685393 0.03281
-0.11466 0.685393 0.060772
0.35027 0.685393 0.166375
-0.031835 0.685393 0.149739
0.365654 0.708821 -0.192485
-0.645252 0.708821 -0.015066
-0.026519 0.685393 -0.124152
0.094898 0.685393 0.146373
-0.428 0.708821 -0.181761
-0.243425 0.685393 -0.144762
0.045096 0.685393 0.234544
0.679875 0.708821 -0.001012
-0.21924 0.708821 0.003396
-0.307423 0.685393 0.208548
-0.508186 0.685393 0.237256
0.674244 0.685393 -0.266376
0.108249 0.708821 0.039534
0.716884 0.695289 -0.093183
-0.355887 0.708821 -0.201706
-0.576895 0.708821 0.148011
0.146524 0.708821 0.163027
-0.122796 0.685393 -0.106238
0.545408 0.708821 -0.118187
0.594632 0.708821 -0.066295
-0.148556 0.685393 -0.029626
0.543928 0.708821 0.15042
-0.069072 0.685393 0.1871
0.46751 0.708821 0.196819
0.328619 0.685393 0.13311
0.649225 0.685393 -0.174788
0.705585 0.685393 0.049816
0.426391 0.708821 0.156091
-0.285478 0.685393 -0.131357
-0.522834 0.685393 -0.203303
0.286391 0.685393 -0.231818
0.339494 0.685393 0.076255
0.276032 0.685393 -0.03443
0.05497 0.685393 0.127952
0.188258 0.685393 0.147754
-0.154544 0.708821 0.221309
0.157344 0.708821 -0.011611
-0.527087 0.708821 0.177297
0.349605 0.685393 -0.124535
-0.287416 0.708821 0.138954
-0.03564 0.708821 0.097474
