-0.241309 0.735184 -0.392493
-0.264726 0.472434 -0.334771
-0.241309 -0.607543 0.346454
-0.264726 0.553519 0.177909
-0.264726 -0.591814 0.152513
-0.241309 0.733283 0.485053
-0.241309 -0.502815 0.317718
-0.264726 -0.190915 0.347546
-0.264726 -0.228424 -0.395581
-0.264726 0.402234 -0.086507
-0.264726 0.594195 -0.425192
-0.264726 0.406648 0.353032
-0.264726 0.471768 0.40769
-0.241309 0.072673 0.353973
-0.264726 0.254404 0.433391
-0.241309 -0.371644 0.22139
-0.241309 0.308763 0.22844
-0.241309 -0.395942 0.159656
-0.241309 0.295738 0.039829
-0.264726 0.694713 -0.390763
-0.241309 -0.080236 0.45579
-0.264726 0.111 0.371993
-0.264726 0.127202 0.314004
-0.241309 -0.624381 0.441644
-0.264726 0.051456 0.167007
-0.241309 -0.262273 0.116765
-0.252023 0.708091 -0.565508
-0.241309 0.206014 0.476647
-0.264726 -0.235402 -0.337992
-0.264726 -0.405718 -0.423692
-0.241309 -0.592931 0.009735
-0.264726 0.608687 0.052796
-0.264726 0.538755 0.497746
-0.241309 0.286305 -0.157467
-0.241309 0.522789 0.424589
-0.241309 0.654542 0.092305
-0.264726 -0.309018 -0.474199
-0.264726 -0.031782 -0.455425
-0.241309 0.006937 -0.359261
-0.241309 0.595995 -0.224093
-0.241309 0.438319 0.011822
-0.241309 -0.079791 0.208556
-0.241309 -0.321332 -0.302682
-0.241309 0.008296 -0.196659
-0.241309 -0.099477 0.428521
-0.241309 -0.080399 -0.259387
-0.241309 0.357246 0.114497
-0.241309 0.676441 0.145821
-0.241309 0.520583 -0.138444
-0.241309 -0.594578 -0.529759
-0.264726 0.295701 -0.266687
-0.264726 0.123046 0.465832
-0.264726 0.705086 0.188859
-0.241309 0.596876 -0.044721
-0.241309 -0.488568 -0.067176
-0.264726 -0.459959 0.342456
-0.264726 0.430432 0.207906
-0.241309 0.388182 0.150905
-0.264726 0.760555 0.352658
-0.264726 -0.507874 0.286922
-0.241309 -0.362917 -0.125896
-0.264726 -0.020394 0.368194
-0.264726 -0.298773 -0.41906
-0.241309 0.553998 0.459931
-0.264726 -0.54932 -0.469536
-0.241309 -0.305385 -0.106541
-0.241309 0.667747 -0.522691
-0.257039 -0.605464 -0.565508
-0.264726 0.491982 0.202788
-0.264726 0.084443 -0.293256
-0.241309 0.611976 0.279462
-0.264726 -0.229631 0.409725
-0.264726 0.476268 0.043586
-0.246291 0.771015 0.492389
-0.241309 0.081427 -0.042975
-0.264726 0.603978 0.199901
-0.241309 0.316117 -0.130274
-0.241309 -0.284803 0.294185
-0.241309 0.179123 0.191244
-0.241309 -0.522188 -0.343393
-0.241309 0.316713 -0.251928
-0.241309 0.087483 -0.492033
-0.264726 0.537883 -0.227513
-0.264726 0.143301 0.423904
-0.264726 0.725055 0.14513
-0.241309 -0.058847 0.169225
-0.264726 0.500525 0.380224
-0.264726 -0.171113 0.003178
-0.264726 0.460741 -0.28439
-0.241309 0.654968 0.211083
-0.241309 -0.100583 0.259032
-0.241309 0.69149 0.325042
-0.241309 -0.264053 0.223557
-0.264726 0.617139 -0.277904
-0.241309 0.157161 0.145869
-0.264726 -0.41262 0.023139
-0.241309 0.147876 -0.176545
-0.241309 0.100716 0.048001
-0.241309 0.716436 -0.064523
-0.264726 -0.503222 0.140739
-0.264726 0.035416 0.395558
-0.241309 -0.515447 0.189259
-0.241309 -0.435179 -0.243451
-0.241309 0.523449 -0.564862
-0.241309 -0.129352 -0.048983
-0.241309 -0.329734 0.127874
-0.264726 0.571565 -0.192754
-0.264726 -0.261636 -0.319796
-0.264726 0.741168 0.317722
-0.264726 -0.111523 0.163177
-0.264726 -0.21181 0.440595
-0.241309 0.334335 0.191491
-0.264726 -0.590338 -0.500927
-0.264726 0.067613 -0.345669
-0.264726 0.029709 0.113044
-0.241309 0.208211 -0.375133
-0.264726 -0.44137 -0.324841
-0.241309 0.334367 0.381264
-0.241309 -0.265939 -0.045944
-0.264726 0.560422 -0.455201
-0.241309 0.428005 0.230145
-0.264726 0.004975 -0.018542
-0.264726 -0.23912 0.011986
-0.264726 -0.325995 -0.158597
-0.241309 -0.633033 0.0525
-0.264726 0.367193 0.271097
-0.241309 0.614964 -0.078243
-0.264726 0.28433 -0.451508
-0.264726 0.531903 0.000696
-0.241309 0.059752 -0.243704
-0.264726 -0.463899 0.041624
-0.264726 -0.543993 -0.511335
-0.241309 0.048697 -0.118744
-0.241309 0.109378 0.155423
-0.264726 0.435757 0.407033
-0.264726 0.686014 -0.145983
-0.241309 0.381025 -0.087637
-0.264726 0.113103 -0.271668
-0.241309 0.419297 -0.357295
-0.264726 -0.08242 -0.12351
-0.264726 -0.236132 -0.203301
-0.264726 -0.004498 0.296778
-0.241309 -0.203304 0.201448
-0.264726 -0.02372 0.158612
-0.241309 -0.562726 -0.12743
-0.264726 -0.592739 -0.11705
-0.264726 -0.595496 0.087651
-0.264726 0.584484 0.298755
-0.264726 0.347127 -0.19195
-0.241309 -0.280338 0.043943
-0.241309 -0.010078 0.031704
-0.241309 0.037622 0.052433
-0.264726 0.049025 0.26607
-0.241309 0.630248 -0.301478
-0.264726 0.716714 -0.418994
-0.250887 -0.326453 -0.565508
-0.264726 0.018666 0.067155
-0.264726 0.128571 -0.189462
-0.242458 0.771015 0.01047
-0.264726 -0.441227 0.190075
-0.264726 0.172534 0.239045
-0.241309 0.589178 0.50676
-0.264726 -0.182863 -0.478571
-0.264726 -0.391575 -0.545324
-0.264726 0.545018 -0.033653
-0.264726 0.481237 0.264053
-0.241309 0.040415 -0.276504
-0.264726 -0.009705 -0.51747
-0.241309 0.702628 -0.006624
-0.241309 -0.335139 -0.49808
-0.264726 0.102606 -0.391144
-0.241309 -0.063006 -0.498763
-0.264726 0.512817 0.143133
-0.264726 -0.360333 0.37537
-0.264726 0.500125 0.471044
-0.241309 -0.042319 0.050217
-0.241309 -0.010456 -0.131957
-0.241309 0.381718 0.088913
-0.264726 -0.12583 -0.229017
-0.264726 -0.435717 -0.17673
-0.264726 -0.098641 -0.212314
-0.241309 -0.121438 -0.084322
-0.241309 0.274547 -0.202491
-0.241309 0.646229 0.441266
-0.241309 -0.452355 -0.365993
-0.264726 0.3356 -0.53841
-0.264726 0.693702 -0.47863
-0.264726 0.176155 -0.311323
-0.241309 0.601732 -0.385081
-0.264726 0.335092 0.241737
-0.241309 0.764892 -0.04796
-0.241309 -0.219768 0.373397
-0.264726 0.551487 0.433513
-0.264726 0.703224 0.366262
-0.264726 0.194668 -0.194656
-0.264726 -0.496378 -0.414807
-0.241309 0.545918 0.519319
-0.241309 -0.395686 -0.300074
-0.264726 -0.153454 0.455458
-0.241309 0.440337 0.293772
-0.241309 -0.277264 0.489401
-0.264726 0.576875 -0.334756
-0.241309 0.531101 -0.457708
-0.264726 -0.213889 -0.118991
-0.241309 0.683626 0.229268
-0.241309 0.595639 0.434853
-0.241309 -0.048101 0.257108
-0.264726 -0.29728 -0.148144
-0.241309 -0.281762 -0.252289
-0.241309 -0.24684 -0.446048
-0.264726 0.303451 -0.109471
-0.241309 -0.378795 0.299242
-0.241309 0.412549 -0.18491
-0.241309 0.091563 -0.561432
-0.241309 -0.339844 0.459689
-0.241309 -0.318909 0.242395
-0.241309 0.288978 0.134229
-0.241309 0.35537 0.053793
-0.264726 0.02334 -0.421856
-0.241309 0.492172 -0.041359
-0.264726 0.238681 0.045502
-0.241309 -0.50713 0.495351
-0.264726 -0.477839 -0.343293
-0.241309 0.601173 -0.484705
-0.241309 -0.282324 0.174127
-0.241309 0.750994 0.223113
-0.264726 0.653443 0.371325
-0.264726 0.648048 0.294995
-0.241309 -0.181482 0.379301
-0.241309 -0.045527 -0.175301
-0.241309 0.035154 0.177734
-0.264726 -0.432022 0.077364
-0.241309 0.31005 -0.333015
-0.264726 0.59558 0.262354
-0.241309 -0.586234 -0.422081
-0.241309 -0.466487 0.020257
-0.264726 0.103214 -0.150632
-0.241309 0.48055 0.182945
-0.241309 0.393294 -0.24691
-0.241309 0.058944 -0.548351
-0.241309 -0.504156 -0.149998
-0.241309 0.48437 0.238082
-0.264726 -0.520727 -0.28758
-0.241309 -0.557116 0.510612
-0.241309 -0.590196 -0.311249
-0.264726 -0.099067 0.050578
-0.264726 0.109564 0.111112
-0.264726 -0.360796 -0.258283
-0.264726 0.47867 -0.53442
-0.264726 0.161863 0.317428
-0.264726 0.308843 -0.04866
-0.241309 0.452319 0.397691
-0.241309 -0.004011 0.523235
-0.241309 -0.32021 -0.405674
-0.264726 0.742031 -0.073185
-0.264726 0.064695 0.12602
-0.264726 -0.395688 0.121035
-0.264726 0.189904 -0.120937
-0.241309 -0.182083 0.243494
-0.241309 -0.201017 -0.164786
-0.264726 0.563305 -0.114265
-0.264726 -0.011948 0.102347
-0.241309 -0.523505 -0.531994
-0.241309 -0.103434 -0.425643
-0.241309 0.235519 -0.082658
-0.241309 -0.612306 -0.378222
-0.241309 -0.524581 -0.240089
-0.241309 -0.203786 0.119004
-0.264726 -0.414543 -0.24958
-0.264726 0.359206 0.216128
-0.264726 0.230834 -0.043787
-0.264726 -0.594608 -0.281009
-0.264726 0.306488 0.073195
-0.264726 0.113659 0.253204
-0.264726 -0.426794 -0.034083
-0.264726 0.041106 0.197341
-0.241309 -0.453543 -0.219793
-0.264726 -0.360451 -0.54111
-0.241309 -0.437894 -0.562048
-0.264726 0.228631 -0.212376
-0.264726 -0.144555 -0.368387
-0.241309 0.285854 0.252054
-0.241309 0.304321 0.286075
-0.264726 -0.288385 0.328393
-0.241309 -0.134269 0.274955
-0.264726 -0.464332 0.409755
-0.241309 0.744241 0.520601
-0.264726 0.162721 -0.279714
-0.241309 0.193781 -0.541689
-0.241309 0.199914 0.51212
-0.264726 0.625399 0.491037
-0.241309 0.312888 0.434215
-0.264726 0.281738 0.483572
-0.264726 0.205651 -0.002745
-0.264726 -0.360122 0.132469
-0.241309 -0.390345 -0.194199
-0.241309 -0.401996 0.005981
-0.241309 -0.480265 0.368604
-0.241309 -0.435574 0.001066
-0.241309 0.371518 -0.322356
-0.241309 0.356327 0.159101
-0.241309 0.689931 -0.25396
-0.241309 0.695712 -0.302205
-0.241309 0.452019 -0.063017
-0.241309 -0.189753 0.473884
-0.264726 0.15338 -0.407984
-0.241309 -0.118551 -0.470017
-0.264726 -0.466168 -0.437224
-0.264726 -0.379312 0.001581
-0.241309 0.746353 -0.159754
-0.241309 0.251406 0.0185
-0.241309 0.54433 -0.376632
-0.241309 0.626254 0.00154
-0.241309 -0.418183 0.219504
-0.264726 0.334934 -0.29833
-0.264726 0.585956 0.381071
-0.264726 -0.519145 0.259069
-0.241309 0.243331 0.069944
-0.241309 -0.410995 0.496238
-0.264726 0.60267 -0.361409
-0.247394 0.172487 -0.565508
-0.264726 0.092354 -0.177992
-0.264726 0.584456 -0.28719
-0.241309 0.759735 -0.222793
-0.241309 -0.017298 -0.289785
-0.241309 -0.196516 -0.262337
-0.264726 0.063167 0.487124
-0.264726 0.664141 -0.068376
-0.264726 0.333501 0.360672
-0.241309 0.056593 0.412747
-0.264726 -0.193593 -0.286256
-0.264726 0.193987 -0.355795
-0.264726 0.041122 -0.07526
-0.264726 -0.030819 0.234233
-0.241309 -0.069737 0.084064
-0.241309 0.148138 0.01865
-0.264726 0.09559 0.284097
-0.264726 0.454263 0.449763
-0.264726 0.253235 -0.127752
-0.264726 0.238055 0.288594
-0.241309 -0.587774 -0.085612
-0.241309 -0.109382 -0.535823
-0.241309 0.740407 -0.348759
-0.264726 -0.088343 0.376835
-0.241309 -0.218204 -0.295508
-0.264726 0.43001 -0.454759
-0.264726 -0.125454 0.385808
-0.241309 0.313282 0.478705
-0.264726 0.175536 0.169006
-0.241309 0.298159 0.161833
-0.241309 0.149102 -0.227991
-0.264726 0.41434 0.093437
-0.264726 0.42882 0.274101
-0.241309 0.646333 0.172513
-0.264726 -0.614638 0.209795
-0.241309 -0.286021 0.076742
-0.264726 0.605672 -0.238335
-0.264726 0.442014 0.111515
-0.241309 0.571716 -0.413396
-0.264726 0.52506 -0.257768
-0.241309 0.622136 -0.540856
-0.241309 -0.108873 0.22348
-0.241309 0.12319 -0.496828
-0.264726 0.642255 -0.223974
-0.264726 -0.378014 -0.053208
-0.264726 0.611626 0.403765
-0.241309 -0.619767 -0.046278
-0.241309 0.338796 -0.225707
-0.241309 0.672873 0.395955
-0.241309 -0.228885 -0.080696
-0.241309 0.53936 0.111549
-0.264726 -0.038076 0.305236
-0.241309 0.503584 0.16115
-0.264726 0.407659 -0.538829
-0.264726 -0.121079 -0.492995
-0.241309 -0.320648 0.20622
-0.264726 -0.263835 0.099764
-0.241309 0.448366 0.158842
-0.241309 0.5823 0.065914
-0.241309 -0.016201 -0.437319
-0.264726 -0.045172 -0.536957
-0.241309 0.208949 -0.120009
-0.264726 -0.252392 -0.120488
-0.264726 0.139021 0.227806
-0.241309 0.739537 -0.514969
-0.241309 0.27518 -0.382774
-0.241309 0.433124 0.458373
-0.264726 0.325639 0.406931
-0.241309 -0.451307 -0.414627
-0.264726 -0.605879 0.43382
-0.241309 -0.548705 0.425847
-0.241309 0.127799 0.441845
-0.264726 0.050014 0.040261
-0.264726 0.636394 -0.188289
-0.264726 -0.164411 -0.130182
-0.264726 -0.310072 -0.20945
-0.264726 -0.163024 0.332761
-0.264726 0.750628 -0.375909
-0.264726 -0.581337 0.309174
-0.264726 0.630968 0.335995
-0.264726 -0.230663 -0.270053
-0.264726 0.397528 0.030329
-0.264726 0.639385 -0.557688
-0.264726 -0.405166 -0.068997
-0.264726 0.237835 -0.413838
-0.241309 0.672671 0.302003
-0.264726 -0.596488 0.275429
-0.241309 -0.058809 -0.398161
-0.241309 0.078668 -0.096739
-0.264726 0.075807 0.095167
-0.241309 -0.480845 -0.391002
-0.264726 -0.174434 -0.261945
-0.264726 -0.154563 -0.178406
-0.241309 -0.36727 0.325164
-0.241309 -0.446961 -0.050598
-0.264726 0.289407 -0.011506
-0.241309 -0.52229 0.440581
-0.241309 -0.309541 -0.246845
-0.241309 0.3966 -0.115835
-0.264726 0.46535 0.22212
-0.264726 0.663178 -0.505047
-0.241309 0.287369 0.098628
-0.241309 0.680746 -0.461121
-0.241309 0.110844 -0.29609
-0.241309 0.383533 -0.436181
-0.264726 -0.321804 0.148727
-0.241309 0.460068 0.097193
-0.264726 0.730596 -0.143244
-0.241309 0.231287 0.227383
-0.241309 0.360866 0.3453
-0.241309 -0.615739 0.25642
-0.241309 0.590878 0.361769
-0.264726 -0.171523 0.184202
-0.241309 -0.223468 -0.422252
-0.241309 0.686107 0.023198
-0.264726 0.634395 0.455026
-0.241309 0.612385 0.224008
-0.241309 -0.493835 0.013701
-0.241309 -0.556435 -0.408028
-0.241309 0.025084 -0.073735
-0.241309 -0.065868 -0.136491
-0.241309 -0.386614 0.434039
-0.241309 -0.400406 0.401369
-0.241309 -0.296081 0.386879
-0.241309 0.017487 0.321931
-0.241309 -0.545559 0.149186
-0.264726 0.350858 -0.432982
-0.241309 -0.097313 -0.337495
-0.264726 -0.354091 0.286684
-0.264726 0.423689 -0.300501
-0.241309 0.45987 -0.363481
-0.264726 -0.514818 -0.002437
-0.264726 0.048502 -0.233298
-0.241309 -0.517427 -0.462845
-0.241309 0.180567 -0.200576
-0.264726 0.31619 0.314974
-0.241309 0.593949 -0.016931
-0.241309 0.322896 0.265206
-0.264726 0.203769 0.414272
-0.264726 0.712295 0.217376
-0.241309 -0.079489 -0.09621
-0.241309 -0.160631 -0.062586
-0.241309 0.051114 0.145267
-0.241309 -0.154373 0.037481
-0.264726 -0.425539 -0.371818
-0.264726 0.733987 -0.274516
-0.264726 0.321631 -0.163037
-0.241309 0.609245 0.251796
-0.264726 -0.212791 0.020911
-0.264726 -0.269723 -0.085842
-0.264726 -0.033147 -0.344585
-0.245656 0.362258 -0.565508
-0.241309 0.646052 0.124524
-0.264726 0.11345 0.002629
-0.241309 0.242592 -0.229449
-0.241309 0.141538 0.271808
-0.264726 0.546521 0.313861
-0.241309 0.588366 -0.454773
-0.264726 -0.152922 0.085823
-0.241309 -0.151313 -0.469502
-0.264726 -0.500511 0.451945
-0.264726 0.647947 0.151304
-0.241309 -0.449452 0.145501
-0.241309 -0.48808 -0.450365
-0.264726 -0.574389 0.218971
-0.264726 -0.18602 -0.0371
-0.241309 0.641164 -0.273834
-0.241309 0.692203 -0.40524
-0.255323 -0.164986 -0.565508
-0.264726 -0.577571 0.477054
-0.264726 -0.633178 -0.254529
-0.241309 0.57438 -0.381378
-0.264726 -0.224985 0.28062
-0.241309 -0.323066 0.437798
-0.264726 -0.604612 -0.309192
-0.241309 0.078076 0.026252
-0.264726 -0.381851 0.249704
-0.241309 0.025424 0.465313
-0.241309 -0.476698 0.138265
-0.264726 -0.541395 -0.196985
-0.241309 0.236158 0.189588
-0.241309 0.623844 0.039495
-0.241309 -0.08528 0.054988
-0.241309 0.12924 -0.358431
-0.241309 0.291659 -0.468827
-0.264726 0.440454 0.326716
-0.264726 0.752206 -0.521917
-0.241309 0.530611 -0.30566
-0.241309 0.753057 -0.010341
-0.264726 0.557786 -0.382122
-0.241309 -0.506374 -0.553709
-0.264726 -0.604921 0.036409
-0.241309 -0.40938 -0.025721
-0.241309 0.613999 -0.426348
-0.241309 0.078606 0.236569
-0.241309 -0.020354 0.322538
-0.264726 0.402603 -0.388739
-0.264726 0.352996 -0.238085
-0.241309 -0.437648 0.358445
-0.241309 -0.156659 -0.26702
-0.241309 -0.282098 0.42778
-0.241309 0.165057 -0.459044
-0.264726 0.341388 0.302541
-0.241309 0.10719 0.086533
-0.241309 0.264323 0.502095
-0.241309 0.755497 0.040072
-0.241309 -0.564243 0.240362
-0.264726 0.128651 0.515712
-0.264726 -0.109785 -0.12412
-0.264726 0.058755 -0.437404
-0.264726 0.241648 -0.530012
-0.264726 -0.425974 -0.22474
-0.241309 -0.437404 -0.511627
-0.241309 -0.090688 0.397704
-0.264726 -0.570907 -0.525301
-0.264726 -0.119121 -0.194222
-0.241309 -0.474396 -0.172128
-0.241309 0.698471 -0.195647
-0.264726 0.059446 -0.534363
-0.264726 0.209657 -0.482581
-0.264726 0.721976 0.28805
-0.241309 -0.191092 0.164569
-0.241309 0.381943 -0.289066
-0.241309 0.484829 0.081905
-0.264726 -0.397565 0.499412
-0.241309 -0.390571 0.035314
-0.241309 0.596943 0.321221
-0.241309 0.383717 -0.162297
-0.241309 0.204981 -0.169835
-0.241309 -0.01768 -0.347794
-0.264726 -0.20167 -0.390931
-0.264726 0.196417 0.035165
-0.264726 -0.405342 -0.483264
-0.241309 0.071178 -0.296786
-0.264726 -0.054985 0.432027
-0.264726 0.030283 0.313214
-0.264726 -0.471184 -0.477794
-0.241309 0.233925 -0.277969
-0.264726 -0.187049 0.420976
-0.241309 -0.514937 -0.016083
-0.241309 -0.127759 -0.306556
-0.241309 -0.626995 -0.218475
-0.264726 -0.441981 -0.544673
-0.264726 0.13897 0.035056
-0.264726 -0.580012 -0.560344
-0.241309 -0.039912 0.136643
-0.264726 -0.439884 -0.286038
-0.264726 0.24215 0.176971
-0.264726 -0.046654 -0.39216
-0.241309 -0.236455 0.194066
-0.264726 -0.140958 0.314609
-0.264726 -0.027812 0.190006
-0.241309 -0.10584 0.337192
-0.241309 0.570988 -0.507871
-0.241309 -0.390517 -0.379612
-0.264726 -0.116754 -0.053746
-0.264726 -0.503482 0.16904
-0.241309 0.513963 0.379991
-0.264726 0.014655 -0.230321
-0.241309 0.163392 -0.52572
-0.264726 -0.580704 -0.051926
-0.264726 0.59371 0.108313
-0.241309 0.28901 0.19895
-0.264726 -0.068429 -0.173863
-0.264726 0.081343 -0.503845
-0.264726 0.158696 -0.21795
-0.241309 0.002311 -0.246327
-0.264726 -0.011239 0.065046
-0.241309 -0.53296 0.103557
-0.241309 0.604097 0.481118
-0.264726 0.323565 -0.207356
-0.264726 0.627086 -0.435618
-0.241309 -0.515236 0.080099
-0.264726 -0.220775 -0.041637
-0.241309 0.369882 0.293889
-0.241309 0.701678 0.055621
-0.264726 0.712476 -0.015262
-0.264726 -0.36483 0.469726
-0.264726 -0.333036 0.371283
-0.264726 0.471877 -0.103438
-0.264726 -0.043095 0.063204
-0.241309 0.360455 -0.485046
-0.264726 -0.297252 -0.363776
-0.241309 0.630128 -0.162505
-0.264726 -0.563961 -0.140294
-0.264726 -0.59846 -0.426233
-0.241309 0.251473 -0.026619
-0.264726 -0.542596 -0.046926
-0.241309 0.18147 -0.065687
-0.241309 0.064193 0.112736
-0.264726 -0.522057 0.060273
-0.264726 -0.522162 -0.168752
-0.264726 -0.481101 -0.138339
-0.264726 -0.329822 -0.098287
-0.241309 -0.558146 -0.094826
-0.241309 0.530576 0.078736
-0.264726 0.767996 -0.443634
-0.241309 0.033395 -0.167157
-0.264726 0.721866 0.050809
-0.241309 -0.393939 -0.103821
-0.264726 0.654147 0.03271
-0.241309 0.28964 0.065756
-0.264726 0.758705 -0.156946
-0.264726 -0.266827 -0.195398
-0.264726 -0.040723 -0.102015
-0.264726 -0.153329 -0.296923
-0.264726 0.424593 0.437369
-0.264726 -0.008477 -0.314449
-0.241309 0.450362 -0.239981
-0.264726 0.492638 -0.291435
-0.264726 -0.430991 0.455151
-0.264726 -0.014522 0.255197
-0.241309 0.335406 -0.199375
-0.264726 0.403613 -0.462264
-0.264726 -0.421579 -0.103416
-0.241309 0.08614 0.329065
-0.241309 0.517132 -0.060808
-0.264726 0.481405 0.361867
-0.264726 0.419719 -0.207917
-0.264726 0.682622 0.523141
-0.264726 0.09283 0.456281
-0.264726 -0.330121 -0.068013
-0.241309 -0.238788 0.266004
-0.241309 -0.254961 0.397316
-0.241309 0.733099 0.274777
-0.264726 0.176399 -0.504461
-0.241309 -0.318456 -0.328932
-0.241309 0.700022 0.502021
-0.264726 0.339927 -0.512053
-0.264726 -0.604206 0.358155
-0.241309 -0.600876 0.45362
-0.264726 -0.060491 -0.013276
-0.264726 0.373258 0.359782
-0.264726 0.084531 0.203655
-0.264726 0.661005 -0.161039
-0.241309 -0.160745 0.402281
-0.241309 -0.021881 -0.102805
-0.241309 0.647179 0.381613
-0.241309 -0.512522 -0.266474
-0.264726 0.112476 0.137277
-0.241309 -0.517581 0.137581
-0.241309 0.117662 -0.166314
-0.264726 0.751851 -0.47436
-0.241309 -0.171866 -0.531603
-0.241309 0.154738 -0.364812
-0.264726 -0.012816 -0.204309
-0.264726 -0.213815 -0.47103
-0.264726 -0.503809 -0.347087
-0.241309 -0.405849 0.333491
-0.241309 0.569868 0.394027
-0.241309 0.43674 -0.26628
-0.264726 -0.098111 0.315598
-0.264726 -0.378883 0.326946
-0.264726 -0.3396 -0.13174
-0.241309 -0.246626 -0.293856
-0.241309 -0.501757 0.056631
-0.264726 0.611435 -0.52291
-0.241309 -0.415061 -0.53775
-0.241309 -0.315015 0.468084
-0.241309 0.123583 0.488616
-0.241309 -0.04265 0.458284
-0.264726 0.68512 -0.119839
-0.241309 0.473935 0.447551
-0.241309 0.64874 -0.105018
-0.264726 0.138744 0.486708
-0.241309 0.273425 -0.510508
-0.264726 0.034137 0.356448
-0.264726 0.521705 -0.451041
-0.264726 -0.118637 0.085682
-0.241309 0.403633 -0.033587
-0.247754 -0.064949 -0.565508
-0.241309 -0.500724 0.262256
-0.264726 -0.356075 0.013404
-0.264726 -0.028091 -0.495179
-0.264726 -0.335373 0.229537
-0.264726 0.697332 0.126269
-0.255769 -0.545799 -0.565508
-0.241309 -0.34282 -0.287978
-0.264726 -0.179724 0.069245
-0.264726 -0.499814 0.385236
-0.264726 -0.209822 -0.333298
-0.241309 0.694914 -0.102082
-0.241309 0.423398 -0.533216
-0.264726 0.607625 0.133799
-0.241309 0.202166 0.28962
-0.264726 -0.059497 0.510237
-0.264726 -0.270576 0.164826
-0.241309 -0.361269 -0.210185
-0.241309 0.313565 -0.17101
-0.264726 -0.396872 0.429515
-0.241309 -0.100093 -0.27629
-0.241309 0.013055 0.275871
-0.241309 0.078574 -0.347856
-0.241309 0.393683 0.22735
-0.241309 0.019854 -0.296345
-0.264726 0.429256 0.005332
-0.264726 0.360156 -0.304339
-0.241309 -0.472649 0.175915
-0.241309 -0.586409 0.406895
-0.241309 -0.52924 -0.430275
-0.264726 -0.3108 -0.550121
-0.241309 -0.14898 0.150962
-0.241309 -0.13809 -0.014861
-0.241309 0.111103 0.512949
-0.241309 -0.310655 0.29508
-0.241309 0.742955 0.196841
-0.241309 -0.242005 0.059258
-0.264726 0.511927 0.42538
-0.264726 0.314693 -0.081175
-0.264726 0.309888 0.383775
-0.241309 -0.425244 -0.488635
-0.241309 0.113945 0.2797
-0.264726 0.703093 -0.454613
-0.264726 0.571791 -0.027635
-0.241309 -0.023017 -0.23201
-0.264726 -0.514075 0.325686
-0.241309 -0.415265 -0.072637
-0.264726 0.207461 0.519742
-0.241309 -0.385352 -0.494802
-0.241309 -0.095814 0.51464
-0.264726 0.039539 0.016784
-0.241309 0.455943 -0.472564
-0.264726 -0.504392 -0.439223
-0.264726 -0.227885 -0.227635
-0.264726 0.646365 -0.00216
-0.241309 -0.23896 -0.394831
-0.264726 0.078356 0.345144
-0.264726 -0.606453 0.184805
-0.241309 -0.133089 0.324149
-0.264726 0.395935 0.266371
-0.241309 -0.096657 -0.55944
-0.253881 0.771015 -0.31564
-0.264726 -0.219842 0.503106
-0.264726 -0.120306 0.225752
-0.264726 0.169355 0.374961
-0.241309 0.095429 -0.40081
-0.241309 -0.366507 0.45953
-0.264726 0.195907 0.321198
-0.264726 0.590803 0.42575
-0.241309 0.048012 -0.144319
-0.241309 0.557394 0.265659
-0.241309 0.712052 -0.372094
-0.241309 0.572515 0.001257
-0.241309 -0.040561 -0.202067
-0.241309 0.04724 0.31341
-0.264726 -0.19494 0.039455
-0.241309 0.468431 -0.291014
-0.24783 0.116311 -0.565508
-0.264726 0.47209 -0.562868
-0.264726 -0.518532 -0.127734
-0.241309 0.22975 0.005026
-0.264726 -0.371564 0.158833
-0.264726 -0.141359 0.346211
-0.241309 0.633263 -0.21939
-0.241309 0.509533 0.029753
-0.241309 0.166148 0.218367
-0.264726 0.459955 -0.309834
-0.264726 -0.441942 0.480679
-0.241309 0.523261 -0.42055
-0.264726 0.45475 0.187155
-0.264726 0.247544 -0.357572
-0.241309 0.133614 -0.410258
-0.264726 -0.50392 -0.205982
-0.264726 -0.298169 0.273326
-0.264726 0.007002 0.231822
-0.241309 -0.156247 0.261492
-0.241309 -0.205993 0.448486
-0.241309 0.692605 0.16539
-0.241309 0.37504 -0.023287
-0.241309 -0.621658 0.128891
-0.241309 0.197678 0.39667
-0.264726 0.150297 -0.100202
-0.264726 -0.36427 -0.492452
-0.264726 -0.54904 0.281773
-0.264726 0.449849 0.037643
-0.264726 -0.465383 0.132796
-0.241309 -0.229835 -0.345894
-0.264726 0.694912 0.074616
-0.264726 -0.05944 -0.259487
-0.241309 0.741651 0.081161
-0.264726 0.633554 -0.364312
-0.264726 0.53901 0.122491
-0.241309 0.047442 0.366643
-0.264726 0.385909 0.112463
-0.241309 -0.25831 0.302066
-0.264726 0.427338 -0.049929
-0.241309 -0.039437 0.109279
-0.241309 -0.494584 0.218786
-0.264726 0.404646 0.194721
-0.264726 0.760451 0.082334
-0.241309 -0.301979 -0.192158
-0.264726 -0.535377 0.012318
-0.241309 -0.091009 -0.395802
-0.241309 0.011226 0.35679
-0.241309 -0.469891 0.448402
-0.241309 -0.630461 -0.438342
-0.264726 -0.154289 -0.030246
-0.264726 0.426152 -0.414494
-0.241309 0.547736 -0.275017
-0.241309 0.506485 0.302269
-0.241309 0.416362 0.162258
-0.264726 -0.427886 0.384533
-0.264726 -0.001525 0.420923
-0.241309 -0.096162 -0.18623
-0.241309 -0.25644 -0.069221
-0.264726 -0.54997 -0.437876
-0.241309 0.674119 0.252534
-0.264726 0.352316 0.508299
-0.241309 0.406262 0.434232
-0.241309 0.540177 -0.18043
-0.241309 0.625238 -0.491815
-0.241309 0.014333 -0.138875
-0.241309 -0.229393 -0.186945
-0.264726 0.485606 -0.488519
-0.241309 -0.193378 -0.00651
-0.264726 -0.155408 -0.33981
-0.241309 -0.626867 -0.276707
-0.241309 0.445728 0.507276
-0.241309 -0.18582 0.33871
-0.241309 0.471988 0.267542
-0.241309 0.332484 0.034104
-0.264726 -0.049011 -0.417604
-0.264726 0.56325 -0.430357
-0.241309 -0.329884 -0.111505
-0.264726 -0.460785 0.434591
-0.264726 -0.612987 -0.102132
-0.264726 -0.510129 0.485233
-0.264726 -0.486817 -0.37208
-0.264726 -0.400571 -0.371433
-0.241309 0.394327 -0.357503
-0.241309 0.100313 0.132159
-0.241309 0.094417 -0.442511
-0.241309 -0.175743 0.203722
-0.241309 0.187539 -0.479008
-0.264726 -0.109477 0.415202
-0.241309 0.272046 0.298762
-0.241309 0.335772 -0.451405
-0.264726 0.655814 0.467783
-0.241309 0.168646 -0.243466
-0.264726 0.075873 -0.131041
-0.264726 -0.192443 -0.542235
-0.264726 0.635357 -0.485875
-0.264726 0.273201 0.112742
-0.241309 -0.271104 -0.316341
-0.264726 0.446768 -0.535081
-0.241309 -0.388732 -0.169352
-0.264726 -0.466663 0.066366
-0.241309 0.294708 -0.313411
-0.241309 0.571024 0.124576
-0.241309 -0.341213 0.325689
-0.264726 -0.081295 0.122949
-0.264726 0.234434 -0.480955
-0.241309 -0.545324 0.185756
-0.264726 0.575772 -0.359556
-0.264726 0.695688 0.470619
-0.264726 0.151474 -0.045284
-0.241309 -0.043567 -0.077724
-0.241309 -0.555671 -0.3142
-0.264726 -0.3959 0.393164
-0.241309 0.765923 0.12985
-0.241309 0.442288 -0.389274
-0.241309 -0.538171 0.391657
-0.241309 -0.39978 -0.43667
-0.241309 0.163726 0.169713
-0.241309 -0.594127 0.05598
-0.264726 -0.339368 -0.009281
-0.264726 0.305147 0.04852
-0.241309 0.619279 0.104138
-0.241309 -0.348458 0.229902
-0.241309 0.332199 -0.271164
-0.241309 0.212061 -0.350741
-0.264726 -0.310987 0.005372
-0.241309 0.288755 0.352665
-0.264726 0.474744 -0.26401
-0.264726 -0.015771 0.128549
-0.264726 -0.524326 -0.2324
-0.241309 -0.252655 0.479968
-0.264726 0.391523 0.395174
-0.264726 0.222211 0.219175
-0.264726 0.759907 0.220875
-0.241309 0.357923 -0.541668
-0.241309 -0.149375 0.48404
-0.264726 -0.556027 0.40546
-0.264726 0.202111 -0.449091
-0.241309 -0.034569 0.375938
-0.264726 0.374384 -0.443195
-0.264726 0.735542 -0.214251
-0.241309 0.010536 -0.435507
-0.241309 0.337836 -0.355921
-0.241309 -0.02362 -0.413912
-0.264726 -0.172429 0.243401
-0.264726 0.559676 -0.543693
-0.241309 0.013555 0.025135
-0.264726 0.522017 0.088064
-0.264726 0.157727 -0.480438
-0.264726 0.681679 -0.085782
-0.241309 0.100399 -0.023558
-0.264726 0.199842 0.16597
-0.241309 -0.151482 0.437398
-0.241309 0.026529 -0.213
-0.264726 0.326137 -0.465913
-0.264726 -0.310986 -0.498776
-0.264726 -0.604693 0.301898
-0.264726 0.293368 -0.157247
-0.264726 0.068631 -0.248422
-0.241309 0.017176 -0.006118
-0.264726 0.255172 0.129359
-0.264726 -0.330572 0.514288
-0.241309 0.580308 -0.248375
-0.264726 -0.63321 0.484719
-0.241309 0.129219 0.320581
-0.241309 0.377088 -0.526337
-0.241309 -0.251748 0.016644
-0.241309 -0.120539 -0.185276
-0.264726 -0.502593 -0.545214
-0.264726 -0.236076 0.442978
-0.241309 0.584036 -0.071896
-0.241309 -0.569859 0.098098
-0.241309 0.331117 -0.105736
-0.241309 0.606646 0.066824
-0.241309 0.764789 0.18131
-0.241309 0.207281 0.254925
-0.241309 -0.337518 0.271589
-0.264726 -0.107101 -0.542109
-0.264726 0.223773 0.361525
-0.244649 0.422905 -0.565508
-0.264726 0.337487 0.134668
-0.264726 -0.228329 -0.55438
-0.241309 0.704188 0.108759
-0.241309 0.038957 0.089789
-0.264726 -0.295676 0.461455
-0.241309 -0.352245 0.292852
-0.241309 -0.147814 -0.521795
-0.241309 0.374393 -0.406729
-0.264726 -0.18341 -0.445768
-0.264726 0.707915 -0.352838
-0.241309 0.188529 -0.41363
-0.241309 -0.086798 -0.073074
-0.264726 0.372328 -0.156568
-0.241309 0.429895 0.048212
-0.264726 0.264366 0.369889
-0.264726 0.382495 -0.375205
-0.241309 -0.262906 -0.36101
-0.241309 -0.392591 0.193448
-0.241309 -0.297179 0.337519
-0.241309 0.237904 0.272217
-0.241309 0.377774 0.384672
-0.264726 0.190172 0.451247
-0.241309 0.682768 -0.430935
-0.241309 -0.45984 -0.196472
-0.241309 0.134582 0.248691
-0.264726 -0.072843 0.008005
0.250449 0.638659 -0.191256
0.273866 -0.468766 -0.561082
0.273866 -0.253132 0.205874
0.250449 0.048778 -0.301687
0.250449 0.756682 -0.563102
0.273866 -0.267394 -0.300443
0.250449 -0.568128 0.221185
0.250449 0.350038 -0.280203
0.273866 0.029591 0.123069
0.262601 0.173536 -0.565508
0.273866 -0.416133 -0.032988
0.250449 0.432481 0.003617
0.273866 0.562623 0.391225
0.273866 0.205229 0.480936
0.273866 0.533417 -0.457681
0.273866 -0.066761 0.358695
0.273866 -0.063805 -0.526024
0.273866 -0.512226 -0.28933
0.273866 -0.420474 0.395228
0.273866 -0.040836 -0.094526
0.263948 0.771015 0.001453
0.261026 0.771015 0.366426
0.262761 0.771015 -0.35706
0.273866 0.182453 -0.147085
0.273866 0.492213 0.198216
0.273866 0.22183 0.058582
0.250449 -0.215393 0.005013
0.273866 0.122082 0.294996
0.273866 0.370571 -0.557659
0.273866 -0.274343 -0.557493
0.273866 -0.236926 0.441023
0.273866 0.375863 0.410336
0.273866 -0.627144 0.052839
0.273866 -0.416419 0.152631
0.273866 -0.104718 -0.249042
0.273866 0.456604 -0.160334
0.250449 -0.277032 -0.141181
0.273866 -0.364972 -0.421817
0.273866 0.200825 -0.314768
0.250449 0.053461 0.461841
0.250449 -0.10583 0.192666
0.273866 0.096817 -0.011928
0.273866 0.607832 0.095993
0.273866 0.09567 -0.434393
0.250449 0.344211 0.127392
0.26947 0.771015 -0.140248
0.273866 0.26155 -0.447989
0.273866 0.4782 -0.327285
0.273866 -0.077482 -0.384559
0.273866 0.620014 0.26486
0.250449 -0.37058 0.275929
0.273866 0.663845 -0.473585
0.273866 0.252022 0.359147
0.273866 -0.60358 -0.549626
0.273866 -0.507454 0.507569
0.250449 0.406292 0.291035
0.273866 0.159035 0.175746
0.273866 0.538445 -0.057518
0.273866 0.005607 0.255187
0.273866 -0.378254 -0.21739
0.250449 0.060591 -0.18037
0.250449 0.050202 -0.562203
0.250449 -0.324578 0.07613
0.250449 0.76856 0.229159
0.273866 -0.540786 -0.173174
0.273866 0.747491 0.116095
0.273866 -0.164001 -0.096376
0.250449 0.596687 -0.565241
0.273866 -0.219295 0.326413
0.250449 -0.521416 0.01525
0.273866 -0.50194 -0.451391
0.273866 0.651237 -0.073159
0.273866 0.660356 -0.32443
0.250449 -0.624928 -0.239473
0.273866 0.32742 0.018459
0.273866 0.69881 0.476322
0.250449 0.540307 -0.242518
0.250449 0.492584 0.093349
0.273866 -0.004247 0.021255
0.273866 -0.16285 -0.564792
0.266226 0.47632 -0.565508
0.273866 0.376091 -0.083398
0.250449 -0.401099 -0.318529
0.250449 -0.204844 0.110104
0.250449 -0.174455 -0.344558
0.273866 -0.489276 0.316443
0.250449 -0.31459 -0.033332
0.250449 0.142552 0.393494
0.273866 -0.314503 0.51035
0.250449 -0.320666 0.387385
0.273866 0.663192 0.377834
0.250449 0.121307 0.084599
0.273866 0.751181 -0.258636
0.273866 0.032106 0.366226
0.273866 -0.197929 -0.216261
0.273866 0.433562 -0.476806
0.273866 0.137692 -0.237115
0.273866 0.208879 -0.039112
0.250449 0.758192 -0.459149
0.250449 -0.148545 0.406881
0.273866 0.502735 0.31477
0.273866 -0.569785 -0.075287
0.273866 -0.127744 0.284649
0.273866 0.572859 -0.368151
0.250449 -0.413436 -0.13145
0.273866 0.350721 -0.175652
0.273866 -0.118347 -0.01248
0.273866 -0.528293 0.113866
0.273866 0.231781 0.236322
0.273866 -0.624013 0.1487
0.273866 0.349255 0.220227
0.250449 -0.415949 0.059175
0.250449 -0.039484 0.444382
0.273866 -0.060387 0.11236
0.273866 0.26227 -0.551137
0.250449 -0.018186 -0.239163
0.273866 0.66705 0.163922
0.250449 0.550277 -0.143707
0.250449 0.184928 -0.399707
0.273866 0.466099 0.395947
0.250449 0.07827 0.204806
0.273866 -0.250871 -0.471746
0.250449 0.00977 -0.473985
0.273866 0.340638 -0.36396
0.273866 0.685318 0.015506
0.273866 0.319346 0.303577
0.273866 0.070368 -0.097453
0.273866 0.265459 -0.236474
0.273866 0.266469 -0.114218
0.250449 -0.607116 0.298115
0.250449 -0.337503 0.176479
0.250449 0.577239 0.172032
0.250449 -0.48986 -0.093341
0.250449 0.02579 -0.387556
0.273866 0.525917 0.478413
0.273866 -0.467307 -0.366359
0.250449 0.696676 -0.397425
0.273866 0.294986 0.467157
0.250449 0.452443 -0.250137
0.273866 0.721942 0.295621
0.273866 0.587608 0.011029
0.250449 0.425054 0.153032
0.273866 -0.490856 0.191779
0.273866 -0.460696 -0.212202
0.273866 -0.242254 -0.389744
0.273866 0.424804 -0.394955
0.250449 0.34439 -0.463821
0.273866 -0.299893 0.309019
0.273866 -0.147306 -0.485147
0.273866 -0.388037 0.468991
0.273866 0.402024 0.076449
0.250449 -0.092355 -0.171764
0.250449 0.727745 -0.06984
0.250449 -0.606987 -0.417567
0.273866 0.105926 -0.356383
0.273866 -0.13561 0.064158
0.273866 -0.237401 -0.066575
0.273866 0.454256 -0.08051
0.273866 -0.279663 -0.223602
0.273866 -0.034206 -0.311541
0.273866 -0.544823 -0.361564
0.273866 -0.153067 0.492613
0.250449 0.388923 0.482641
0.273866 0.256699 -0.371306
0.273866 -0.023687 0.179443
0.273866 0.616617 -0.260608
0.250449 0.146043 -0.075165
0.250449 -0.191761 0.25127
0.273866 -0.332013 -0.508264
0.250449 0.548819 0.255994
0.273866 0.668004 -0.55846
0.273866 0.273012 0.125917
0.273866 -0.439175 0.261031
0.250449 -0.483065 0.439317
0.273778 0.771015 0.462129
0.273866 -0.430961 -0.470629
0.250449 0.710714 -0.179047
0.250449 0.534323 -0.525611
0.273866 0.62835 0.504823
0.273866 0.178317 -0.49541
0.250449 -0.136602 -0.416375
0.250449 0.313218 0.386478
0.250449 0.0243 -0.03929
0.250449 0.616543 -0.426301
0.250449 -0.275704 0.142942
0.250449 -0.333405 -0.299854
0.273866 0.419015 0.225432
0.273866 -0.362292 0.011914
0.273866 -0.326913 -0.097704
0.250449 -0.424271 0.324531
0.273866 0.057981 0.051436
0.250449 -0.607071 0.450649
0.250449 0.681359 -0.262871
0.273866 -0.060246 -0.457403
0.273866 -0.015929 0.505233
0.273866 0.409717 -0.323443
0.250449 -0.057474 -0.032753
0.273866 0.135945 0.458355
0.250449 -0.341378 -0.161634
0.273866 -0.54638 0.280832
0.250449 0.161334 0.238744
0.250449 0.670818 0.227795
0.273866 0.505034 0.032194
0.273866 0.608298 0.330452
0.250449 -0.279632 0.027142
0.250449 -0.306108 -0.382381
0.273866 0.3081 -0.062844
0.250449 -0.102534 -0.090068
0.250449 -0.028025 0.310706
0.273866 0.198558 -0.210979
0.273866 -0.059569 0.245868
0.250449 0.419392 0.355967
0.250449 0.517473 -0.398396
0.250449 -0.502172 0.376607
0.250449 0.135764 -0.302943
0.250449 -0.166093 0.167332
0.273866 -0.259545 0.3778
0.273866 -0.557343 -0.487772
0.250449 -0.303492 0.239855
0.250449 0.190115 0.123723
0.250449 -0.024597 -0.174577
0.271551 -0.376267 -0.565508
0.273866 0.679491 0.079862
0.273866 0.384524 -0.230991
0.273866 -0.444676 -0.277452
0.250449 -0.213331 -0.148258
0.250449 -0.389772 0.214781
0.273866 0.641024 0.442029
0.273866 -0.099071 0.44371
0.250449 0.666869 0.317609
0.250449 0.711843 0.411199
0.273866 -0.597132 -0.003061
0.273866 0.155543 0.036671
0.250449 -0.633508 0.355711
0.273866 -0.300541 0.442531
0.250449 0.257672 0.42199
0.273866 -0.548836 0.444363
0.273866 0.177153 0.325613
0.254162 -0.018934 -0.565508
0.273866 -0.257299 0.084439
0.250449 0.729218 0.180105
0.250449 -0.540608 -0.231545
0.273866 -0.470274 0.079688
0.273866 0.443564 0.462818
0.273866 0.056675 0.290892
0.250449 0.230892 0.295801
0.273866 0.681532 -0.127472
0.273866 0.083061 -0.515078
0.273866 -0.361987 0.347624
0.273866 0.36269 0.349391
0.273866 -0.072508 0.051883
0.273866 0.548261 0.080172
0.273866 0.601809 -0.508466
0.250449 0.615497 -0.134166
0.273866 0.01913 -0.131246
0.273866 0.267877 0.004494
0.273866 0.232854 0.17199
0.273866 0.037958 -0.246292
0.273866 0.260235 -0.174937
0.273866 0.123626 -0.127247
0.250449 0.477142 0.252207
0.250449 0.769655 0.060635
0.273866 -0.167333 -0.268493
0.273866 0.569295 -0.307785
0.250449 -0.11263 0.132643
0.273866 0.088524 0.136235
0.250449 0.311022 0.177801
0.250449 0.084331 0.347102
0.250449 0.485189 -0.025256
0.273866 -0.148932 -0.18161
0.25138 0.110014 -0.565508
0.250449 -0.411209 -0.39237
0.250449 0.148371 -0.449416
0.273866 -0.605831 -0.157026
0.250449 0.130601 -0.18155
0.250449 0.29454 -0.300692
0.250449 -0.550069 0.16507
0.273866 -0.205597 -0.509013
0.273866 0.289782 0.24197
0.250449 0.232873 -0.492899
0.273866 -0.502484 -0.041608
0.273866 -0.486642 -0.152387
0.250449 -0.245545 0.493311
0.250449 -0.35905 0.12255
0.273866 -0.297769 -0.438106
0.250449 0.515164 -0.189496
0.273866 0.326308 -0.233213
0.273866 0.486296 -0.504086
0.273866 -0.61757 -0.485023
0.250449 -0.463888 0.027337
0.273866 -0.490546 -0.507961
0.250449 -0.432345 -0.522993
0.250449 0.582102 -0.199911
0.273866 0.36685 -0.02699
0.273866 -0.196178 -0.423189
0.250449 0.342034 -0.124566
0.273866 0.093082 0.408605
0.250449 -0.327489 -0.243239
0.250449 0.409898 -0.138213
0.250449 0.627361 -0.021939
0.250449 0.278396 0.515995
0.250449 0.492402 -0.115147
0.273866 0.509746 0.141902
0.250449 -0.126421 -0.299712
0.273866 0.310717 -0.50255
0.250449 0.196369 0.410237
0.250449 0.47913 -0.439559
0.250449 0.31527 -0.413304
0.273866 -0.186084 -0.043602
0.273866 -0.572699 0.335905
0.250449 -0.607691 -0.297115
0.273866 0.762052 -0.512332
0.273866 -0.143877 0.338441
0.250449 0.512298 0.374659
0.273866 -0.200247 0.053099
0.250449 0.069377 0.515089
0.273866 0.731211 0.521343
0.250449 0.579817 -0.090838
0.250449 -0.217199 -0.309598
0.273866 0.296974 0.064344
0.250449 0.574403 0.461195
0.273866 -0.199903 0.377866
0.273866 0.202192 -0.093656
0.250449 0.489769 0.4444
0.273866 -0.259627 0.271749
0.250449 0.091389 -0.267415
0.273866 -0.442047 -0.08255
0.250449 0.627593 0.051279
0.250449 0.509414 -0.286915
0.250449 -0.014767 0.378889
0.250449 0.217741 0.008586
0.250449 -0.085521 0.308536
0.250449 0.376813 -0.40086
0.250449 -0.504824 -0.396744
0.273866 -0.585669 -0.206593
0.273866 -0.541923 0.062177
0.273866 -0.258265 -0.016544
0.273866 0.003473 0.423424
0.250449 0.423416 0.417361
0.273866 -0.384988 -0.512767
0.273866 0.618667 0.195703
0.250449 0.031441 0.179688
0.273866 0.014079 -0.334088
0.250449 0.769515 0.282046
0.250449 0.181369 -0.255538
0.250449 0.378451 0.177915
0.250449 0.355382 0.06827
0.250449 -0.48623 0.135306
0.250449 -0.512056 0.233831
0.250449 -0.030607 -0.381315
0.250449 -0.420893 -0.237191
0.250449 -0.38033 -0.466247
0.250449 0.233116 -0.281064
0.250449 -0.363224 0.417592
0.273866 0.041502 -0.431328
0.273866 -0.390128 -0.078589
0.273866 0.312635 -0.564102
0.250449 -0.083467 -0.338593
0.273866 -0.112153 -0.553694
0.273866 -0.530284 -0.122525
0.250449 0.543407 -0.001158
0.250449 0.420479 -0.202597
0.273866 -0.561898 -0.275934
0.273866 0.71798 0.244328
0.250449 0.712042 0.342053
0.250449 -0.438142 0.464117
0.250449 0.106932 0.247329
0.273866 -0.357759 -0.371076
0.273866 -0.160893 0.019729
0.250449 -0.553482 0.488872
0.250449 0.56461 0.320846
0.250449 -0.365816 -0.041151
0.273866 0.687277 -0.216966
0.273866 -0.121851 -0.130166
0.250449 0.168004 -0.021581
0.273866 0.394985 -0.444676
0.250449 0.467524 0.341866
0.250449 0.526056 -0.334088
0.250449 0.100902 0.032051
0.273866 0.36769 0.269736
0.273866 -0.102492 0.393906
0.250449 0.686382 -0.037529
0.273866 0.742573 -0.418059
0.250449 -0.488709 -0.326405
0.250449 0.011763 0.083043
0.273866 -0.188185 0.450213
0.273866 -0.070649 -0.209587
0.250449 -0.203161 0.200127
0.273866 0.016394 -0.189441
0.250449 0.695106 0.130575
0.250449 0.173694 0.076207
0.273866 -0.402139 -0.174256
0.250449 -0.448411 0.183065
0.273866 -0.567708 -0.435697
0.273866 -0.229621 -0.253835
0.273866 0.014653 -0.535918
0.271289 0.423492 -0.565508
0.250449 -0.057039 0.492332
0.250449 -0.461245 -0.437971
0.250449 0.218359 -0.44636
0.250449 0.456538 0.045964
0.250449 -0.586956 -0.355368
0.250449 0.36763 -0.329768
0.250449 -0.063349 0.164022
0.273866 0.137528 -0.393251
0.250449 -0.026233 -0.50643
0.250449 0.099874 -0.054172
0.273866 -0.414439 0.10428
0.250449 0.051424 0.2489
0.273866 -0.23657 0.158839
0.250449 0.27465 0.316193
0.250449 0.616161 0.407947
0.250449 0.334149 0.482781
0.273866 0.71524 -0.457758
0.255946 0.771015 -0.04955
0.273866 -0.318762 0.134136
0.250449 0.618451 -0.325466
0.273866 0.657521 -0.418003
0.250449 0.30029 -0.147779
0.250449 -0.527761 0.332169
0.250449 -0.154307 0.221747
0.250449 -0.603937 -0.051639
0.273866 0.40985 -0.271285
0.273866 -0.495591 -0.244552
0.250449 0.420727 0.520048
0.250449 -0.092004 -0.484455
0.273866 -0.328219 -0.201968
0.250449 0.299439 -0.364121
0.273866 0.581765 0.225343
0.250449 -0.019359 0.138546
0.250449 0.731925 -0.118086
0.273866 0.324199 0.426073
0.250449 0.221964 0.518337
0.273866 0.623822 0.140333
0.273866 0.01981 0.320243
0.250449 -0.33482 -0.558412
0.250449 0.462495 -0.364843
0.250449 0.720593 0.085576
0.250449 -0.290925 -0.478827
0.273866 0.580204 -0.036143
0.273866 0.149673 0.120326
0.273866 -0.295419 -0.337971
0.250449 -0.076864 0.011599
0.273866 0.725656 -0.354612
0.273866 -0.609151 -0.109204
0.273866 0.217357 -0.538556
0.250449 0.118613 -0.485266
0.250449 0.75575 -0.190626
0.273866 -0.151659 0.123256
0.273866 -0.426158 0.012374
0.250449 -0.366312 0.055723
0.250449 0.222204 -0.142825
0.250449 0.003332 -0.292843
0.273866 -0.211535 -0.104937
0.264595 -0.22985 -0.565508
0.250449 -0.21942 -0.357248
0.273866 -0.010181 -0.439664
0.273866 -0.606091 0.096232
0.269285 0.771015 -0.093634
0.250449 0.722649 0.002262
0.250449 0.265621 0.194111
0.273866 0.246543 -0.065408
0.273866 0.069087 -0.394633
0.250449 0.543122 0.20264
0.273866 -0.129907 -0.37758
0.273866 -0.463578 0.354323
0.250449 -0.562296 -0.396748
0.273866 0.618398 -0.364678
0.273866 -0.282776 -0.06144
0.250449 -0.012628 0.217037
0.250449 0.437396 -0.045228
0.250449 0.242 0.102219
0.273866 0.570628 -0.413546
0.250449 0.086729 -0.14319
0.273866 -0.601819 0.489239
0.250449 0.440556 0.110345
0.273866 0.051876 -0.005733
0.250449 -0.479361 0.278943
0.270559 0.712632 -0.565508
0.250449 -0.496132 -0.196479
0.273866 -0.590737 0.263099
0.273866 -0.12946 -0.056266
0.250449 0.689696 0.274394
0.273866 0.01436 0.471813
0.250449 0.285076 -0.029962
0.250449 -0.037713 0.06804
0.250449 0.397225 0.038398
0.273866 -0.615234 0.200744
0.273866 -0.299474 0.177339
0.250449 -0.09704 0.262209
0.250449 0.124942 0.496828
0.250449 0.474309 0.486252
0.250449 -0.054596 -0.418933
0.250449 0.233026 -0.341684
0.273866 -0.424049 -0.355805
0.273866 0.249503 0.484715
0.250449 -0.369663 -0.12422
0.250449 -0.145077 0.451085
0.261092 0.771015 0.504599
0.250449 0.212084 0.36891
0.250449 -0.351429 0.476987
0.250449 -0.270198 -0.096638
0.250449 0.495365 -0.240106
0.273866 -0.559555 -0.550758
0.273866 -0.171737 -0.139718
0.250449 -0.199782 0.294675
0.273866 0.232503 -0.408043
0.250449 0.072562 -0.22767
0.250449 0.200352 0.190107
0.273866 -0.346273 0.247816
0.250449 -0.455888 0.226323
0.273866 -0.310863 0.00721
0.273866 0.524732 0.413161
0.250449 0.260392 0.059116
0.250449 0.753011 0.425979
0.250449 0.770241 0.165037
0.250449 0.571261 -0.48777
0.273866 -0.540146 -0.019683
0.273866 0.387824 0.142393
0.250449 -0.379637 0.165953
0.250449 0.290873 -0.210283
0.273866 0.127323 -0.532724
0.250449 0.708685 0.043478
0.250449 0.177269 0.520046
0.250449 0.361789 0.449019
0.250449 0.365269 0.3132
0.250449 0.067975 0.106359
0.25863 -0.071792 -0.565508
0.252611 -0.524036 -0.565508
0.273866 0.459528 -0.288575
0.273866 -0.251614 -0.191095
0.273866 -0.465137 -0.020617
0.273866 0.601745 -0.169892
0.250449 0.467551 0.148359
0.273866 -0.556937 0.022193
0.262653 0.543297 -0.565508
0.273866 -0.444002 -0.152491
0.273866 0.513447 0.260124
0.250449 -0.074753 -0.268177
0.273866 0.183448 -0.44015
0.250449 -0.028434 0.264739
0.250449 -0.53047 -0.430505
0.273866 0.174701 0.271403
0.250449 -0.446583 0.11881
0.273866 0.397736 -0.520359
0.273866 0.175196 0.367804
0.250449 0.450747 -0.507732
0.250449 -0.109104 0.359466
0.273866 -0.035195 -0.141236
0.273866 0.003251 -0.092324
0.250449 -0.535203 -0.054202
0.250449 -0.23365 0.401049
0.273866 0.657688 0.115627
0.250449 0.719461 -0.229898
0.250449 -0.325041 0.332822
0.250449 0.394045 -0.485321
0.273866 0.468502 -0.200375
0.273866 0.701657 -0.504447
0.273866 -0.184337 -0.465944
0.250449 -0.123719 -0.457373
0.273866 -0.387699 0.305704
0.250449 -0.269173 0.324358
0.273866 0.712703 0.376295
0.250449 -0.504485 0.080274
0.255377 -0.431968 -0.565508
0.273866 0.146085 -0.346364
0.250449 0.057759 -0.485081
0.273866 -0.096673 0.227555
0.273866 -0.293368 0.354018
0.273866 0.313514 -0.106062
0.250449 0.10284 -0.390661
0.250449 0.175894 -0.180421
0.273866 -0.465827 0.483748
0.250449 0.087884 0.304212
0.273866 0.579649 0.12604
0.273866 0.59385 0.054368
0.273866 0.575495 -0.258428
0.273866 0.61659 -0.216881
0.273866 0.634117 -0.535143
0.250449 -0.189363 0.416536
0.250449 0.664614 -0.159489
0.273866 0.675768 -0.371021
0.250449 -0.064082 -0.118875
0.250449 0.232206 -0.210335
0.273866 0.080047 0.482157
0.250449 0.277291 -0.502235
0.273866 -0.36547 0.089133
0.273866 -0.612954 -0.332634
0.273866 0.101131 -0.315934
0.273866 0.23218 0.443449
0.273866 -0.431687 -0.422595
0.273866 -0.375826 -0.29685
0.250449 0.047991 -0.072812
0.273866 0.691556 -0.078674
0.250449 -0.02313 -0.010936
0.273866 -0.024526 0.3472
0.250449 -0.417237 0.42934
0.250449 -0.56069 -0.309038
0.273866 0.515648 -0.138651
0.273866 -0.294549 0.100303
0.250449 0.316723 0.090817
0.250449 0.600838 0.523063
0.250449 0.686442 -0.441696
0.273866 0.423038 -0.108006
0.273866 0.498069 -0.057143
0.250449 0.668249 0.464191
0.250449 0.396153 -0.358308
0.273866 0.134795 0.002135
0.273866 0.568819 -0.531584
0.250449 0.623432 0.359508
0.250449 0.102069 0.166049
0.250449 -0.105461 -0.209823
0.273866 -0.524312 -0.529852
0.273866 0.053116 -0.357713
0.250449 -0.288049 0.472731
0.250449 -0.27188 0.42684
0.250449 -0.197735 -0.075327
0.273866 0.405675 -0.015007
0.273866 -0.291122 -0.521005
0.273866 -0.403464 -0.264678
0.250449 0.137241 0.2068
0.273866 0.654292 -0.284945
0.273866 -0.573536 -0.133591
0.273866 0.623159 -0.1015
0.250449 0.453862 0.304442
0.273866 0.153528 -0.276096
0.250449 0.649049 0.017754
0.250449 0.056027 0.387742
0.250449 -0.48147 -0.279889
0.273866 0.334098 -0.308117
0.250449 0.328093 0.244398
0.250449 0.297336 0.029614
0.250449 -0.105737 0.05255
0.250449 0.634707 0.293288
0.250449 -0.468602 -0.052381
0.250449 -0.169003 0.093372
0.273866 -0.331132 0.28478
0.250449 0.279289 -0.085144
0.250449 -0.044203 -0.344281
0.250449 -0.198649 -0.391565
0.273866 0.267467 0.274474
0.250449 -0.342257 -0.456276
0.250449 -0.28293 0.512129
0.273866 -0.192952 -0.177233
0.270165 0.771015 -0.224905
0.273866 0.138394 0.33182
0.250449 -0.517417 0.473395
0.250449 -0.165441 -0.303491
0.250449 -0.132554 -0.346255
0.250449 -0.0936 0.098415
0.250449 0.532728 -0.088315
0.250449 0.562798 -0.443713
0.273866 -0.325878 -0.4111
0.250449 0.372561 -0.153432
0.273866 -0.165102 0.295665
0.273866 0.71813 -0.27944
0.273866 0.733114 0.453206
0.250449 -0.592941 0.147963
0.250449 -0.051225 0.40734
0.250449 -0.243948 0.235487
0.250449 0.616117 0.476388
0.250449 -0.366101 -0.247161
0.250449 0.53892 0.445518
0.273866 0.264021 -0.282167
0.250449 -0.389276 -0.010286
0.250449 0.379773 0.098402
0.273866 -0.254235 -0.336875
0.250449 -0.5764 -0.166285
0.250449 -0.439076 -0.311045
0.273866 0.301575 -0.262986
0.273866 0.572218 0.276028
0.273866 -0.590205 0.424878
0.250449 -0.368003 0.377751
0.250449 -0.455922 -0.111761
0.250449 0.512138 0.174883
0.273866 0.688398 0.202673
0.273866 0.659973 -0.021978
0.273866 -0.21577 0.486158
0.250449 0.633525 -0.469475
0.250449 0.012284 0.290652
0.250449 0.0207 0.503286
0.273866 -0.026284 -0.268546
0.273866 0.20555 -0.354818
0.250449 -0.626224 0.022405
0.273866 0.51397 0.518278
0.250449 -0.142832 -0.250602
0.273866 0.365666 0.020888
0.250449 0.5813 -0.335644
0.273866 -0.279388 -0.261898
0.250449 -0.422602 0.365034
0.250449 -0.284726 -0.193792
0.273866 0.187944 0.00114
0.273866 0.299588 -0.33049
0.250449 -0.196301 -0.246409
0.250449 -0.352184 -0.07683
0.273866 0.48735 -0.397465
0.273866 -0.096882 -0.293918
0.273866 0.550169 0.158868
0.250449 0.03414 0.42904
0.273866 -0.615627 -0.268176
0.273866 0.087894 -0.471619
0.273866 -0.087945 -0.06391
0.250449 -0.095474 -0.032462
0.250449 0.026055 0.217297
0.273866 0.559488 0.038271
0.273866 0.213207 -0.175976
0.250449 0.167877 0.435227
0.273866 -0.022829 -0.476844
0.273866 0.156216 0.490354
0.250449 0.174707 -0.300652
0.273866 -0.384791 0.249895
0.250449 0.633003 0.168509
0.273866 0.102844 -0.171172
0.250449 -0.338 0.030791
0.250449 0.27684 0.376539
0.273866 0.394789 -0.187994
0.250449 0.350616 -0.068579
0.273866 -0.240725 -0.435557
0.250449 -0.473417 -0.484078
0.250449 -0.014097 -0.115978
0.250449 0.235608 0.142818
0.273866 0.640891 0.077331
0.250449 -0.539526 -0.09129
0.273866 -0.241878 -0.143149
