0.305578 0.241983 0.119841
-0.16302 0.26553 -0.112634
-0.067175 0.241983 0.074785
-0.295516 0.26553 -0.063372
-0.210182 0.26553 0.175654
-0.394785 0.241983 0.11211
0.348368 0.241983 -0.027904
0.181665 0.241983 0.24712
0.32811 0.241983 0.215339
0.039065 0.26553 0.097425
0.178029 0.241983 0.112629
0.106381 0.26553 -0.182532
-0.360708 0.241983 0.060001
0.283273 0.26553 -0.068122
0.530972 0.26553 -0.198999
-0.011196 0.241983 -0.092644
-0.502488 0.241983 -0.164114
-0.171558 0.241983 0.23534
-0.207657 0.241983 -0.038432
-0.493468 0.26553 0.237377
-0.50307 0.26553 0.075318
0.341201 0.241983 -0.206509
0.058623 0.26553 0.188093
-0.489569 0.241983 0.191964
-0.55297 0.259209 0.001743
-0.330507 0.26553 -0.201904
0.230907 0.26553 -0.094388
0.535003 0.241983 0.067043
0.496607 0.241983 0.227042
-0.452443 0.26553 0.094087
0.08158 0.26553 0.254835
0.398007 0.241983 -0.234031
0.3231 0.241983 0.062272
-0.24902 0.26553 0.02486
-0.038486 0.26553 -0.143214
-0.468163 0.26553 -0.110416
-0.32589 0.241983 -0.008794
-0.36379 0.241983 0.134555
-0.408966 0.26553 -0.04354
0.087127 0.241983 0.11649
-0.442931 0.26553 0.228664
0.438547 0.241983 -0.243197
-0.537413 0.241983 -0.228519
-0.535231 0.241983 -0.072241
0.330233 0.26553 -0.085631
-0.156569 0.26553 0.008373
-0.499889 0.241983 0.149349
-0.417649 0.241983 0.16334
0.317216 0.26553 -0.155681
-0.305721 0.26553 0.0397
-0.338475 0.241983 0.211992
-0.048715 0.26553 0.031921
-0.365062 0.241983 0.180862
-0.072904 0.241983 0.046082
-0.016857 0.241983 0.2076
-0.384576 0.26553 -0.061792
-0.015261 0.241983 -0.064558
0.013155 0.241983 -0.140435
-0.06604 0.26553 -0.14913
-0.351896 0.26553 -0.102697
0.472599 0.26553 -0.180711
-0.167218 0.241983 -0.009094
0.228431 0.26553 -0.047487
-0.240918 0.241983 -0.157925
-0.228821 0.241983 -0.12664
0.200951 0.241983 0.087891
-0.111351 0.241983 0.178464
-0.080331 0.26553 0.122539
0.541951 0.246636 -0.057686
-0.053692 0.26553 -0.202373
0.282061 0.26553 0.214212
-0.220567 0.241983 -0.176931
-0.232921 0.241983 0.027052
-0.280501 0.26553 -0.101764
0.45606 0.241983 0.151353
-0.55297 0.260695 -0.163823
0.076402 0.26553 -0.249422
0.127027 0.26553 -0.048084
0.488674 0.26553 0.192582
0.394333 0.26553 0.185345
0.426989 0.241983 0.091216
-0.55297 0.251438 -0.204836
0.107214 0.255335 0.257495
-0.260804 0.26553 -0.003705
-0.082664 0.248264 0.257495
0.20202 0.241983 -0.224882
0.267736 0.241983 0.124294
0.285936 0.26553 -0.256563
0.100184 0.241983 -0.101906
-0.108904 0.26553 -0.011957
-0.394814 0.241983 0.056854
-0.131322 0.241983 -0.188282
-0.000905 0.241983 0.240998
-0.451744 0.26553 -0.230848
0.099978 0.26553 -0.233961
-0.484835 0.241983 -0.105335
0.188856 0.26553 0.195426
0.089444 0.26553 0.228778
0.358333 0.26553 -0.038332
0.283034 0.26553 0.14057
-0.255711 0.26553 0.107181
-0.547533 0.241983 0.196604
-0.274745 0.26553 -0.033875
-0.126648 0.26553 0.24109
-0.217247 0.26553 0.201777
-0.145275 0.26553 0.156933
-0.139557 0.26553 0.126451
-0.315813 0.26553 -0.038799
-0.188833 0.26553 0.13263
0.124337 0.241983 0.162531
0.450782 0.26553 0.204861
-0.409724 0.26553 0.204416
0.518371 0.241983 0.134384
-0.076614 0.241983 0.000449
-0.386749 0.241983 -0.19029
0.375305 0.241983 0.024729
-0.206128 0.241983 0.223503
-0.297482 0.26553 0.166715
-0.494355 0.26553 -0.057944
0.090881 0.241983 0.142932
-0.29645 0.26553 -0.149049
0.151363 0.241983 0.112167
-0.407775 0.241983 -0.070306
-0.051974 0.241983 -0.127833
0.077102 0.241983 0.219498
-0.282992 0.241983 0.077256
-0.452187 0.26553 0.185106
0.406787 0.26553 0.054161
0.156568 0.241983 -0.165716
-0.109835 0.241983 -0.126294
-0.366568 0.241983 -0.240866
0.24503 0.241983 0.105827
0.461729 0.241983 0.049074
-0.42807 0.26553 -0.092915
-0.419895 0.241983 -0.038387
-0.421919 0.26553 0.139269
0.199796 0.241983 -0.158204
0.223912 0.262352 -0.257589
0.510245 0.26553 -0.089
-0.258384 0.26553 0.234015
-0.071918 0.26553 0.200059
-0.479504 0.241983 -0.15125
0.040233 0.26553 -0.132155
0.432538 0.241983 0.233448
-0.299471 0.241983 -0.007279
-0.304932 0.241983 0.188836
-0.139904 0.241983 0.05664
0.030328 0.26553 0.190899
-0.212494 0.26553 -0.103282
0.29666 0.241983 0.070595
-0.351284 0.26553 -0.225883
0.435902 0.26553 0.103765
-0.382366 0.26553 0.180272
-0.390913 0.241983 -0.101148
-0.13205 0.241983 -0.086685
0.10018 0.241983 -0.146083
-0.230865 0.241983 0.250949
0.087276 0.26553 -0.06476
-0.466701 0.255295 0.257495
0.136072 0.26553 -0.210778
0.035479 0.26553 -0.033688
-0.017247 0.241983 -0.148741
0.152552 0.241983 0.041392
-0.530684 0.26553 0.159734
0.532189 0.241983 -0.164372
-0.034456 0.254112 0.257495
-0.035979 0.241983 0.085736
-0.099229 0.241983 0.232095
-0.241158 0.241983 0.189391
-0.526479 0.241983 -0.017067
-0.218659 0.241983 0.114164
0.050431 0.26553 0.139277
-0.019652 0.26553 -0.004226
-0.368486 0.26553 -0.145689
0.309376 0.241983 -0.1003
0.413492 0.241983 -0.114754
0.027547 0.241983 -0.092696
-0.309945 0.241983 -0.200623
-0.115673 0.26553 -0.161565
0.388146 0.26553 0.11315
0.499934 0.241983 0.015468
-0.040058 0.241983 -0.03581
-0.174165 0.241983 -0.246786
-0.302994 0.241983 -0.132455
0.1239 0.26553 0.11136
0.24403 0.241983 -0.082423
0.457196 0.26553 -0.136203
0.407129 0.241983 0.147712
-0.314624 0.241983 0.141149
0.170827 0.26553 -0.088413
0.419705 0.26553 -0.215439
0.237479 0.26553 0.235466
0.052001 0.241983 0.053332
0.07277 0.241983 -0.007185
0.00819 0.241983 -0.112969
0.084398 0.26553 0.060603
-0.027184 0.26553 0.202865
0.090595 0.241983 -0.171073
0.301615 0.241983 0.174144
-0.352801 0.26553 0.041393
-0.072635 0.26553 -0.184728
0.446122 0.26553 -0.241255
-0.400957 0.241983 0.008173
0.499346 0.26553 0.148501
0.437914 0.241983 0.042298
-0.099271 0.241983 0.081748
0.040599 0.241983 0.25019
0.155078 0.26553 -0.178425
0.32666 0.244833 0.257495
0.520661 0.26553 0.218927
0.326334 0.26553 0.116794
0.192781 0.241983 0.04949
-0.334795 0.258625 -0.257589
0.198729 0.241983 0.150818
0.046942 0.26553 -0.101848
-0.238705 0.241983 -0.022657
0.177805 0.26553 -0.19354
-0.325303 0.26553 0.156681
0.451457 0.26553 0.156194
0.007809 0.26553 -0.050651
-0.238125 0.26553 -0.152098
0.064101 0.26553 -0.126338
-0.532292 0.241983 0.220339
-0.262839 0.26553 -0.130748
-0.138348 0.241983 -0.038609
-0.335976 0.26553 -0.138009
0.15638 0.241983 -0.113805
0.236346 0.26553 -0.016339
0.02535 0.258426 -0.257589
-0.278453 0.241983 -0.118699
0.279597 0.241983 0.20894
0.041914 0.241983 -0.060408
0.504518 0.241983 0.051417
0.336865 0.26553 0.024379
0.342006 0.241983 -0.250494
0.447613 0.26553 -0.215513
0.537825 0.26553 -0.22421
0.017037 0.26553 0.214205
0.438394 0.26553 -0.0979
0.387048 0.26553 0.076976
-0.492365 0.241983 -0.223049
-0.516088 0.241983 -0.092713
-0.361165 0.26553 0.093231
0.14265 0.241983 0.004295
-0.339821 0.241983 -0.165061
-0.162423 0.241983 -0.060859
0.504808 0.26553 -0.188541
-0.525495 0.241983 0.110662
0.186178 0.262995 0.257495
0.016673 0.26553 0.147795
-0.375518 0.241983 0.040618
-0.53483 0.26553 -0.013309
-0.44138 0.241983 0.16116
0.09761 0.241983 -0.04014
0.354076 0.241983 -0.104545
0.271705 0.241983 -0.159271
-0.180678 0.241983 0.137173
0.380617 0.26553 -0.03007
0.460843 0.26553 0.120575
-0.445293 0.241983 0.226826
-0.471185 0.241983 0.016909
0.148309 0.26553 0.120286
0.220117 0.26553 0.012897
0.004494 0.241983 0.217862
0.053725 0.241983 0.22317
-0.377682 0.241983 0.153708
0.401435 0.26553 -0.0769
0.084867 0.26553 0.101901
0.186024 0.241983 -0.060752
0.465203 0.241983 0.178738
-0.094983 0.26553 -0.217192
0.320932 0.26553 -0.060969
0.37744 0.241983 -0.20192
-0.134407 0.241983 -0.142505
0.538211 0.241983 -0.238212
-0.417903 0.241983 -0.153874
0.537682 0.26553 -0.007032
-0.006634 0.26553 -0.136476
-0.151188 0.241983 0.251067
-0.197757 0.241983 -0.242568
-0.448906 0.26553 -0.034408
0.216653 0.241983 0.256734
0.330548 0.26553 0.15132
-0.35007 0.241983 0.247381
-0.400053 0.26553 -0.18711
-0.171179 0.26553 -0.138198
0.414497 0.26553 0.027589
0.293241 0.241983 -0.04541
0.312395 0.511913 -0.024335
-0.065127 0.53546 0.106392
-0.298271 0.511913 -0.014373
0.08797 0.511913 -0.068922
-0.110657 0.53546 -0.101824
-0.453767 0.511913 0.11402
0.141855 0.511913 0.117195
0.309668 0.53546 0.142629
0.442654 0.53546 -0.136739
-0.412345 0.53546 -0.128664
-0.233676 0.511913 0.146149
0.485239 0.511913 0.010446
0.23042 0.511913 -0.135185
-0.040387 0.511913 0.23797
0.11098 0.53546 -0.226185
-0.240757 0.511913 -0.136537
-0.163365 0.511913 0.020076
-0.55297 0.527028 0.032297
-0.000117 0.511913 -0.161526
-0.021808 0.511913 -0.006843
0.192839 0.511913 0.004752
-0.434117 0.511913 -0.003689
0.425156 0.511913 0.10876
-0.336919 0.53546 0.101821
0.043568 0.511913 0.167973
0.338916 0.53546 -0.164428
0.204262 0.511913 0.203783
-0.475802 0.53546 0.220597
0.055158 0.53546 0.069236
-0.377613 0.511913 0.185352
-0.49939 0.53546 -0.182182
-0.140046 0.511913 -0.196016
0.386422 0.53546 0.198677
0.236966 0.53546 0.08462
-0.328496 0.511913 -0.1668
-0.495071 0.511913 -0.092666
-0.150895 0.53546 0.174772
0.348211 0.53546 0.05468
0.144392 0.53546 -0.140569
0.404816 0.53546 -0.056091
-0.19293 0.53546 -0.066264
-0.243363 0.511913 0.052109
-0.280427 0.53546 0.208778
0.117722 0.511913 0.202867
0.035699 0.535161 0.251609
0.467823 0.53546 0.192331
-0.025273 0.53546 -0.083161
0.114889 0.511913 0.015943
-0.344516 0.53546 -0.089239
-0.159036 0.53546 0.094001
-0.09813 0.53546 -0.014816
0.525822 0.53546 -0.191552
0.18282 0.511913 -0.211862
0.422715 0.511913 -0.2097
0.237614 0.511913 -0.055278
-0.207303 0.53546 0.223594
-0.069313 0.53546 -0.197972
-0.38568 0.511913 -0.226122
-0.275283 0.53546 -0.21247
0.412176 0.511913 0.020405
0.320908 0.511913 -0.096434
0.305069 0.511913 -0.227913
-0.35629 0.53546 0.021356
-0.033992 0.511913 0.16678
0.158573 0.511913 -0.074974
-0.500665 0.53546 -0.026525
-0.173184 0.53546 -0.139109
0.07977 0.511913 -0.14415
-0.402808 0.53546 0.074388
0.263317 0.53546 0.230688
0.488288 0.511913 0.078357
0.044787 0.53546 -0.205618
-0.106599 0.53546 0.250977
0.266782 0.53546 0.017217
-0.228117 0.511913 -0.011723
0.485949 0.53546 -0.05026
0.238183 0.511913 0.145241
-0.214864 0.511913 -0.209588
-0.26554 0.53546 -0.06509
0.000273 0.53546 0.11759
-0.515484 0.511913 0.164766
0.164952 0.53546 0.056765
0.053936 0.511913 -0.001713
0.51316 0.511913 -0.133539
0.539465 0.53546 0.033652
0.372765 0.53546 0.138321
0.028293 0.511913 -0.103281
-0.010751 0.511913 0.053947
0.237449 0.53546 -0.195231
0.29385 0.511913 0.079993
-0.112012 0.511913 0.062206
-0.308923 0.511913 0.15076
-0.398235 0.511913 -0.051943
-0.396322 0.53546 0.236375
-0.440934 0.511913 0.179791
0.289217 0.511913 -0.146133
-0.55297 0.51652 -0.193255
-0.070001 0.511913 -0.135225
-0.438063 0.511913 -0.174536
-0.155909 0.511913 0.232764
-0.095641 0.511913 0.148476
-0.021399 0.511913 -0.2176
0.502647 0.511913 0.148344
-0.45496 0.53546 -0.061119
-0.306833 0.53546 0.04792
-0.457986 0.511913 0.058043
-0.500942 0.53546 0.092771
0.144623 0.53546 -0.0268
0.541951 0.518073 -0.257871
-0.379804 0.511913 0.126863
0.479755 0.522426 0.251609
0.477494 0.511913 -0.182469
0.404876 0.511913 -0.105077
-0.102353 0.511913 0.202335
-0.296995 0.53546 -0.129574
0.309716 0.53546 0.202767
-0.269784 0.511913 0.106516
0.513715 0.511913 0.206897
0.421261 0.511913 0.166178
0.090553 0.53546 0.162332
0.362387 0.511913 -0.007316
0.433393 0.511913 0.22422
-0.062362 0.53546 0.054313
0.439265 0.511913 -0.024971
0.192653 0.53546 0.136708
0.369963 0.53546 -0.222993
0.085743 0.522413 0.251609
0.195148 0.53546 -0.164138
-0.550242 0.511913 -0.076048
0.400371 0.53546 -0.170662
0.456852 0.511913 -0.084378
-0.121724 0.511913 -0.058988
0.342575 0.511913 0.17207
-0.213348 0.53546 0.084471
-0.354852 0.511913 -0.02712
0.404482 0.53546 0.06377
0.268263 0.53546 -0.107772
-0.167139 0.53546 -0.02343
0.120686 0.511913 0.072388
0.190668 0.53546 -0.104488
-0.071639 0.511913 -0.08247
-0.398689 0.511913 0.030788
-0.317998 0.511913 -0.226753
-0.510645 0.53546 -0.134266
0.011581 0.53546 -0.050554
-0.474117 0.53546 0.152602
-0.439586 0.53546 -0.218589
-0.20529 0.53546 0.026448
-0.494466 0.53546 0.021468
0.2145 0.511913 0.047934
-0.369772 0.53546 -0.159188
-0.192001 0.511913 0.182837
-0.339927 0.511913 0.214798
-0.280845 0.511913 -0.168503
0.110379 0.511913 -0.185347
0.341876 0.511913 0.094899
0.251506 0.53546 0.183501
0.095174 0.511913 0.119124
0.051042 0.53546 0.207389
-0.385809 0.511913 -0.098925
0.308359 0.511913 0.021604
0.291254 0.53546 -0.185681
-0.244132 0.511913 0.193057
0.268499 0.53546 -0.030649
0.15136 0.53546 0.156835
0.352909 0.53546 -0.073624
0.004656 0.511913 0.192043
0.115941 0.511913 -0.113673
0.170295 0.511913 0.233994
-0.098918 0.53546 -0.239479
0.038606 0.511913 0.115087
0.463994 0.53546 0.042432
-0.232741 0.53546 -0.175687
-0.429124 0.53546 0.142932
0.507992 0.511913 -0.225027
-0.131382 0.53546 -0.159258
-0.046436 0.511913 -0.045922
-0.365714 0.511913 0.060483
0.29404 0.53546 -0.070309
-0.147837 0.511913 -0.106162
0.244567 0.511913 -0.231975
-0.179551 0.511913 -0.237183
0.465063 0.53546 0.148269
0.150954 0.53546 -0.18407
-0.300354 0.511913 -0.092893
0.07929 0.53546 -0.033215
0.423178 0.522472 -0.260532
0.029765 0.53546 -0.14028
-0.063796 0.511913 0.018079
-0.194503 0.511913 0.115443
0.357861 0.511913 -0.133641
0.008285 0.53546 0.01304
0.324624 0.53546 -0.258158
-0.004519 0.53546 0.236525
0.044343 0.511913 -0.064171
-0.031057 0.53546 -0.178105
0.541951 0.527796 -0.053749
-0.117726 0.511913 0.112811
-0.340525 0.522338 -0.260532
-0.315796 0.53546 -0.044134
0.078283 0.53546 0.022475
-0.189093 0.511913 -0.10074
-0.258374 0.53546 0.004083
-0.026437 0.53546 0.085969
-0.029362 0.511913 -0.127532
-0.175149 0.511913 -0.174265
0.336281 0.511913 0.223616
0.392221 0.53546 0.24216
0.443388 0.53546 -0.177468
-0.537541 0.511913 -0.230598
-0.059867 0.511913 0.20229
0.358736 0.511913 -0.190698
-0.113217 0.511913 0.014381
-0.55297 0.518291 0.150339
-0.365748 0.53546 -0.199294
0.207291 0.53546 -0.043054
-0.431158 0.53546 0.210916
-0.146277 0.53546 -0.227939
-0.240912 0.53546 -0.249902
0.074498 0.53546 -0.242812
0.113659 0.511913 -0.038163
-0.55297 0.526554 -0.015916
0.496109 0.511913 -0.09137
0.457335 0.53546 0.108916
0.278883 0.511913 0.150047
-0.465305 0.53546 -0.102831
-0.245516 0.53546 0.232697
-0.299517 0.53546 0.086499
-0.401161 0.511913 -0.158148
0.223967 0.53546 0.018064
0.162507 0.53546 0.012438
0.178176 0.511913 -0.133071
0.475547 0.511913 -0.143548
0.069345 0.511913 -0.186722
-0.397564 0.53546 2.2e-05
-0.323833 0.511913 0.022255
0.527859 0.53546 0.234065
-0.334261 0.511913 -0.117852
-0.098619 0.511913 -0.205979
-0.193977 0.511913 0.251452
0.165785 0.511913 0.183436
-0.517961 0.53546 -0.06074
-0.279624 0.511913 0.178762
0.066181 0.511913 -0.100738
0.129089 0.53546 0.043807
-0.198754 0.511913 0.058523
0.207368 0.527229 -0.260532
0.375365 0.511913 0.077249
-0.162369 0.511913 -0.052631
-0.207727 0.53546 -0.12384
0.190737 0.511913 0.107275
-0.429035 0.53546 0.047412
-0.513275 0.53546 0.217347
-0.135895 0.511913 -0.024167
-0.438823 0.511913 0.242287
-0.532075 0.511913 -0.157925
-0.0702 0.511913 -0.23026
-0.5059 0.511913 -0.210883
0.384677 0.53546 0.011039
-0.080312 0.53546 0.22251
-0.198939 0.511913 -0.038236
0.346645 0.53546 -0.037275
0.507442 0.511913 -0.032072
0.095677 0.53546 0.058826
0.143362 0.511913 -0.211012
0.472909 0.53546 -0.016093
-0.237737 0.511913 -0.062256
-0.281574 0.511913 0.065135
-0.492643 0.511913 0.198382
-0.091057 0.53546 -0.168849
0.468228 0.53546 -0.109413
0.345949 0.511913 -0.236238
-0.504805 0.53546 0.133547
-0.322621 0.511913 0.071986
0.000723 0.511913 0.088086
0.106952 0.53546 -0.144079
-0.533253 0.53546 0.185284
-0.068629 0.53546 0.14669
-0.472916 0.53546 -0.15803
0.112282 0.53546 -0.010826
-0.020684 0.53546 -0.035254
-0.483157 0.511913 -0.046732
0.22118 0.53546 0.234393
0.439616 0.533766 0.251609
-0.413066 0.53546 0.111192
0.518342 0.511913 0.049871
-0.266972 0.511913 -0.031226
-0.198126 0.53546 0.157075
0.247841 0.511913 -0.165984
-0.320368 0.53546 -0.200506
0.407541 0.53546 0.132069
0.125735 0.511913 0.23727
-0.140715 0.53546 0.006836
0.00245 0.53546 -0.10749
0.424957 0.53546 0.199463
-0.455193 0.53546 -0.019103
0.348684 0.53546 0.014902
0.219285 0.53546 -0.225915
-0.305562 0.53546 0.180342
0.213221 0.511913 -0.091599
0.405428 0.53546 -0.021078
-0.482897 0.511913 -0.007717
0.306729 0.511913 0.116968
0.513825 0.53546 0.006564
0.286737 0.511913 0.241405
-0.055832 0.511913 -0.171563
-0.509641 0.511913 0.242676
-0.255709 0.53546 0.074417
-0.052861 0.511913 0.08405
0.045745 0.53546 0.033954
0.309179 0.53546 0.059998
0.251194 0.53546 0.123696
0.018923 0.511913 0.035673
0.246389 0.53546 -0.078682
0.271261 0.511913 -0.080571
-0.191044 0.53546 -0.202444
0.481643 0.511913 0.114105
0.068265 0.53546 0.136342
-0.295883 0.511913 -0.058959
0.276495 0.53546 -0.216527
-0.261887 0.511913 -0.233284
0.109327 0.53546 0.094304
-0.312395 0.53546 0.220571
0.093667 0.53546 -0.092856
0.221578 0.53546 0.167324
-0.107064 0.53546 -0.135556
0.214529 0.511913 -0.186878
-0.232095 0.511913 -0.10377
0.021295 0.53546 0.06942
0.009684 0.511913 -0.204244
0.190303 0.53546 0.079001
0.256529 0.511913 0.207543
-0.128054 0.53546 0.080052
-0.115868 0.53546 0.03857
0.438676 0.53546 -0.227305
0.244726 0.511913 0.006512
-0.055642 0.53546 -0.004136
0.058823 0.53546 -0.123863
0.229987 0.511913 0.107197
-0.411079 0.511913 0.198501
-0.255123 0.53546 -0.117841
-0.314188 0.511913 0.243974
-0.317907 0.53546 0.129091
-0.42501 0.53546 -0.07543
0.131984 0.511913 0.169946
0.169267 0.511913 -0.018576
-0.159194 0.53546 0.209694
0.389504 0.511913 -0.235628
0.006827 0.511913 0.139882
-0.069407 0.53546 -0.04889
-0.340871 0.53546 -0.008667
0.288927 0.511913 0.192724
-0.348589 0.53546 0.193544
-0.45654 0.511913 -0.20318
0.030212 0.511913 -0.174136
0.054723 0.511913 -0.23127
0.399902 0.53546 -0.208819
-0.106868 0.53546 0.168327
-0.000961 0.53546 -0.227651
-0.415421 0.53546 -0.1769
-0.408538 0.53546 -0.030835
0.401042 0.511913 -0.137553
-0.098692 0.53546 0.126033
-0.281174 0.511913 0.232736
-0.490922 0.511913 0.11295
0.444523 0.511913 0.082705
-0.028897 0.53546 0.145092
0.265279 0.53546 0.069171
0.076625 0.511913 0.07375
0.268738 0.53546 -0.153719
0.446452 0.511913 0.188333
0.43377 0.53546 0.021328
0.363708 0.53546 0.227728
-0.414408 0.511913 0.162029
-0.525528 0.53546 0.063937
-0.454798 0.511913 -0.082494
0.114971 0.53546 0.127183
0.456894 0.53546 0.222152
-0.36102 0.53546 0.136784
0.015383 0.511913 0.221868
0.077842 0.511913 0.179316
-0.222764 0.511913 0.238341
-0.420208 0.511913 -0.245877
-0.308464 0.53546 0.008006
0.516263 0.53546 -0.070328
-0.384379 0.511913 -0.130411
-0.375665 0.53546 -0.24436
0.519674 0.511913 0.081255
0.337777 0.53546 -0.195803
-0.199136 0.53546 -0.156761
0.52751 0.53546 -0.232063
0.135598 0.53546 0.219022
0.319774 0.511913 -0.15327
0.027639 0.53546 0.18655
-0.014486 0.53546 -0.141845
0.160255 0.53546 -0.222747
0.012518 0.511913 -0.006938
-0.388745 0.511913 0.089115
0.390822 0.53546 -0.090561
-0.355026 0.53546 -0.118382
0.501381 0.53546 0.060641
-0.068099 0.513628 0.251609
0.364451 0.511913 -0.103435
-0.378692 0.53546 -0.080379
0.049511 0.53546 -0.163913
-0.034918 0.53546 -0.232126
0.299471 0.53546 -0.039354
0.519313 0.53546 0.112975
-0.526636 0.511913 0.03719
0.183063 0.53546 0.165925
-0.087528 0.511913 0.107059
-0.146013 0.511913 -0.136832
0.09392 0.511913 -0.239348
-0.544239 0.511913 0.203238
-0.204428 0.53546 -0.019508
0.321279 0.511913 -0.065876
0.064433 0.53546 0.098344
-0.277666 0.511913 -0.131594
0.435301 0.53546 -0.057702
0.406625 0.511913 0.19305
0.525533 0.511913 0.16851
-0.484865 0.511913 0.072461
-0.329357 0.511913 0.173396
0.209369 0.53546 -0.008611
0.44028 0.511913 -0.155781
0.00742 0.511913 -0.132127
-0.208824 0.53546 0.191822
0.331945 0.53546 -0.134984
0.304949 0.511913 0.165349
0.173997 0.511913 0.132392
0.233117 0.53546 -0.154181
0.488889 0.511913 0.043581
0.271323 0.511913 -0.049196
-0.364224 0.53117 0.251609
0.053064 0.53546 -0.087371
-0.014438 0.511913 -0.099408
-0.147248 0.511913 0.118575
-0.265145 0.511913 0.136178
0.331121 0.511913 0.066917
-0.00697 0.511913 -0.050497
-0.146577 0.511913 0.079252
0.152144 0.53546 -0.092236
0.035888 0.53546 0.00119
0.050037 0.53546 -0.038947
0.150579 0.527922 0.251609
0.345372 0.53546 0.126647
-0.045095 0.53546 0.212856
-0.42837 0.511913 -0.137177
0.33067 0.53546 -0.012237
-0.062573 0.53546 -0.154786
0.126944 0.53546 -0.166004
0.203756 0.511913 -0.148374
-0.316908 0.53546 -0.078628
0.0225 0.53546 -0.078024
0.209994 0.511913 0.133011
0.481085 0.511913 -0.237036
0.321414 0.53546 -0.221387
0.368043 0.53546 -0.160569
0.534812 0.53546 -0.12794
0.496397 0.53546 0.204169
-0.459249 0.53546 -0.241493
0.501286 0.53546 -0.120657
-0.366182 0.53546 0.104044
-0.155515 0.53546 -0.188022
-0.290469 0.511913 -0.239336
-0.341198 0.53546 -0.180094
-0.515654 0.511913 -0.034934
0.44824 0.511913 -0.250047
0.079738 0.53546 0.21193
-0.201338 0.53546 -0.229597
-0.464263 0.511913 0.204241
0.164025 0.511913 0.039911
0.21239 0.511913 0.076826
0.286614 0.53546 -0.003833
-0.180269 0.53546 0.242021
0.083161 0.511913 0.14746
-0.272804 0.511913 -0.084732
0.523883 0.53546 -0.031732
0.340852 0.53546 0.155768
-0.247867 0.511913 -0.169544
-0.530717 0.53546 -0.111762
0.305413 0.511913 0.218366
0.503514 0.511913 -0.194253
-0.331961 0.53546 -0.234654
-0.428269 0.511913 -0.207269
0.452027 0.511913 0.157461
-0.517667 0.511913 0.103303
-0.336677 0.511913 -0.205357
-0.503945 0.511913 -0.154356
0.441816 0.53546 -0.00579
0.489494 0.511913 0.221479
0.239689 0.522906 0.251609
-0.304685 0.511913 -0.18361
-0.055932 0.511913 0.118927
0.374148 0.53546 -0.043564
0.150071 0.511913 0.213484
0.07424 0.53546 -0.060918
0.00128 0.53546 0.176703
0.393687 0.511913 -0.001436
-0.487163 0.511913 0.140703
-0.366436 0.511913 -0.052589
-0.424787 0.511913 -0.043297
0.040719 0.511913 -0.027216
0.235608 0.53546 -0.104396
-0.042334 0.53546 -0.20533
-0.224999 0.53546 -0.145603
-0.407745 0.53546 -0.097197
-0.500889 0.53546 0.162721
0.041477 0.53546 0.143675
-0.006582 0.53546 -0.191209
0.431641 0.511913 -0.09591
-0.441357 0.53546 -0.130495
0.196228 0.53546 -0.077426
0.396216 0.511913 0.141013
-0.160606 0.511913 -0.214444
-0.351898 0.511913 0.105715
-0.407373 0.511913 0.127256
-0.202243 0.53546 -0.095067
-0.099173 0.511913 -0.083428
-0.338146 0.53546 0.230323
0.514902 0.511913 -0.161004
0.293902 0.511913 0.04499
0.135673 0.53546 0.006476
-0.179425 0.53546 0.035752
0.09711 0.53546 -0.190177
0.491213 0.53546 -0.185512
-0.451487 0.53546 0.100215
-0.437241 0.53546 0.009898
0.436479 0.511913 0.006997
-0.226853 0.511913 0.081705
-0.087883 0.511913 0.004346
0.413595 0.53546 0.101506
-0.030648 0.53546 -0.109834
0.246765 0.511913 0.075178
0.018269 0.51434 0.251609
-0.506399 0.511913 0.005713
0.178969 0.511913 -0.098129
-0.359302 0.53546 0.048215
0.361569 0.511913 -0.039381
-0.55297 0.526859 -0.098393
-0.225059 0.511913 -0.253993
-0.278643 0.53546 -0.247298
0.417844 0.517161 0.251609
0.224734 0.53546 0.128882
0.292019 0.511913 -0.20434
0.464918 0.53546 -0.074067
-0.497034 0.53546 0.239157
0.182648 0.53546 0.238193
-0.108808 0.53546 -0.060622
0.492907 0.53546 -0.242432
-0.276869 0.53546 0.023596
0.239189 0.511913 0.037456
-0.127507 0.53546 -0.247026
-0.536572 0.53546 0.090892
-0.314892 0.511913 0.195873
-0.251523 0.53546 -0.194627
0.269591 0.511913 0.091081
0.37704 0.511913 0.190395
0.102664 0.511913 0.165621
0.312821 0.53546 -0.170148
0.199408 0.53546 -0.190366
-0.295022 0.511913 0.098213
-0.292936 0.53546 -0.025442
0.507344 0.53546 0.032318
-0.036271 0.511913 -0.189513
0.39018 0.511913 -0.17739
0.153954 0.519242 -0.260532
-0.539307 0.53546 0.133789
-0.542778 0.511913 0.003506
-0.528976 0.53546 -0.022235
-0.413485 0.511913 -0.078169
-0.021612 0.53546 0.004973
-0.513581 0.511913 -0.185701
0.133549 0.511913 -0.136034
-0.506331 0.53546 -0.089344
-0.155357 0.511913 -0.004965
-0.526236 0.53546 -0.227637
0.436833 0.511913 -0.187557
-0.332615 0.511913 0.139487
0.302 0.511913 -0.123281
0.33383 0.53546 0.078024
-0.189063 0.511913 0.150305
0.461678 0.53546 -0.154617
0.248581 0.511913 -0.093482
0.410046 0.53546 0.16628
-0.316669 0.53546 -0.112459
-0.27031 0.53546 -0.172274
0.409254 0.53546 -0.115338
0.188012 0.53546 -0.138192
-0.259641 0.53546 -0.039522
-0.217389 0.53546 -0.057574
0.205721 0.53546 0.187829
-0.408338 0.53546 -0.247519
-0.122246 0.511913 -0.126619
-0.184206 0.53546 0.112716
-0.151936 0.511913 -0.080653
0.203257 0.511913 -0.227627
-0.338732 0.514183 0.251609
0.444552 0.53546 0.164813
0.171882 0.511913 -0.236791
-0.044191 0.53546 -0.055925
-0.178244 0.53546 0.173279
-0.425105 0.53546 0.087063
-0.049116 0.53546 0.126459
0.541951 0.530625 -0.155555
-0.239143 0.511913 -0.217753
0.36769 0.53546 0.038103
0.221436 0.53546 -0.073221
-0.15825 0.53546 0.068498
0.375205 0.518981 0.251609
0.029215 0.53546 0.1124
-0.292068 0.53546 -0.067934
-0.454313 0.511913 0.032835
0.367986 0.53546 -0.187748
-0.448121 0.53546 0.239492
-0.191405 0.53546 0.00231
0.450115 0.511913 -0.130818
-0.161572 0.511913 -0.2582
0.124445 0.53546 -0.109422
0.385347 0.53546 0.160395
0.35613 0.53546 -0.09904
-0.04629 0.511913 -0.081869
0.1773 0.53546 -0.202773
-0.075589 0.53546 0.083355
0.266285 0.53546 0.042505
-0.233415 0.53546 -0.004168
-0.045596 0.53546 0.035382
0.082268 0.511913 0.014224
-0.509949 0.511913 -0.065185
0.339085 0.512022 -0.260532
0.155959 0.511913 -0.121152
0.464677 0.511913 -0.019357
-0.225968 0.53546 0.150461
0.028938 0.53546 -0.182646
0.380466 0.53546 -0.018991
-0.250449 0.53546 0.187351
-0.125029 0.53546 -0.012673
0.234792 0.511913 -0.203215
-0.46291 0.53546 -0.180928
0.031589 0.511913 0.193766
-0.198992 0.511913 -0.071784
-0.100496 0.53546 0.058166
-0.114929 0.511913 0.223816
0.349364 0.511913 0.202444
-0.393945 0.53546 -0.060721
-0.32935 0.53546 0.078129
-0.177831 0.511913 0.043587
0.519868 0.53546 0.195989
-0.084101 0.511913 0.22949
0.541951 0.534818 -0.102239
-0.446646 0.511913 -0.247302
0.007633 0.533328 -0.260532
0.447794 0.53546 -0.092027
0.511634 0.511913 0.114371
0.454888 0.53546 -0.03309
-0.38255 0.53546 -0.105804
-0.026387 0.511913 0.078377
-0.09817 0.511913 0.041704
-0.415441 0.511913 0.012613
0.049056 0.511913 0.143964
0.244379 0.511913 0.182385
-0.344571 0.511913 -0.140217
0.38538 0.511913 0.021747
0.396642 0.511913 0.166024
-0.149126 0.526214 0.251609
0.451054 0.53546 0.07979
0.337583 0.511913 -0.01077
-0.479005 0.53546 0.076346
-0.28459 0.511913 0.154146
-0.059424 0.53546 0.244447
0.110836 0.53546 0.203588
-0.533705 0.511913 0.084655
-0.058345 0.511913 0.169502
0.344851 0.511913 -0.167042
0.18876 0.511913 0.175151
-0.231165 0.511913 0.17039
0.436375 0.511913 -0.051568
-0.245503 0.511913 0.105124
0.195098 0.53546 -0.223897
0.299855 0.529595 0.251609
-0.287186 0.53546 0.064456
0.065383 0.53546 0.23957
0.245705 0.53546 -0.237428
-0.484906 0.53546 -0.002556
0.510779 0.511913 -0.069648
-0.537697 0.53546 0.001659
-0.161956 0.53546 -0.117762
-0.303592 0.53546 -0.178512
0.370242 0.511913 0.133953
0.072756 0.53546 0.178549
-0.376107 0.53546 0.180642
0.471178 0.53546 0.065389
-0.474877 0.511913 0.22581
-0.089842 0.511913 -0.164421
-0.13401 0.511913 0.026308
-0.275193 0.53546 0.178731
0.307185 0.53546 0.178945
0.141969 0.53546 0.112869
0.203018 0.511913 -0.016916
0.46786 0.53546 -0.190761
-0.009744 0.511913 0.211158
-0.148189 0.511913 0.210132
-0.383303 0.511913 0.208552
0.075317 0.511913 0.232865
-0.06315 0.53546 -0.221043
0.029989 0.53546 -0.10668
-0.40173 0.53546 0.032916
0.329632 0.511913 -0.131579
0.541951 0.515798 -0.07433
0.193988 0.53546 0.055466
0.399027 0.511913 0.074506
0.205912 0.53546 0.211642
-0.105045 0.511913 -0.042002
-0.262245 0.511913 -0.05452
-0.387758 0.53546 0.056006
0.212032 0.53546 -0.114868
0.44197 0.511913 -0.223592
0.259394 0.53546 -0.058842
-0.255795 0.511913 0.004664
0.042142 0.511913 -0.194608
0.062477 0.511913 0.09948
0.205361 0.511913 -0.043388
0.171114 0.53546 -0.018068
0.186447 0.511913 0.047185
0.412035 0.511913 -0.186218
0.092407 0.53546 0.231795
-0.050944 0.53546 0.087624
0.043106 0.51284 0.251609
-0.163819 0.53546 0.01816
-0.202913 0.511913 -0.239809
0.231718 0.53546 0.061781
0.221461 0.53546 0.10571
-0.291431 0.53546 0.230933
-0.461202 0.511913 0.136183
-0.088024 0.511913 0.06271
0.302083 0.511913 -0.00086
0.423465 0.53546 0.050225
-0.339773 0.511913 -0.239758
0.147884 0.53546 -0.069396
-0.298356 0.53546 -0.209955
0.559612 -0.802963 -0.266982
0.559612 0.783938 -0.277959
0.559612 -0.31183 -0.207128
0.559612 0.784714 0.172251
0.541951 0.112231 0.049007
0.541951 0.463077 -0.252829
0.559612 -0.592855 -0.022075
0.541951 -0.049107 -0.174963
0.559612 0.372938 0.00529
0.559612 -0.33395 0.064604
0.559612 0.648961 -0.047097
0.559612 -0.554861 -0.275402
0.541951 -0.810183 0.081783
0.559612 -0.478948 0.221979
0.541951 0.55233 0.14753
0.559612 0.22929 -0.145123
0.559612 -0.199813 -0.060317
0.555136 0.080312 -0.284079
0.559612 -0.038311 0.140301
0.554986 0.306958 -0.284079
0.541951 -0.606616 0.132418
0.559612 0.606822 -0.204799
0.559612 -0.690955 -0.161553
0.559612 -0.029404 -0.007524
0.559612 -0.192563 0.109173
0.541951 0.088984 -0.106695
0.559612 0.377364 -0.140097
0.554411 -0.812716 0.221642
0.559612 -0.474741 -0.157611
0.559612 0.787965 -0.134127
0.559612 -0.343467 -0.079521
0.559612 0.399853 0.131109
0.541951 -0.424983 -0.272464
0.559612 0.521176 -0.091338
0.559612 -0.735628 -0.018439
0.541951 0.679796 0.105688
0.559612 0.106788 0.170312
0.559612 -0.478756 0.106446
0.559612 -0.192509 -0.177492
0.559602 0.192115 -0.284079
0.559612 -0.283111 0.18002
0.553836 -0.037187 -0.284079
0.559612 -0.724615 0.157167
0.541951 -0.577307 -0.130401
0.559612 0.592124 0.049468
0.541951 0.309064 0.204074
0.559612 0.203246 0.086252
0.559612 0.489355 0.07175
0.541951 0.145346 -0.194311
0.541951 0.706517 -0.186723
0.541951 -0.378343 0.163133
0.559612 -0.124436 0.012416
0.559612 -0.661815 0.045953
0.559612 0.301402 -0.08076
0.559488 -0.812716 -0.074184
0.553787 -0.246504 -0.284079
0.559612 -0.240833 0.028255
0.541951 0.434353 -0.062107
0.559612 -0.116992 -0.236341
0.541951 -0.087246 0.21412
0.541951 0.166565 -0.061768
0.559612 -0.003765 -0.100364
0.559612 0.47084 -0.16588
0.541951 0.198402 0.173064
0.559612 -0.496403 -0.06602
0.541951 0.04902 -0.202296
0.559612 0.304166 0.110379
0.541951 0.601818 -0.120255
0.559612 0.040186 0.104154
0.541951 0.0542 -0.016802
0.559612 0.471773 0.177925
0.541951 0.374007 -0.232227
0.559612 -0.389519 -0.166646
0.541951 -0.668993 -0.081327
0.559612 0.703816 0.239751
0.559612 0.303226 -0.184914
0.559612 -0.557437 0.053859
0.541951 0.718187 -0.090005
0.541951 0.043804 0.221451
0.541951 -0.267581 -0.140796
0.550629 -0.33757 -0.284079
0.559612 -0.412877 0.040287
0.541951 -0.063111 0.065451
0.541951 0.629392 0.168259
0.559612 0.498259 -0.014888
0.541951 0.575076 -0.277994
0.541951 -0.192273 0.189512
0.559612 0.688888 0.021545
0.541951 -0.608981 -0.202679
0.542088 0.789201 0.097303
0.541951 -0.631401 0.204597
0.559612 0.565023 0.2203
0.541951 -0.729093 0.073235
0.559612 -0.534137 0.171623
0.541951 0.394963 0.203002
0.559612 -0.407614 -0.042617
0.559612 -0.538028 -0.196851
0.559612 -0.806511 -0.000573
0.541951 -0.137174 -0.133381
0.541951 0.418821 0.058738
0.559612 -0.741303 -0.214718
0.559612 -0.274208 -0.061564
0.541951 -0.278172 0.111917
0.559612 0.568284 -0.03992
0.559612 -0.312314 -0.001002
0.541951 -0.742871 0.220758
0.541951 -0.476797 -0.227757
0.546104 -0.812716 0.152898
0.541951 -0.020824 0.20277
0.559612 -0.37921 0.238947
0.559612 0.30351 -0.002936
0.559612 0.757718 -0.039322
0.541951 0.721003 0.164808
0.541951 -0.135007 0.082159
0.541951 0.160964 0.004869
0.559612 -0.506936 0.012273
0.541951 -0.739146 -0.081262
0.559612 0.364942 -0.06613
0.559612 -0.247091 -0.2146
0.541951 0.350394 0.063482
0.541951 -0.671526 0.125458
0.559612 0.441775 0.252944
0.541951 0.259479 0.15318
0.541951 -0.186142 0.000379
0.559612 0.132231 0.112193
0.559612 0.60457 0.111624
0.559612 -0.007155 -0.228874
0.559612 -0.074475 -0.0619
0.541951 0.729866 0.065505
0.559612 -0.668917 -0.016279
0.541951 0.226995 -0.077467
0.559612 0.165874 0.236081
0.541951 -0.439307 0.174744
0.541951 -0.559766 -0.07115
0.559612 0.407614 -0.280869
0.559612 0.204774 -0.207052
0.559612 -0.417164 0.106262
0.541951 0.134616 -0.259702
0.541951 0.735024 -0.242358
0.559612 -0.574594 0.215771
0.559612 -0.14163 -0.073639
0.541951 -0.381573 -0.221845
0.559612 0.669784 -0.230275
0.559612 -0.681753 -0.219079
0.559612 0.172745 -0.131251
0.559612 0.020807 0.027098
0.559612 0.087279 -0.161815
0.559612 -0.399972 -0.109709
0.541951 0.0317 -0.147685
0.541951 -0.515768 -0.12188
0.541951 -0.183982 -0.237582
0.541951 -0.244277 0.218651
0.541951 -0.640442 -0.142861
0.541951 -0.48442 -0.28351
0.559191 -0.749365 -0.284079
0.541951 -0.742997 -0.13674
0.541951 -0.091301 -0.283137
0.541951 -0.531109 0.103886
0.559612 -0.177698 0.052186
0.541951 0.4239 -0.003543
0.559612 -0.342186 -0.139324
0.541951 0.543241 0.093641
0.559612 0.105715 -0.057989
0.541951 0.420876 -0.178033
0.541951 0.626122 -0.259605
0.559612 -0.012286 0.070924
0.559612 -0.32455 0.133382
0.559612 0.639654 -0.161853
0.554211 0.245853 -0.284079
0.559612 -0.086958 0.116852
0.541951 -0.361652 -0.013694
0.541951 -0.077486 -0.115794
0.559612 -0.141998 0.182804
0.541951 -0.613111 -0.06843
0.559612 0.636219 0.012868
0.559612 -0.607784 -0.282313
0.559612 0.477555 0.124961
0.559612 -0.672897 0.176253
0.559612 0.735676 -0.144134
0.559612 -0.113595 -0.183251
0.541951 -0.185853 -0.111985
0.559612 0.428851 -0.128041
0.559612 0.636037 0.217517
0.541951 0.35288 0.146561
0.559612 0.200854 -0.023878
0.559612 0.552077 -0.15541
0.541951 0.055208 0.170892
0.541951 0.104252 -0.002149
0.541951 -0.31512 0.216468
0.559612 0.327522 -0.126738
0.559612 -0.241635 0.143687
0.541951 -0.00164 -0.046857
0.541951 -0.055605 -0.238094
0.559612 0.728188 0.11772
0.559612 -0.436392 -0.202731
0.541951 0.703763 -0.0234
0.541951 -0.604758 0.023588
0.559612 0.744197 0.011629
0.559612 -0.279069 0.060759
0.559612 0.25941 -0.215969
0.559612 0.05749 -0.068105
0.541951 -0.256081 -0.019417
0.541951 0.058722 0.052709
0.559612 0.270917 -0.119225
0.559612 -0.23017 -0.100711
0.559612 -0.484748 0.172332
0.559612 0.516488 0.222243
0.541951 0.003998 0.161034
0.541951 0.084896 -0.234719
0.559612 0.361166 -0.185526
0.541951 0.152117 0.193377
0.559612 -0.456454 0.063911
0.541951 -0.235531 0.089961
0.559612 0.496372 -0.206233
0.559612 -0.295666 -0.263176
0.559612 -0.765516 0.181613
0.559612 0.455135 0.02749
0.541951 -0.522819 0.218798
0.559612 0.551112 -0.220847
0.559612 0.424958 -0.231539
0.559612 0.680452 0.180746
0.541951 -0.158759 0.142723
0.559612 -0.778302 -0.106023
0.559612 -0.442148 -0.080647
0.559612 -0.700333 -0.110876
0.541951 -0.699356 0.024905
0.559612 -0.5804 0.167868
0.559612 0.276074 0.056198
0.541951 0.12975 -0.150751
0.559612 0.613077 -0.076224
0.559612 -0.07896 0.004263
0.541951 -0.375139 0.111974
0.559612 -0.552162 0.005509
0.541951 0.239006 0.108379
0.541951 -0.152919 -0.197892
0.559612 0.355345 0.18842
0.541951 -0.651965 -0.187919
0.559612 -0.80469 -0.221725
0.559612 0.329616 -0.221692
0.559612 -0.30829 -0.107901
0.559612 -0.406172 0.19984
0.559612 0.421809 0.171344
0.541951 -0.112103 -0.044378
0.559612 0.673546 -0.0849
0.559612 0.467593 -0.086938
0.541951 -0.370843 0.030378
0.559612 -0.701862 0.226251
0.559612 -0.38016 -0.273574
0.559612 -0.057144 0.183584
0.541951 -0.576081 -0.240604
0.541951 -0.753027 0.023526
0.541951 -0.629104 0.069725
0.559612 0.593289 0.002793
0.559612 -0.774112 0.099964
0.559612 0.684331 0.065673
0.559612 -0.198633 -0.27504
0.559612 0.657849 0.139391
0.559612 0.183306 0.03815
0.559612 0.367556 0.101526
0.559612 0.515171 0.162483
0.559612 -0.057454 0.240777
0.559612 -0.442389 0.008404
0.541951 -0.024171 0.033293
0.559612 -0.151893 -0.020956
0.541951 0.698237 -0.132056
0.541951 0.193997 0.130172
0.559612 -0.00467 0.113516
0.541951 0.56001 -0.096249
0.541951 0.043794 -0.247604
0.541951 0.443791 0.205097
0.541951 -0.034169 -0.07441
0.559612 -0.631283 -0.102513
0.559612 0.146542 -0.09469
0.541951 0.341357 -0.26305
0.541951 0.552672 -0.004884
0.559612 0.23396 0.05378
0.559612 -0.38305 0.070008
0.559612 0.15928 0.155859
0.547282 0.789201 -0.064097
0.541951 0.66584 0.241396
0.559612 -0.338757 0.186705
0.559612 0.002557 -0.272256
0.559612 -0.475844 -0.016629
0.541951 0.594352 0.190925
0.541951 -0.266842 -0.182465
0.559612 -0.43767 0.227443
0.541951 -0.526705 -0.043591
0.559612 -0.692531 0.094329
0.559612 -0.158665 0.22052
0.541951 -0.713648 -0.239627
0.541951 -0.005941 -0.164373
0.559612 -0.3154 -0.049404
0.559612 0.404388 -0.035167
0.559612 -0.446927 -0.127348
0.559612 0.103704 -0.199413
0.541951 0.19111 -0.172654
0.541951 -0.451649 -0.044633
0.541951 0.618454 0.0754
0.559612 -0.085106 -0.153863
0.541951 0.095414 0.112477
0.541951 -0.774494 0.139412
0.541951 0.644903 -0.203481
0.559612 0.007797 0.227478
0.541951 -0.081934 -0.207325
0.559612 0.481252 -0.126792
0.541951 -0.72686 -0.173733
0.559612 -0.220204 -0.012055
0.541951 -0.515483 -0.162193
0.541951 -0.662979 0.22938
0.559612 -0.807169 -0.133776
0.559612 -0.524272 -0.249592
0.559612 0.471294 -0.047092
0.541951 -0.477705 -0.108854
0.559612 0.476287 0.220146
0.559612 -0.103121 0.167268
0.559612 0.276751 0.184531
0.559612 0.042256 -0.113555
0.559612 -0.7703 -0.063876
0.559612 0.762799 0.051985
0.541951 0.402532 0.095036
0.559612 -0.630859 -0.005446
0.541951 -0.304326 0.036068
0.541951 0.311853 0.054901
0.541951 0.515991 0.12736
0.559612 0.209591 0.218139
0.541951 -0.350059 -0.245313
0.541951 -0.572082 0.113866
0.559612 0.589297 -0.167638
0.559612 -0.692655 -0.047443
0.541951 0.590049 0.252795
0.541951 -0.050919 0.107774
0.541951 0.597248 0.145615
0.541951 -0.300519 -0.16156
0.559612 0.645585 0.097022
0.559612 -0.595164 0.062984
0.559612 0.383531 0.053948
0.541951 0.201941 -0.113385
0.541951 0.654405 0.041817
0.541951 -0.570495 -0.168266
0.559612 -0.779243 0.045251
0.559612 -0.276233 0.013543
0.559612 0.32229 -0.036295
0.541951 -0.271115 -0.239778
0.559612 0.520756 -0.133597
0.541951 -0.134976 -0.271305
0.559612 -0.367133 -0.046941
0.541951 0.337242 -0.161944
0.559612 -0.722022 0.119326
0.559612 0.743705 0.221488
0.541951 0.036129 0.138166
0.541951 0.444583 0.118996
0.541951 0.672241 -0.169553
0.541951 -0.475048 0.021408
0.559612 -0.628837 0.171662
0.559612 0.235193 -0.03874
0.541951 -0.655867 -0.260416
0.541951 -0.363118 -0.189443
0.559612 -0.237002 -0.06359
0.541951 -0.124442 0.128279
0.559612 0.196276 -0.243256
0.559612 -0.644582 -0.219799
0.559612 0.711033 0.201852
0.541951 -0.506148 -0.203912
0.559612 0.410396 -0.095886
0.559612 0.146252 0.037508
0.541951 -0.340427 0.09652
0.541951 -0.234603 -0.246045
0.559612 -0.129201 0.049113
0.559612 0.750341 0.151278
0.559612 0.453122 0.078093
0.559612 0.022269 -0.02143
0.559612 0.458876 -0.008984
0.559612 -0.165496 -0.148459
0.559612 0.409855 0.231408
0.541951 0.374032 0.233041
0.559612 0.754085 -0.216572
0.559612 0.451754 -0.206607
0.559612 0.264529 -0.015244
0.559612 0.265176 -0.251955
0.559612 -0.472201 -0.193962
0.559612 0.134312 -0.012678
0.541951 -0.215469 0.047387
0.559612 -0.641419 0.116775
0.559612 -0.272337 -0.107826
0.541951 0.282751 0.087715
0.541951 -0.033662 -0.141773
0.541951 -0.532395 0.140618
0.559612 -0.218916 -0.134505
0.559612 -0.281718 0.238024
0.541951 0.027214 -0.074365
0.559612 -0.345395 0.250068
0.541951 -0.724246 -0.04708
0.541951 -0.000145 0.002122
0.559612 -0.244025 -0.160617
0.559612 -0.299643 0.089869
0.541951 0.572266 -0.198497
0.559612 0.357193 -0.030037
0.559612 0.166587 0.103463
0.559612 0.663128 -0.010194
0.559612 0.700862 -0.267449
0.559612 0.757029 -0.172192
0.541951 0.482041 0.01314
0.541951 0.084125 0.026718
0.559612 -0.021205 -0.190684
0.541951 -0.665241 0.080922
0.541951 0.075983 0.207509
0.559612 -0.037867 -0.041523
0.541951 0.082965 -0.036726
0.541951 0.086125 0.074406
0.559612 0.332465 0.223035
0.541951 -0.377046 -0.139259
0.559612 -0.117054 0.207176
0.553217 0.441649 -0.284079
0.541951 0.511336 -0.172433
0.541951 -0.60057 0.094003
0.559612 -0.425084 0.13979
0.544663 0.789201 0.1416
0.541951 0.226565 0.143217
0.541951 0.574859 0.073392
0.559612 -0.771963 -0.188438
0.559612 -0.727768 0.195499
0.559612 0.533247 0.192321
0.541951 0.331988 -0.063941
0.559612 -0.64241 -0.037828
0.541951 0.71539 0.033771
0.559612 0.520506 0.057923
0.559612 0.124837 -0.120938
0.559612 0.286616 0.139527
0.559612 -0.516688 -0.282709
0.541951 0.644609 -0.086928
0.559612 0.040154 0.250223
0.541951 0.660196 0.201463
0.559612 -0.769432 -0.256774
0.541951 0.701952 -0.235316
0.559612 -0.157621 0.025061
0.559612 -0.532526 -0.080355
0.541951 0.340334 0.115314
0.559612 -0.290756 0.147231
0.541951 0.232509 -0.199867
0.559612 0.23972 -0.10671
0.541951 0.286483 0.029639
0.559612 0.124351 0.199347
0.559612 -0.508543 0.121633
0.559612 -0.54394 -0.118492
0.541951 0.39454 -0.072405
0.541951 -0.619569 -0.247865
0.541951 -0.161985 -0.047319
0.541951 0.746238 -0.072065
0.541951 -0.407398 0.238671
0.541951 0.161084 -0.028371
0.559612 0.377882 -0.260074
0.541951 0.771131 -0.010715
0.559612 -0.360738 -0.107832
0.541951 0.756201 0.117568
0.541951 0.330712 0.175182
0.541951 0.121364 0.146454
0.559612 0.49249 -0.246615
0.559612 0.745378 0.089553
0.541951 -0.100436 -0.07522
0.559612 0.16004 -0.2485
0.541951 0.324387 0.024501
0.541951 0.558416 -0.249666
0.559612 -0.068976 -0.266751
0.541951 -0.701037 -0.073821
0.541951 -0.699212 -0.19764
0.541951 -0.533276 0.067258
0.559612 0.008527 -0.130707
0.541951 0.443187 -0.154105
0.559612 -0.557338 -0.026762
0.559612 -0.029345 -0.252761
0.541951 -0.19797 -0.20427
0.559612 -0.408693 -0.225111
0.559612 0.300887 -0.152489
0.541951 -0.094192 0.245798
0.559612 -0.412313 -0.139687
0.545272 -0.779465 -0.284079
0.541951 0.129668 -0.070774
0.559612 -0.58002 -0.213925
0.559612 -0.568139 -0.096771
0.559612 -0.246935 0.062772
0.541951 -0.210449 0.216061
0.559612 -0.035579 -0.104944
0.559612 -0.393021 0.137913
0.559612 0.615065 0.24327
0.559612 0.523281 0.005156
0.541951 -0.300612 -0.082332
0.541951 -0.798133 0.114986
0.541951 -0.167221 -0.086014
0.559612 0.060392 -0.139852
0.541951 -0.70188 -0.022518
0.541951 -0.494238 0.147521
0.541951 -0.478579 0.078559
0.559612 0.127302 -0.220823
0.541951 0.37944 0.175179
0.559612 -0.768987 0.225195
0.559612 0.055128 -0.176524
0.541951 0.737698 -0.013997
0.559612 0.569019 0.168033
0.559612 0.281295 0.215957
0.541951 -0.289189 -0.01351
0.559612 -0.429391 -0.171855
0.559612 0.290873 -0.033442
0.541951 -0.573281 0.024574
0.559612 -0.487784 -0.257708
0.541951 -0.087968 0.146166
0.559612 0.072379 0.100474
0.559612 0.015248 -0.206914
0.559612 -0.758032 0.073046
0.541951 0.191254 -0.081095
0.541951 0.402906 -0.135781
0.541951 -0.062831 0.034134
0.541951 -0.302813 -0.23135
0.559612 0.237713 0.166937
0.559612 0.257029 0.127562
0.541951 -0.407245 -0.068312
0.541951 -0.678159 -0.123777
0.541951 0.586453 -0.226222
0.559612 0.015096 0.197301
0.559612 -0.454111 0.154197
0.559612 0.627504 -0.016712
0.559612 -0.341847 0.007856
0.541951 -0.586557 -0.046495
0.559612 0.111194 -0.268791
0.559612 -0.68597 0.146009
0.541951 0.487759 0.147912
0.541951 -0.336701 -0.210496
0.541951 -0.266462 0.140377
0.541951 -0.193821 0.084234
0.541951 -0.634412 0.030965
0.559612 -0.737716 0.043187
0.559612 0.58747 -0.099935
0.559612 0.663727 -0.260173
0.559612 0.136582 -0.043054
0.559612 -0.606765 0.207588
0.541951 -0.760116 -0.230743
0.541951 0.633293 0.137829
0.541951 -0.49027 -0.138529
0.559612 -0.3273 -0.233533
0.541951 0.444953 0.163249
0.559612 -0.812505 0.257483
0.541951 -0.429372 0.085145
0.559612 0.070078 0.001713
0.559612 0.611092 -0.240404
0.559612 0.063673 -0.221753
0.559612 -0.776457 -0.001418
0.541951 -0.51583 0.034905
0.559612 0.229421 0.024132
0.541951 0.475943 -0.219233
0.541951 0.587094 -0.024765
0.559612 -0.198925 -0.091699
0.541951 -0.39295 -0.191454
0.559612 0.542186 0.117743
0.559612 -0.504577 -0.02488
0.559612 -0.361219 0.215075
0.541951 0.700808 0.08445
0.541951 -0.604475 0.166878
0.541951 -0.360701 0.138123
0.559612 -0.33982 -0.183413
0.559612 0.6858 0.149867
0.559612 0.788574 -0.104292
0.558526 0.629864 -0.284079
0.541951 0.577964 -0.061731
0.541951 -0.591107 -0.090537
0.559612 -0.228182 -0.191795
0.559612 -0.235918 0.172737
0.559612 0.500046 0.246841
0.559612 0.118559 -0.173926
0.541951 -0.695624 0.167551
0.541951 0.052333 0.083963
0.541951 -0.60021 -0.148837
0.541951 0.434469 -0.105224
0.559612 0.525573 -0.203014
0.541951 0.743279 -0.191209
0.559612 -0.762067 -0.150365
0.559612 -0.346975 0.036749
0.541951 0.510743 -0.224728
0.559612 -0.165422 0.165077
0.559612 0.620697 0.043184
0.559612 0.082059 0.154742
0.559612 -0.136741 -0.214805
0.559612 0.378544 0.151098
0.541951 -0.344216 -0.042967
0.559612 -0.655222 -0.12088
0.559612 0.670603 -0.192555
0.541951 -0.058235 0.212961
0.541951 0.174337 -0.196341
0.541951 -0.799291 -0.055368
0.559612 0.044097 0.198041
0.541951 -0.69213 0.052974
0.559612 0.619596 -0.104401
0.559612 0.593383 -0.26439
0.559612 0.54522 -0.068314
0.541951 0.468778 0.251911
0.559612 0.548356 0.050866
0.554137 -0.275192 -0.284079
0.541951 0.687921 -0.208483
0.559612 0.553227 0.247814
0.541951 -0.341771 0.227885
0.541951 0.477643 -0.02384
0.559612 -0.451324 0.035501
0.559612 0.635984 -0.224026
0.541951 -0.170173 0.109373
0.541951 0.066919 0.122181
0.541951 -0.062375 0.158723
0.559612 -0.699507 0.189567
0.549657 -0.453016 -0.284079
0.559612 -0.411508 0.070248
0.559612 0.396404 0.021392
0.541951 -0.404403 -0.020686
0.559612 -0.11709 -0.022804
0.541951 -0.261944 0.046525
0.559612 -0.537582 -0.16306
0.559612 0.217686 -0.261705
0.559612 0.70608 -0.108421
0.559612 -0.04149 0.01975
0.541951 0.292401 -0.100811
0.559612 -0.284978 -0.218566
0.559612 -0.085007 0.064104
0.559612 0.423705 0.089351
0.541951 0.16591 0.125365
0.559612 0.037158 0.002438
0.559612 0.123525 0.020962
0.541951 0.113745 0.079514
0.541951 -0.391819 -0.255113
0.541951 -0.339393 -0.10338
0.559612 -0.128463 0.249696
0.541951 -0.446803 -0.012926
0.559612 -0.096378 -0.128204
0.541951 -0.527983 -0.221435
0.541951 -0.001584 -0.249867
0.541951 0.191571 0.067948
0.541951 -0.477656 -0.076915
0.559612 0.688915 -0.155705
0.541951 -0.254542 0.011467
0.541951 0.155604 -0.161198
0.559612 -0.554153 0.081516
0.559612 -0.501011 -0.093471
0.559612 0.726408 -0.219147
0.559612 0.500985 0.110038
0.541951 0.377964 -0.024775
0.541951 0.583672 0.021928
0.559612 -0.042055 0.06921
0.541951 -0.671297 -0.037462
0.541951 -0.300033 0.192969
0.559612 -0.745284 -0.050386
0.541951 0.62669 0.198464
0.541951 -0.409329 0.154001
0.559612 0.763721 0.240447
0.559612 0.578637 0.120828
0.559612 -0.742789 -0.242786
0.559612 0.498458 0.184418
0.559612 0.498077 -0.053015
0.559612 -0.362783 -0.160636
0.541951 -0.752724 -0.030384
0.559612 -0.804581 -0.184437
0.541951 -0.646299 -0.058269
0.541951 0.185679 0.017481
0.541951 -0.310091 0.071929
0.559612 -0.603074 -0.228394
0.541951 0.371564 0.081217
0.559612 -0.026225 0.094284
0.541951 -0.1796 -0.266256
0.544038 0.789201 -0.037132
0.559612 0.3274 0.154876
0.541951 -0.292412 -0.191318
0.559612 -0.536985 0.204022
0.541951 0.609894 -0.056015
0.559612 0.691363 -0.007164
0.541951 0.123945 -0.097154
0.559612 -0.374672 -0.084749
0.559612 -0.45567 0.186827
0.541951 -0.795246 0.057728
0.559612 0.342854 -0.081384
0.559612 0.752402 -0.280422
0.559612 0.21267 0.187292
0.559612 -0.720966 -0.071054
0.559612 -0.633296 -0.075822
0.541951 0.48528 0.052066
0.559612 0.774919 -0.192055
0.559612 0.097518 -0.088542
0.541951 -0.647086 0.16337
0.559612 -0.080849 -0.096071
0.559612 -0.407655 -0.28246
0.559612 0.071696 -0.249708
0.541951 0.401363 -0.196188
0.559612 0.547818 0.015437
0.541951 -0.171338 0.23578
0.559612 0.349536 0.248926
0.559612 0.239546 0.088616
0.559612 0.055672 -0.275487
0.559612 0.21913 -0.169569
0.559612 -0.41602 0.006671
0.559612 0.215956 0.126713
0.559612 -0.191511 -0.130768
0.559612 -0.052484 -0.147243
0.541951 0.566337 -0.142019
0.559612 0.183656 -0.043823
0.559612 -0.651732 0.210889
0.541951 0.74042 -0.125238
0.559612 0.724277 -0.178739
0.559612 0.183642 -0.106752
0.541951 0.024455 0.092701
0.541951 0.750772 0.203378
0.559612 -0.251615 -0.038271
0.559612 0.055015 0.03374
0.559612 0.009749 -0.0661
0.541951 -0.057181 -0.041234
0.559612 0.609894 0.17947
0.541951 0.626773 -0.036043
0.541951 0.314387 -0.262669
0.559612 0.366423 -0.092687
0.541951 -0.502732 0.179009
0.541951 -0.650368 -0.011442
0.559612 0.023494 -0.095467
0.559612 -0.770382 -0.21445
0.541951 0.356612 0.038192
0.541951 -0.7142 0.141126
