0.423875 -0.624673 0.422236
-0.277495 -0.624673 -0.308985
0.535293 -0.600585 -0.030888
0.12822 -0.600585 0.323274
0.030031 -0.624673 -0.403763
0.50629 -0.600585 -0.275015
-0.440235 -0.624673 0.489274
-0.016038 -0.624673 0.264399
-0.14731 -0.600585 -0.046741
0.450621 -0.600585 -0.292552
-0.217177 -0.624673 -0.367946
-0.109918 -0.624673 0.280935
-0.268005 -0.624673 0.179385
-0.145785 -0.624673 0.418853
-0.219086 -0.624673 -0.157879
0.501326 -0.624673 -0.061049
0.053394 -0.624673 0.017118
-0.082001 -0.624673 -0.095242
-0.05928 -0.600585 0.382075
-0.212538 -0.624673 -0.464103
0.007786 -0.624673 0.032424
-0.250473 -0.600585 0.232402
-0.340258 -0.624673 -0.489173
-0.132908 -0.600585 -0.268885
-0.403687 -0.624673 -0.571721
-0.461071 -0.600585 0.132246
0.48138 -0.624673 -0.454657
0.167377 -0.600585 -0.223197
0.225253 -0.624673 0.197844
0.092962 -0.600585 0.215261
-0.059728 -0.624673 -0.215149
0.143489 -0.600585 -0.313818
0.31598 -0.624673 0.170285
-0.012907 -0.600585 0.141511
-0.179461 -0.600585 0.017784
0.474849 -0.600585 0.026617
-0.506066 -0.600585 -0.386635
0.184327 -0.600585 0.393393
-0.273918 -0.600585 -0.212207
0.247586 -0.600585 0.456482
-0.152324 -0.624673 0.205521
-0.423113 -0.600585 -0.284958
-0.229147 -0.600585 -0.248634
0.147376 -0.624673 0.375428
-0.228255 -0.600585 -0.499688
-0.429509 -0.600585 0.340971
0.435973 -0.600585 0.052263
-0.353797 -0.600585 0.148136
-0.487818 -0.624673 0.428838
-0.494092 -0.624673 -0.137332
0.207075 -0.624673 0.239143
0.072412 -0.600585 0.273345
0.126055 -0.600585 0.459553
0.352946 -0.624673 -0.176142
-0.32354 -0.600585 -0.443342
0.449019 -0.624673 -0.132471
-0.496116 -0.600585 -0.244265
-0.025 -0.600585 -0.184054
0.026539 -0.616498 0.505245
-0.113102 -0.624673 0.325222
-0.27804 -0.600585 -0.564121
0.183846 -0.600585 -0.565349
0.006484 -0.600585 0.435026
-0.27023 -0.624673 0.266957
0.067468 -0.600585 -0.459796
0.363786 -0.624673 -0.416092
0.066371 -0.600585 -0.301545
-0.364182 -0.624673 -0.07779
0.539275 -0.600585 -0.352385
0.414223 -0.600585 -0.513918
-0.370965 -0.624673 -0.237564
0.028974 -0.600585 -0.138543
0.481525 -0.624673 -0.208814
0.091025 -0.624673 0.443795
-0.00682 -0.624673 -0.282832
0.208314 -0.624673 0.35762
-0.493911 -0.624673 0.485718
0.284685 -0.624673 0.340375
-0.317817 -0.624673 0.484758
0.520822 -0.600585 0.455318
0.086805 -0.624673 0.374739
0.37543 -0.600585 -0.029569
-0.242267 -0.624673 -0.044278
-0.428317 -0.600585 0.276237
0.337512 -0.624673 -0.258889
-0.540778 -0.600585 0.070442
0.549228 -0.624673 0.362147
-0.013789 -0.624673 0.084451
-0.018096 -0.624673 -0.372554
-0.059906 -0.624673 -0.341951
0.13321 -0.624673 -0.211894
-0.315448 -0.600585 0.200805
-0.425999 -0.600585 -0.189347
-0.519324 -0.600585 0.404458
0.332547 -0.624673 0.004235
-0.480636 -0.600585 -0.435896
-0.277703 -0.624673 0.110065
0.05042 -0.624673 0.113663
-0.471951 -0.624673 -0.487758
-0.170161 -0.624673 0.344856
-0.006708 -0.600585 -0.507308
-0.432129 -0.624673 0.239944
0.046882 -0.600585 -0.048707
-0.505977 -0.624673 0.138262
-0.222944 -0.600585 -0.431059
-0.281747 -0.624673 0.406015
0.114106 -0.600585 -0.177585
0.360153 -0.624673 0.330045
-0.091141 -0.600585 0.002613
0.484368 -0.624673 0.226969
-0.399068 -0.624673 0.474788
0.305746 -0.600585 0.310506
0.380863 -0.600585 0.22298
-0.092021 -0.600585 0.129006
0.022029 -0.600585 0.26238
-0.389012 -0.624673 0.170009
-0.394315 -0.624673 0.103839
0.061531 -0.600585 -0.188704
0.130803 -0.600585 0.081914
0.099861 -0.624673 -0.383069
0.41319 -0.600585 -0.270177
-0.35365 -0.624673 -0.037822
0.127554 -0.624673 0.011654
-0.325091 -0.600585 0.298071
0.132017 -0.624673 -0.483489
-0.299387 -0.624673 -0.185045
0.368921 -0.600585 0.106175
-0.072123 -0.600585 -0.482839
-0.15265 -0.600585 0.145482
-0.045685 -0.600585 -0.122575
-0.432749 -0.600585 -0.085354
0.269265 -0.624673 -0.116164
-0.220345 -0.600585 -0.071257
-0.290967 -0.600585 0.352032
0.418704 -0.624673 -0.373206
0.415277 -0.600585 -0.099215
0.255885 -0.600585 -0.183167
0.02013 -0.600585 -0.443034
0.090055 -0.600585 0.007931
-0.12965 -0.614663 0.505245
0.511612 -0.624673 0.287614
0.333226 -0.624673 -0.120059
0.457636 -0.624673 0.147936
-0.407806 -0.624673 -0.427599
-0.170726 -0.600585 -0.08736
0.260336 -0.624673 0.047839
-0.501719 -0.624673 -0.024683
-0.226705 -0.624673 0.274152
0.139385 -0.600585 -0.526461
-0.464026 -0.624673 -0.248169
0.217833 -0.600585 0.301173
-0.045131 -0.624673 0.473396
0.03696 -0.624673 0.202921
0.354198 -0.600585 -0.522929
0.213248 -0.624673 -0.018599
0.144441 -0.624673 -0.148365
-0.084541 -0.600585 -0.1952
-0.143211 -0.624673 -0.34156
-0.460262 -0.624673 -0.532633
-0.205402 -0.600585 0.411328
0.323082 -0.600585 0.400465
-0.036412 -0.600585 0.237784
-0.06295 -0.624673 -0.576798
-0.208437 -0.624673 0.480352
-0.28385 -0.624673 -0.464654
-0.374471 -0.600585 -0.173373
0.210033 -0.600585 -0.364726
0.057559 -0.624673 -0.124599
0.201409 -0.624673 -0.491047
-0.484431 -0.624673 -0.097235
-0.357744 -0.600585 0.340418
0.267931 -0.624673 0.227588
-0.159186 -0.624673 -0.018038
-0.396703 -0.624673 -0.202099
-0.352956 -0.624673 -0.334155
0.275243 -0.624673 -0.53704
-0.376803 -0.600585 0.394054
0.487203 -0.624673 0.370672
0.286949 -0.624673 -0.399048
0.547342 -0.624673 0.069994
-0.127656 -0.624673 0.127687
-0.250402 -0.600585 0.485102
0.440136 -0.600585 0.378095
-0.326993 -0.600585 0.370542
-0.194215 -0.600585 -0.193103
-0.363941 -0.600585 -0.13593
0.180734 -0.600585 -0.302828
-0.511023 -0.624673 0.268184
0.087753 -0.600585 -0.565194
0.064486 -0.624455 0.505245
-0.134099 -0.600585 0.064313
0.34707 -0.624673 -0.560772
0.399201 -0.624673 -0.438769
-0.144419 -0.624673 -0.124191
0.340568 -0.600585 0.261876
0.263628 -0.624673 -0.023798
-0.320661 -0.624673 -0.562324
-0.012386 -0.600585 -0.463663
0.271355 -0.600585 -0.067262
-0.415071 -0.600585 -0.356495
-0.296523 -0.624673 -0.0575
-0.158508 -0.600585 -0.422451
-0.485054 -0.600585 -0.049319
-0.546665 -0.616731 -0.018081
0.009511 -0.600585 -0.098597
0.013055 -0.600585 -0.315853
-0.49444 -0.600585 -0.168954
0.150924 -0.624673 0.175986
0.152483 -0.624673 0.278941
0.078227 -0.600585 -0.363029
0.473838 -0.600585 -0.112752
0.007803 -0.624673 -0.245338
-0.545688 -0.624673 0.237568
0.52813 -0.624673 -0.294943
0.378847 -0.624673 0.252193
0.561402 -0.608488 0.208355
0.198976 -0.624673 -0.15769
-0.293878 -0.624673 0.068309
-0.131268 -0.624673 -0.239789
0.299613 -0.600585 -0.1275
-0.428807 -0.624673 0.434722
-0.342836 -0.624673 0.006562
0.239128 -0.624673 0.277674
0.117128 -0.624673 0.349942
-0.52821 -0.624673 -0.493195
-0.546665 -0.619433 0.379877
0.196834 -0.624673 0.102708
-0.094832 -0.624673 -0.328255
-0.040271 -0.600585 -0.531312
-0.261188 -0.624673 -0.433085
0.552461 -0.624673 0.264161
0.254907 -0.600585 -0.142294
-0.486788 -0.600585 0.320497
-0.163058 -0.624673 0.491254
0.508511 -0.624673 0.041097
0.04716 -0.600585 0.430022
0.194237 -0.624673 -0.231864
-0.054748 -0.600585 0.3049
0.091029 -0.624673 0.29458
0.309571 -0.600585 0.202925
0.34573 -0.600585 -0.094849
-0.514003 -0.600585 -0.55511
-0.31462 -0.624673 -0.14196
0.378416 -0.624673 0.470706
0.499419 -0.624673 -0.144821
0.257541 -0.600585 0.321134
-0.207837 -0.624673 -0.518483
0.502617 -0.600585 -0.350292
0.284096 -0.600585 0.46848
-0.519105 -0.624673 0.208499
-0.256301 -0.600585 -0.289385
-0.102798 -0.624673 -0.165339
0.561402 -0.612946 -0.271012
-0.519547 -0.624673 0.052939
0.126854 -0.624673 -0.434017
-0.355024 -0.624673 0.070111
0.391614 -0.624673 0.024323
-0.208262 -0.600585 -0.034859
-0.522131 -0.600585 0.16035
0.084975 -0.624673 0.045461
-0.414842 -0.600585 -0.032071
-0.133122 -0.611281 -0.584755
-0.251406 -0.624673 -0.127676
-0.183169 -0.624673 -0.111536
0.392445 -0.600585 -0.477491
-0.311027 -0.624673 -0.372483
-0.277498 -0.600585 -0.025409
-0.498597 -0.600585 -0.502477
-0.452563 -0.624673 -0.304106
-0.076142 -0.624673 0.217247
-0.408709 -0.624673 -0.508181
-0.215081 -0.624673 0.377299
0.232339 -0.624673 -0.347091
-0.380522 -0.624673 -0.404129
0.53159 -0.600585 -0.11852
0.517283 -0.624673 -0.195891
-0.311706 -0.600585 -0.256789
0.302216 -0.624673 -0.228702
-0.22043 -0.624673 -0.404523
0.054851 -0.624673 0.149272
0.081489 -0.624673 -0.496888
-0.435795 -0.624673 -0.373131
0.227248 -0.610138 0.505245
-0.404685 -0.600585 -0.464268
0.322956 -0.624673 -0.347338
-0.462807 -0.600585 0.224187
0.437884 -0.600585 0.097159
0.099589 -0.600585 -0.098639
0.153033 -0.600585 -0.108865
-0.176318 -0.600585 0.216172
0.187665 -0.624673 0.178122
0.149185 -0.624673 -0.04208
-0.161235 -0.600585 0.180943
0.222117 -0.624673 0.451211
0.108324 -0.600585 -0.047789
-0.065847 -0.600585 -0.056836
0.303856 -0.624673 0.120713
-0.45193 -0.600585 -0.144626
0.372113 -0.624673 -0.332472
0.223651 -0.600585 0.083538
-0.078006 -0.624673 -0.453966
-0.426603 -0.600585 0.067983
-0.140063 -0.624673 0.26273
0.397323 -0.600585 -0.557626
-0.529216 -0.624673 -0.410229
0.498467 -0.600585 0.414731
-0.301937 -0.624673 0.375356
-0.291711 -0.624673 -0.092245
0.151648 -0.624673 0.037059
0.150122 -0.624673 0.46765
-0.347333 -0.624673 -0.4345
-0.460303 -0.624673 0.05496
0.339756 -0.600585 0.036667
-0.125216 -0.600585 0.433689
-0.101486 -0.600585 0.490041
-0.079815 -0.600585 0.253018
-0.337951 -0.624673 0.397828
-0.356076 -0.624673 -0.203664
0.365118 -0.600585 -0.379945
-0.480726 -0.60083 -0.584755
-0.353241 -0.624673 0.280316
-0.074981 -0.624673 -0.385784
0.053767 -0.600585 -0.547921
-0.119242 -0.600585 -0.35029
-0.489138 -0.600585 0.453904
0.354051 -0.600585 0.200887
0.43192 -0.624673 0.465873
0.259635 -0.600585 -0.382502
0.447976 -0.600585 -0.505931
-0.52123 -0.624673 -0.312555
0.204742 -0.600585 0.42448
-0.51839 -0.624673 -0.112629
-0.383035 -0.600585 0.0074
0.151541 -0.600585 -0.40546
0.480766 -0.600585 0.32557
-0.0128 -0.624673 0.370764
0.158024 -0.600585 0.303117
0.222668 -0.624673 -0.4321
0.04773 -0.600585 -0.338062
0.305054 -0.624673 -0.428269
0.399616 -0.600585 -0.175813
-0.258306 -0.624673 -0.178066
0.527044 -0.600585 0.233492
0.489287 -0.600585 0.472781
-0.052744 -0.600585 0.049137
-0.346433 -0.624673 0.230109
-0.11828 -0.624673 -0.288159
-0.000783 -0.624673 0.115931
-0.241825 -0.624673 0.319977
0.397913 -0.600585 -0.239756
-0.197488 -0.624673 -0.336758
0.269628 -0.600585 -0.303412
-0.18735 -0.600585 0.32811
-0.386512 -0.624673 -0.328752
-0.214671 -0.600585 0.072985
-0.075928 -0.624673 0.359109
0.014447 -0.600585 0.377333
-0.248933 -0.624673 -0.487836
-0.276002 -0.624673 -0.353255
-0.083008 -0.624673 -0.418863
0.10663 -0.600585 -0.304388
0.273801 -0.600585 0.269196
0.302827 -0.624673 0.281752
0.363751 -0.600585 -0.24442
0.309001 -0.600585 0.053265
0.121008 -0.600585 -0.58379
0.298103 -0.600585 0.368655
0.096697 -0.624673 -0.159912
0.248803 -0.624673 -0.060604
0.131608 -0.600585 -0.07692
-0.100651 -0.624673 -0.212305
-0.026421 -0.624673 -0.435798
0.499895 -0.624673 0.132084
0.43062 -0.600585 0.218512
0.368457 -0.624673 -0.50436
0.316661 -0.600585 -0.382148
0.527778 -0.600585 0.341343
-0.170375 -0.624673 0.390181
0.03443 -0.600585 0.030584
-0.281153 -0.600585 0.198569
0.210124 -0.600585 -0.063714
-0.256823 -0.624673 0.044386
0.307996 -0.624673 -0.530413
-0.247181 -0.624673 0.209515
0.550316 -0.624673 -0.234919
0.233786 -0.624673 -0.17645
0.466874 -0.624673 0.344016
-0.442638 -0.600585 -0.335514
-0.06273 -0.624673 0.404899
0.359303 -0.624673 0.048916
0.242365 -0.600585 -0.554284
0.533673 -0.600585 0.051528
-0.410383 -0.624673 0.03309
-0.35089 -0.624673 0.472567
0.156497 -0.600585 0.059489
0.460834 -0.624673 -0.317027
0.350251 -0.600585 0.381459
0.122954 -0.600585 0.233571
0.190169 -0.624673 0.040013
0.042424 -0.624673 -0.439367
-0.436359 -0.624673 -0.03894
0.084665 -0.624673 -0.420184
0.120099 -0.624673 -0.514744
-0.252408 -0.609067 -0.584755
0.052083 -0.600585 -0.245679
0.006112 -0.624673 0.463127
0.064193 -0.600585 -0.511209
-0.313639 -0.624673 -0.214692
-0.01768 -0.624673 -0.065437
-0.210237 -0.624673 -0.283512
-0.326485 -0.600585 -0.096978
0.032975 -0.600585 -0.495948
-0.141213 -0.624673 -0.068199
-0.176588 -0.600585 -0.523038
-0.127175 -0.624673 0.354867
0.051227 -0.624673 -0.285249
0.540959 -0.624673 0.150735
0.439576 -0.600585 -0.389266
0.224929 -0.600585 -0.409582
-0.451683 -0.624673 0.339964
0.529485 -0.624673 -0.006938
0.448225 -0.624673 -0.186618
0.348077 -0.624673 -0.21774
0.264788 -0.600585 0.425734
-0.108684 -0.624673 0.053469
-0.245136 -0.624673 0.108813
0.497136 -0.600585 0.19301
-0.054011 -0.600585 -0.410729
0.369625 -0.624673 0.401759
0.561402 -0.611818 -0.009539
0.334696 -0.624673 0.480238
0.058982 -0.600585 0.479216
0.032327 -0.600585 -0.207454
0.237656 -0.624673 -0.501214
0.092371 -0.624673 0.143843
0.344833 -0.600585 0.080209
-0.38932 -0.600585 -0.225805
-0.546665 -0.606802 -0.558992
0.35611 -0.600585 0.304832
0.511445 -0.624673 0.174751
-0.526712 -0.600585 -0.164801
-0.320194 -0.624673 -0.295044
0.539233 -0.624673 -0.488912
0.177635 -0.624673 -0.28154
0.370979 -0.600585 -0.303492
0.53106 -0.600585 0.185467
0.474887 -0.600585 -0.539165
-0.373639 -0.624673 -0.479132
-0.251161 -0.600585 0.276577
0.061925 -0.600585 0.223785
-0.326606 -0.624673 0.157347
-0.542498 -0.624673 0.441661
0.505273 -0.618647 0.505245
-0.101431 -0.600585 -0.073654
-0.259847 -0.600585 -0.506042
-0.413899 -0.600585 -0.553127
0.450245 -0.600585 0.438063
-0.503587 -0.600585 0.376517
-0.265482 -0.600585 -0.400268
-0.370722 -0.624673 0.02453
-0.487881 -0.600585 0.284015
-0.173631 -0.600585 0.415183
0.106001 -0.600585 -0.40319
0.224646 -0.600585 0.332313
0.117877 -0.600585 0.195474
0.063944 -0.624673 -0.378068
0.183988 -0.624673 -0.060719
-0.457614 -0.600585 0.085524
0.280049 -0.624673 -0.339463
-0.17752 -0.600585 -0.467252
0.365283 -0.624673 0.139624
0.535828 -0.624673 -0.416193
-0.295751 -0.624673 -0.243736
-0.030404 -0.624673 -0.101832
0.025852 -0.624673 -0.025835
-0.445399 -0.600585 0.313411
0.411458 -0.600585 0.029502
-0.057598 -0.600585 -0.303973
-0.153921 -0.600585 -0.292485
0.391709 -0.600585 0.276198
-0.076083 -0.624673 -0.502858
-0.25466 -0.624673 -0.269064
0.171466 -0.624673 -0.117571
0.146245 -0.600585 0.212338
0.331746 -0.600585 0.430765
0.297812 -0.624673 -0.569837
-0.546242 -0.600585 -0.052445
-0.512078 -0.624673 0.449731
0.491696 -0.600585 -0.226293
-0.125847 -0.600585 0.293392
-0.209484 -0.600585 0.116448
0.312687 -0.600585 0.007672
0.156239 -0.624673 -0.515423
0.263208 -0.600585 0.014512
-0.227271 -0.600585 0.361279
0.053195 -0.624673 0.344265
-0.095862 -0.600585 -0.304798
-0.52963 -0.600585 0.002674
-0.323361 -0.600585 -0.184646
-0.002495 -0.624673 -0.487734
0.424257 -0.600585 -0.051925
-0.084723 -0.600585 0.084974
0.3353 -0.624673 -0.491541
0.251595 -0.624673 0.100779
0.471774 -0.600585 -0.485665
0.367951 -0.600585 0.424117
0.010058 -0.624673 0.281523
-0.371042 -0.624673 -0.550278
-0.109686 -0.600585 -0.385202
-0.275917 -0.624673 0.149265
0.388776 -0.600585 0.353384
-0.134064 -0.624673 0.084037
-0.093572 -0.624673 0.447823
0.385328 -0.600585 -0.073693
0.031946 -0.600585 0.331782
-0.408881 -0.624673 -0.088128
0.005941 -0.600585 0.051991
-0.32064 -0.600585 -0.489158
0.203005 -0.624673 -0.457945
-0.546649 -0.624673 -0.466955
0.217943 -0.600585 -0.534716
0.012014 -0.624673 0.232834
-0.433792 -0.600585 -0.232664
0.026862 -0.600585 0.405655
-0.51062 -0.600585 0.035822
-0.027337 -0.624673 0.00141
-0.188954 -0.624673 -0.010056
0.432131 -0.600585 -0.176169
-0.154381 -0.600585 0.474166
-0.337355 -0.600585 0.081442
0.086562 -0.624673 -0.459712
0.097205 -0.624673 0.411467
-0.257301 -0.624673 0.361099
0.511871 -0.600585 -0.318388
0.171066 -0.624673 0.254521
0.198936 -0.600585 -0.425845
0.487857 -0.600585 -0.381141
0.342993 -0.600585 0.337969
-0.034192 -0.600585 0.163508
-0.236615 -0.624673 0.467358
-0.04822 -0.624673 -0.063549
0.012692 -0.600585 -0.164443
0.090207 -0.600585 0.248475
0.411269 -0.624673 -0.477103
0.508737 -0.624673 -0.527133
0.391371 -0.624673 -0.39398
-0.111454 -0.600585 0.155839
0.470081 -0.604504 -0.584755
0.189972 -0.624673 0.468955
0.108417 -0.624673 -0.115087
0.242459 -0.600585 0.053181
0.220603 -0.600585 0.270833
0.178864 -0.624673 0.128497
-0.240425 -0.624673 0.166605
0.321308 -0.624673 -0.300262
0.051366 -0.600585 0.191264
0.0758 -0.624673 -0.053357
0.415656 -0.624673 0.313703
-0.38161 -0.624673 0.414401
0.481173 -0.600585 -0.42298
-0.535268 -0.600585 -0.451862
0.161368 -0.624673 0.332954
-0.440318 -0.624673 0.016299
0.493454 -0.600585 -0.089678
-0.33342 -0.600585 -0.582898
-0.306988 -0.624673 0.184536
0.525401 -0.624673 -0.264819
-0.526248 -0.600585 -0.23435
0.292142 -0.600585 -0.545299
-0.072942 -0.624673 0.004274
-0.437038 -0.600585 0.187337
0.42784 -0.600585 -0.235558
-0.155942 -0.600585 -0.222987
-0.425338 -0.600585 0.381519
-0.474979 -0.624673 -0.368469
-0.369266 -0.600585 0.174005
0.237459 -0.600585 -0.231128
-0.191528 -0.624673 -0.236078
0.336336 -0.600585 -0.013394
-0.184423 -0.624673 0.104936
0.203708 -0.624673 -0.520999
0.545608 -0.624673 -0.185897
0.262338 -0.624673 0.446346
-0.484932 -0.624673 -0.298615
-0.362458 -0.600585 -0.053315
-0.447603 -0.600585 -0.052752
-0.447945 -0.600585 -0.399069
0.383777 -0.600585 -0.44758
-0.270951 -0.624673 0.013779
0.218393 -0.600585 -0.098439
-0.136197 -0.600585 0.197253
-0.368111 -0.624673 0.137773
-0.005318 -0.624673 -0.156276
-0.546665 -0.602829 -0.267352
0.488911 -0.624673 -0.402309
-0.088274 -0.624673 -0.544075
-0.361365 -0.600585 -0.275357
-0.500014 -0.624673 0.308969
0.273433 -0.600585 -0.09913
-0.097758 -0.624673 -0.120495
-0.386238 -0.600585 -0.57251
-0.354275 -0.624673 -0.389396
0.119138 -0.624673 -0.284521
0.129777 -0.600585 -0.34578
0.168137 -0.600585 0.178152
-0.27513 -0.624673 0.473382
0.070984 -0.624673 -0.549869
-0.198907 -0.600585 -0.118535
-0.246086 -0.600585 -0.111351
0.181141 -0.600585 -0.26388
-0.119216 -0.624673 0.009185
0.545268 -0.600585 0.103713
0.214733 -0.600585 -0.135902
-0.486749 -0.624673 -0.191647
-0.050464 -0.600585 0.489543
0.330467 -0.624673 -0.087416
-0.376001 -0.624673 0.456453
0.480049 -0.624673 -0.242088
-0.354189 -0.624673 0.313929
0.069295 -0.624673 0.081793
0.523124 -0.624673 0.24991
-0.406015 -0.600585 0.233571
0.413168 -0.600585 0.131007
-0.206006 -0.624673 0.428467
0.372173 -0.600585 0.455082
0.309845 -0.600585 -0.159747
-0.07302 -0.600585 -0.158779
0.48833 -0.624673 0.266809
0.133452 -0.600585 0.487953
-0.11756 -0.600585 0.08855
-0.109546 -0.600585 -0.52344
-0.143268 -0.600585 0.319245
0.170206 -0.600585 -0.070218
-0.068518 -0.624673 0.054726
-0.511605 -0.600585 -0.192701
-0.071257 -0.624673 0.302615
0.306977 -0.600585 0.339701
-0.182104 -0.624673 0.25325
0.435852 -0.600585 -0.122595
0.404141 -0.624673 -0.345036
0.397089 -0.624673 0.227347
0.019353 -0.624673 0.174628
0.100621 -0.600585 0.069902
0.530587 -0.600585 0.380986
-0.38117 -0.600585 -0.43366
0.396129 -0.600585 0.004788
-0.063547 -0.624673 0.187699
-0.337037 -0.624673 0.438034
-0.060744 -0.600585 -0.009188
-0.16512 -0.600585 -0.170227
0.331288 -0.600585 0.107428
0.412984 -0.624673 -0.530262
-0.218654 -0.600585 0.2261
-0.335626 -0.600585 -0.379028
-0.504106 -0.600585 -0.124799
-0.277353 -0.624673 -0.493278
0.40426 -0.600585 -0.301048
0.38308 -0.624673 -0.564965
0.472417 -0.624673 -0.060302
0.203494 -0.624673 -0.115274
-0.041337 -0.624673 0.375269
0.002288 -0.624673 -0.411775
-0.282272 -0.624673 -0.161787
-0.363979 -0.600585 0.443881
-0.035038 -0.624673 -0.196379
0.057537 -0.600585 -0.426692
0.230545 -0.600585 -0.298387
0.123873 -0.600585 -0.236941
-0.396912 -0.600585 -0.138625
-0.326438 -0.624673 -0.028362
0.452853 -0.624673 0.102063
0.263118 -0.624673 0.19924
0.503992 -0.600585 0.007436
0.425885 -0.600585 -0.000801
-0.297271 -0.624673 0.257258
0.20794 -0.600585 -0.505961
-0.257643 -0.624673 -0.386761
-3e-05 -0.600585 -0.268768
-0.149439 -0.624673 -0.277536
-0.01775 -0.600585 0.287464
0.023273 -0.624673 0.07521
-0.275988 -0.600585 -0.437796
-0.338147 -0.600585 -0.155649
-0.500805 -0.624673 0.178396
-0.18661 -0.624673 -0.416565
0.07428 -0.624673 -0.197421
-0.279709 -0.600585 0.25491
0.263063 -0.624673 0.159417
0.262482 -0.624673 0.258865
0.138982 -0.600585 -0.163645
0.478918 -0.600585 0.445025
0.42634 -0.600585 -0.479389
-0.085968 -0.624673 0.388391
0.29692 -0.600585 -0.482082
-0.528896 -0.624673 -0.28327
-0.523522 -0.613642 -0.584755
-0.201384 -0.600585 0.047709
-0.091269 -0.600585 -0.04145
0.099832 -0.624673 -0.353022
0.071752 -0.600585 0.373054
0.211176 -0.624673 0.074963
-0.185227 -0.624673 0.313123
0.111902 -0.600585 0.40796
-0.286208 -0.600585 0.081319
0.176386 -0.600585 0.231084
-0.1686 -0.624673 0.463004
0.026291 -0.624673 0.304858
0.354856 -0.600585 -0.476256
0.208837 -0.624673 -0.282691
-0.154899 -0.600585 -0.504416
-0.184987 -0.600585 0.130822
-0.486171 -0.624673 0.335525
0.048457 -0.600585 0.00292
0.178142 -0.624673 -0.471654
-0.474847 -0.624673 -0.015592
0.545069 -0.600585 -0.561458
-0.155201 -0.600585 0.367499
0.138104 -0.600585 -0.466949
-0.06435 -0.600585 -0.097339
0.202717 -0.624673 0.385379
0.396537 -0.624673 0.495579
-0.178321 -0.600585 -0.143249
-0.427023 -0.624673 0.202193
-0.055997 -0.624673 -0.522771
0.514501 -0.600585 -0.495303
-0.472197 -0.600585 -0.541322
-0.489545 -0.600585 0.214412
-0.108199 -0.624673 -0.399865
0.153197 -0.600585 -0.287303
0.415041 -0.600585 0.343035
0.375353 -0.624673 -0.158969
0.325111 -0.624673 0.03538
-0.136515 -0.600585 0.115978
-0.221536 -0.624673 0.196627
0.144659 -0.624673 -0.386038
0.169302 -0.600585 0.088722
0.012815 -0.600585 -0.353289
0.484511 -0.600585 0.292902
-0.515901 -0.600585 -0.41616
-0.479698 -0.600585 0.01077
0.177197 -0.600585 0.15129
-0.205778 -0.600585 -0.377926
0.552864 -0.600585 -0.429997
0.319068 -0.624673 -0.45259
-0.472659 -0.600585 -0.38266
-0.111347 -0.624673 0.252923
-0.080771 -0.624673 -0.146695
0.257752 -0.624673 -0.212011
0.334476 -0.624673 0.416703
-0.462896 -0.624673 0.118059
0.04059 -0.624673 -0.542378
0.372875 -0.624673 -0.230765
-0.392684 -0.624673 -0.124975
-0.432409 -0.600585 0.14015
-0.1989 -0.624673 -0.177287
-0.232149 -0.600585 0.097554
0.518874 -0.624673 -0.16505
0.047648 -0.624673 -0.497008
0.001598 -0.600585 -0.05631
-0.098696 -0.624673 -0.268214
-0.081907 -0.600585 -0.556712
-0.188936 -0.624673 -0.083466
-0.013593 -0.600585 0.004505
-0.472154 -0.624673 0.451894
0.471251 -0.624673 0.041427
-0.402282 -0.600585 -0.266457
-0.076724 -0.600585 0.405123
0.032319 -0.600585 0.292107
0.103328 -0.600585 0.34828
0.117711 -0.624673 0.086577
0.50928 -0.624673 0.423426
-0.472461 -0.600585 -0.325308
0.472668 -0.600585 0.056891
0.398537 -0.600585 0.094024
-0.149613 -0.624673 0.236634
-0.109106 -0.624673 0.222953
0.088645 -0.624673 0.201455
0.138529 -0.624673 0.302945
-0.434987 -0.624673 -0.277935
0.442272 -0.624673 -0.525257
-0.093411 -0.624673 0.476244
-0.297641 -0.600585 0.015149
0.105331 -0.624673 -0.004844
-0.432603 -0.600585 0.106937
0.076203 -0.600585 -0.267801
0.410338 -0.600585 0.42246
0.554392 -0.624673 -0.155821
0.158001 -0.600585 0.38378
0.342209 -0.600585 -0.184348
-0.527672 -0.600585 0.241567
0.034012 -0.624673 0.433098
-0.531682 -0.624673 0.335127
0.286857 -0.600585 -0.002505
-0.122802 -0.624673 -0.506622
-0.389986 -0.600585 -0.05412
-0.229488 -0.600585 -0.283119
-0.107981 -0.600585 0.412238
0.351301 -0.624673 0.187911
0.127537 -0.624673 0.050265
0.12761 -0.624673 0.147139
-0.240407 -0.600585 -0.317205
-0.112457 -0.600585 -0.250553
-0.381278 -0.624673 -0.01083
-0.250978 -0.624673 -0.56224
-0.331356 -0.624673 -0.456762
0.184579 -0.600585 -0.20188
-0.518269 -0.624673 -0.05761
0.435694 -0.624673 -0.330826
0.258904 -0.624673 0.349544
-0.159294 -0.600585 0.036266
-0.294827 -0.624673 0.337451
-0.199933 -0.600585 0.159994
-0.118132 -0.600585 -0.120426
0.275514 -0.624673 -0.150075
0.176694 -0.624673 -0.030696
-0.22268 -0.600585 0.140309
-0.052639 -0.624673 0.076889
-0.166814 -0.600585 -0.006366
-0.086156 -0.600585 0.366707
0.198957 -0.600585 0.17224
0.502054 -0.600585 0.350284
-0.037446 -0.624673 -0.54364
-0.045424 -0.600585 -0.03166
0.251067 -0.624673 0.011379
-0.197524 -0.624673 -0.307491
0.465471 -0.600585 -0.337306
0.16211 -0.600585 -0.430419
0.52854 -0.600585 0.15038
-0.337331 -0.600585 0.169656
0.285775 -0.600585 -0.375409
0.006914 -0.624673 0.422651
0.526439 -0.600585 -0.207585
-0.049155 -0.600585 0.338015
0.133851 -0.624673 -0.361235
-0.406271 -0.624673 -0.392248
-0.218612 -0.624673 -0.057385
0.489151 -0.600585 -0.059499
0.331173 -0.600585 0.468493
0.299111 -0.624673 -0.044393
-0.30722 -0.624673 0.122394
-0.299812 -0.600585 -0.281029
0.200783 -0.600585 0.451201
-0.16013 -0.624673 0.155063
0.451162 -0.624673 0.229701
0.193145 -0.624673 -0.358322
0.268883 -0.600585 0.123691
0.021579 -0.624673 -0.098238
0.014347 -0.600585 -0.235205
0.3367 -0.600585 0.133795
-0.085595 -0.624673 -0.019467
-0.408436 -0.600585 0.04485
0.529521 -0.624673 0.327807
0.020651 -0.600585 -0.411091
-0.506258 -0.624673 -0.168198
-0.335271 -0.600585 -0.311557
0.439276 -0.624673 0.491674
-0.413276 -0.624673 0.144197
-0.407905 -0.600585 -0.496407
-0.253737 -0.600585 -0.188904
0.297167 -0.624673 -0.277699
-0.16512 -0.600585 0.303348
-0.05264 -0.600585 0.267194
-0.500497 -0.624673 -0.571225
-0.437006 -0.624673 -0.456753
0.114015 -0.624673 0.226376
-0.124931 -0.600585 -0.411272
-0.162821 -0.624673 0.120561
0.181678 -0.624673 0.356493
-0.372655 -0.624673 -0.273622
0.088474 -0.600585 -0.029068
-0.036858 -0.600585 0.196393
0.322443 -0.624673 0.218471
0.489361 -0.624673 -0.500277
0.357004 -0.624673 0.356447
0.257169 -0.624673 -0.358879
0.021517 -0.624673 -0.210491
0.149448 -0.624673 0.068147
0.087497 -0.624673 0.268287
0.14639 -0.600585 0.001472
0.233984 -0.624673 0.061453
-0.234328 -0.624673 -0.518726
-0.024414 -0.624673 0.39934
0.24477 -0.624673 0.374341
0.49449 -0.600585 -0.565805
-0.191004 -0.624673 0.364917
0.156581 -0.624673 -0.421148
0.369902 -0.624673 0.214389
-0.498965 -0.600585 -0.098929
0.298272 -0.624673 0.052789
-0.057121 -0.624673 -0.3147
0.179046 -0.624673 0.212604
-0.226147 -0.600585 0.469575
-0.282252 -0.600585 0.172234
0.24549 -0.624673 -0.14978
0.213952 -0.600585 0.230951
-0.272335 -0.600585 0.003179
0.094665 -0.600585 0.433787
0.456917 -0.624673 -0.444938
0.408909 -0.624673 0.35492
0.385266 -0.624673 -0.134599
-0.357183 -0.600585 0.059776
-0.127088 -0.600585 -0.442197
0.295678 -0.624673 0.313334
-0.220707 -0.600585 -0.168148
-0.380923 -0.600585 -0.337509
-0.160048 -0.600585 -0.557138
-0.459123 -0.622217 -0.584755
-0.219176 -0.624673 -0.25062
-0.224722 -0.624673 -0.556538
0.210664 -0.624673 -0.044598
-0.329056 -0.624673 -0.524022
-0.323769 -0.624673 0.2065
-0.032908 -0.624673 -0.283959
-0.02766 -0.624673 -0.309915
0.471909 -0.600585 0.384212
-0.097093 -0.624673 -0.362733
0.544965 -0.600585 -0.226473
0.204379 -0.600585 -0.475501
0.107565 -0.624673 0.479969
0.502263 -0.624673 -0.292134
-0.029277 -0.624673 -0.171013
0.235515 -0.624673 -0.082955
-0.122212 -0.624673 0.38637
0.228833 -0.624673 0.026437
0.22917 -0.600585 0.433256
-0.373368 -0.624673 -0.439355
-0.387643 -0.600585 -0.084688
-0.190026 -0.600585 -0.065223
0.246119 -0.600585 0.403313
0.344531 -0.600585 -0.570062
0.476748 -0.624673 0.120456
-0.397335 -0.600585 0.183812
-0.105478 -0.600585 0.26035
-0.305154 -0.600585 -0.202978
-0.106871 0.603836 0.201744
-0.09057 0.603836 -0.259525
0.302464 0.603836 -0.205573
0.245993 0.579747 0.257546
-0.401229 0.579747 0.046214
0.093607 0.579747 -0.017827
0.561402 0.581855 0.352902
-0.329323 0.579747 -0.376806
0.097465 0.579747 -0.407724
0.4036 0.579747 -0.436017
-0.146885 0.579747 -0.032079
-0.32667 0.579747 0.290568
0.330554 0.603836 0.046722
-0.088174 0.603836 0.432026
-0.311828 0.603836 -0.163109
0.058257 0.603836 0.303164
-0.096363 0.579747 -0.450875
0.271701 0.603836 0.444052
0.429113 0.579747 0.220908
0.088943 0.603836 -0.225623
0.255494 0.579747 -0.36511
-0.422472 0.579747 0.431813
0.062153 0.603836 0.139724
-0.235778 0.603836 0.103484
0.425609 0.603836 -0.094452
0.41979 0.603836 0.412735
-0.231718 0.579747 0.41213
0.440877 0.579747 -0.245787
0.218662 0.603836 -0.087758
-0.015716 0.579747 -0.130393
-0.452579 0.579747 -0.147774
0.209833 0.579747 0.116005
-0.428127 0.579747 0.194982
-0.284979 0.603836 -0.027719
0.127808 0.579747 0.434345
-0.051388 0.579747 0.065701
0.280022 0.603836 -0.496532
-0.204014 0.579747 -0.33234
0.116713 0.579747 -0.538865
0.457765 0.579747 0.033683
-0.440083 0.603836 -0.312965
-0.257798 0.603836 -0.478417
-0.422059 0.579747 -0.462863
-0.184164 0.579747 -0.152833
-0.19414 0.579747 0.289491
0.00227 0.603836 -0.337026
-0.094568 0.603836 -0.573152
-0.078876 0.579747 0.314622
0.008585 0.603836 -0.494154
0.330498 0.603836 0.329927
0.201809 0.579747 -0.252638
0.309328 0.603836 0.16759
-0.438566 0.579747 0.321762
0.490939 0.603836 -0.500037
0.365793 0.603836 -0.335793
0.48425 0.603836 -0.342626
-0.327522 0.603836 -0.272114
-0.33028 0.579747 0.150788
0.476675 0.582732 0.505245
0.192049 0.579747 0.34897
0.020176 0.603836 0.415658
0.140521 0.579747 0.241544
-0.381936 0.579747 -0.069665
0.192555 0.603836 0.015732
-0.003052 0.579747 0.217385
-0.480753 0.603836 -0.048393
0.094647 0.603836 -0.115673
-0.249318 0.603836 0.208906
0.455196 0.603836 0.319407
0.318381 0.603836 -0.107142
0.410683 0.579747 0.124295
0.183208 0.603836 -0.448471
-0.327791 0.579747 0.394994
-0.522132 0.603836 -0.372535
-0.010441 0.603836 -0.017511
-0.24546 0.579747 -0.231028
-0.135073 0.579747 0.109847
-0.175511 0.603836 -0.526541
-0.087361 0.603836 -0.36285
-0.341466 0.579747 -0.506888
0.098282 0.603836 -0.319403
-0.002371 0.603836 -0.223689
0.50982 0.603836 0.147375
0.39665 0.603836 -0.529626
-0.534404 0.579747 0.412943
-0.496307 0.603836 -0.534964
0.501431 0.579747 -0.047493
-0.400986 0.603836 -0.22252
-0.464598 0.603836 0.102494
0.204788 0.579747 -0.540151
0.046108 0.603836 0.053225
0.370193 0.579747 -0.028024
-0.098146 0.579747 -0.171153
-0.308159 0.579747 0.062027
-0.177436 0.603836 -0.435265
0.167057 0.579747 -0.154512
-0.329609 0.579747 0.479302
0.497852 0.579747 -0.158347
-0.484096 0.603836 0.255834
-0.082841 0.603836 -0.086855
-0.153995 0.603836 0.356917
0.130666 0.579747 0.095387
0.272301 0.579747 -0.005407
0.376926 0.579747 -0.184227
-0.002914 0.579747 -0.413203
-0.121173 0.579864 0.505245
-0.220038 0.603836 0.017526
0.332751 0.603836 -0.411435
0.505366 0.579747 0.253467
-0.259272 0.579747 -0.109951
-0.041295 0.579747 0.149361
0.495235 0.579747 -0.415651
0.181851 0.603836 -0.36036
-0.479726 0.603836 -0.216537
-0.172735 0.603836 -0.242445
0.143534 0.603836 0.168029
0.289752 0.579747 -0.276795
0.34445 0.579747 0.260484
0.147735 0.579747 -0.069977
0.335164 0.579747 0.399672
-0.270019 0.579747 0.348861
0.524503 0.579747 -0.272139
-0.433097 0.603836 -0.385889
-0.258825 0.603836 -0.405306
-0.480752 0.579747 0.028593
0.022264 0.579747 -0.563962
0.204011 0.579747 0.420663
-0.321079 0.603836 0.218481
0.224531 0.579747 0.18689
0.135565 0.603836 0.309145
-0.492297 0.603836 0.173298
-0.359307 0.603836 -0.437408
-0.520187 0.579747 0.318258
0.513912 0.579747 0.077524
0.511061 0.579747 0.402931
0.394182 0.579747 0.351083
0.234164 0.603836 -0.156862
0.262353 0.579747 0.343187
0.002825 0.579747 0.338969
0.262079 0.579747 0.069159
0.365975 0.579747 -0.27007
0.101222 0.603836 0.374439
0.039515 0.603836 -0.165674
0.037968 0.579747 -0.083049
-0.168704 0.603836 0.42937
0.181122 0.579747 0.486376
-0.084114 0.603836 -0.01542
-0.359473 0.603836 -0.002838
-0.464605 0.603836 0.383533
0.349651 0.579747 -0.477806
-0.535618 0.579747 -0.01408
-0.487223 0.603836 -0.46311
-0.27211 0.579747 -0.341221
-0.243196 0.603836 -0.544126
-0.16123 0.603836 -0.094675
-0.054796 0.603836 0.489825
-0.134976 0.603836 0.271341
-0.379263 0.603836 -0.339326
-0.162027 0.579747 0.038264
-0.402877 0.603836 0.138836
0.394976 0.579747 0.054173
-0.199375 0.579747 0.173704
-0.052123 0.579747 0.374011
0.318895 0.579747 0.105696
-0.058446 0.579747 0.250841
0.422529 0.603836 -0.304886
-0.388684 0.603836 -0.128854
0.056299 0.579747 -0.457002
0.436104 0.579747 -0.035934
0.118621 0.603836 0.035997
-0.389727 0.603836 0.38242
0.081282 0.603836 0.243179
0.146228 0.579747 -0.2847
0.538903 0.603836 -0.214705
0.441034 0.603836 -0.390681
-0.405916 0.603836 0.249175
-0.320174 0.579747 -0.092846
-0.104979 0.579747 -0.515637
-0.421862 0.603836 -0.025837
-0.160731 0.579747 -0.378166
0.189511 0.579747 0.285988
-0.433312 0.603836 -0.533868
0.254148 0.603836 -0.439287
-0.537311 0.579747 -0.25467
-0.050885 0.579747 -0.314887
0.398074 0.603836 0.281205
0.382338 0.579747 0.180944
0.22905 0.579747 -0.307397
-0.384204 0.603836 0.307518
0.437677 0.579747 -0.168621
0.33451 0.603836 0.456395
0.106514 0.603836 -0.481314
0.253389 0.603836 -0.56752
0.164397 0.603836 -0.211301
-0.131713 0.579747 -0.29696
0.304549 0.603836 -0.339019
-0.040767 0.603836 -0.453827
0.310403 0.579747 -0.542952
-0.254979 0.603836 -0.285677
0.071882 0.603836 0.446306
-0.49622 0.579747 -0.299291
-0.26946 0.603836 0.294093
0.422339 0.579747 0.480429
-0.480137 0.579747 0.446239
0.434698 0.603836 -0.480861
0.454748 0.579747 -0.542514
0.510092 0.603836 0.018214
-0.039952 0.579747 -0.184363
-0.052798 0.603836 -0.528479
0.012088 0.579747 -0.275342
-0.242594 0.579747 -0.166292
0.482494 0.603836 0.447918
0.01444 0.603836 0.102353
0.111573 0.603836 -0.171608
0.453869 0.603836 0.164194
-0.39795 0.579747 0.484756
-0.393772 0.579747 -0.286963
0.225436 0.579747 -0.483549
0.265446 0.579747 0.138451
-0.300746 0.603836 -0.21985
0.284029 0.603836 -0.056605
-0.509878 0.603836 -0.15306
0.09478 0.579747 0.187035
-0.306812 0.579747 -0.460214
0.287928 0.579747 0.218369
-0.080077 0.603836 0.115774
0.482843 0.603836 -0.213433
-0.039654 0.579747 -0.060486
-0.20671 0.579747 0.362036
0.480588 0.603836 -0.104815
-0.251923 0.579747 0.464294
-0.319935 0.603836 0.341894
0.53247 0.579747 -0.3741
0.010915 0.603836 0.273848
-0.262204 0.603836 0.152379
-0.106515 0.579747 0.040728
0.378526 0.579747 -0.128783
-0.031071 0.603836 0.436871
0.02472 0.579747 0.465438
-0.289909 0.579747 -0.526838
0.539614 0.579747 -0.489912
-0.51239 0.579747 0.11578
0.151629 0.579747 -0.015082
-0.208056 0.579747 -0.474116
-0.190391 0.579747 0.234748
0.066506 0.603836 -0.518554
0.186231 0.603836 0.073582
0.115744 0.603836 0.481787
0.172906 0.603836 -0.582704
0.495751 0.603836 0.357113
-0.468194 0.579747 -0.096148
-0.296555 0.603836 0.108817
-0.279944 0.603836 0.399899
0.453189 0.603836 0.102037
-0.477902 0.579747 -0.402991
-0.10286 0.603836 0.372885
0.396033 0.579747 -0.372697
-0.3866 0.579747 -0.398298
0.157927 0.603836 -0.495619
-0.199718 0.579747 -0.066738
0.031744 0.603836 0.183154
-0.148976 0.603836 0.154874
0.269485 0.603836 0.389733
-0.360517 0.579747 -0.166578
-0.144414 0.579747 -0.196642
0.381428 0.579747 0.447296
-0.039567 0.579747 -0.263583
0.153346 0.603836 0.379625
0.048587 0.579747 -0.340657
0.23027 0.603836 0.48326
0.032738 0.579747 -0.000995
0.286893 0.579747 0.297401
-0.351382 0.579747 -0.232775
-0.378131 0.579747 0.181065
-0.055335 0.603836 0.196084
0.222148 0.579747 -0.404795
0.503977 0.603836 0.207624
0.133905 0.579747 -0.444935
0.187195 0.603836 -0.046982
0.32308 0.579747 -0.165292
0.52765 0.579747 -0.557768
-0.455568 0.579747 -0.268419
0.130807 0.603836 -0.360297
0.390125 0.603836 -0.227032
0.229977 0.579747 -0.034037
0.317417 0.603836 -0.018521
-0.145698 0.603836 -0.474152
0.253499 0.603836 -0.216581
0.051236 0.603836 -0.040725
0.484615 0.603836 -0.292661
-0.361752 0.579747 0.255164
-0.079138 0.579747 -0.217479
0.297584 0.579747 -0.440594
-0.244603 0.579747 -0.043665
0.064009 0.579747 -0.292994
0.269878 0.579747 -0.132512
-0.129919 0.579747 -0.124464
-0.047343 0.603836 -0.404828
-0.422106 0.603836 -0.085458
-0.484936 0.579747 -0.347361
-0.131139 0.603836 -0.41869
0.369199 0.603836 0.134266
0.284369 0.603836 -0.396504
-0.355779 0.603836 -0.558333
0.038617 0.603836 -0.404333
-0.157143 0.603836 0.476785
-0.28488 0.579747 0.240381
0.219519 0.603836 0.381092
-0.324888 0.579747 -0.041593
-0.206884 0.603836 -0.281264
-0.340791 0.603836 0.439033
-0.44119 0.579747 -0.194603
-0.004768 0.603836 -0.083327
-0.546665 0.584917 -0.060636
-0.520755 0.603836 0.05024
-0.292738 0.603836 0.023565
-0.457687 0.579747 0.15068
0.083433 0.603836 -0.36645
0.207903 0.579747 -0.188673
0.064322 0.603836 0.494486
-0.025678 0.579747 0.292328
-0.066397 0.579747 -0.487879
-0.146291 0.579747 -0.56933
-0.179742 0.603836 -0.007865
-0.247887 0.603836 0.05767
-0.287507 0.579747 -0.258321
-0.10342 0.579747 0.161345
0.104743 0.579747 0.282937
0.397685 0.603836 0.013829
-0.228311 0.579747 -0.372539
0.331783 0.579747 -0.309395
-0.343582 0.579747 0.092724
0.33464 0.603836 -0.244897
-0.181782 0.579747 0.106824
0.386069 0.603836 -0.575187
-0.145222 0.579747 0.31789
0.342991 0.579747 -0.065938
-0.193956 0.579747 -0.198439
0.350167 0.603836 -0.533465
0.252449 0.579747 -0.52541
-0.491412 0.603836 0.345699
0.091115 0.603836 0.094356
-0.394627 0.579747 -0.550918
-0.446773 0.579747 0.268881
-0.086847 0.579747 -0.40383
0.24254 0.603836 -0.270268
-0.238983 0.579747 -0.439384
0.455803 0.579747 0.358816
0.445427 0.579747 -0.351663
-0.293246 0.603836 0.494043
0.522449 0.603836 -0.080608
-0.466322 0.603836 -0.572899
0.36451 0.603836 0.078633
0.000623 0.603836 0.058552
0.189921 0.603836 -0.123224
0.489316 0.603836 -0.566963
-0.482748 0.579747 0.210767
-0.315675 0.579747 -0.327907
0.056297 0.603836 0.367284
-0.013516 0.579747 0.020858
0.460295 0.579747 0.258351
0.103548 0.603836 -0.071371
-0.23948 0.579747 0.270413
0.178568 0.603836 -0.304788
0.080736 0.579747 0.032314
-0.043397 0.603836 -0.353465
0.157271 0.579747 0.029708
-0.016105 0.603836 0.385897
-0.056697 0.579747 -0.575987
0.248307 0.603836 0.023923
-0.059478 0.603836 -0.152015
-0.168897 0.603836 0.203711
0.512115 0.603836 0.31544
0.461216 0.603836 -0.444925
-0.113366 0.579747 -0.061465
0.120477 0.579747 -0.245363
-0.426921 0.579747 0.382398
0.288031 0.603836 0.260289
0.044299 0.579747 0.244873
-0.214179 0.579747 -0.120536
0.056358 0.603836 -0.25532
0.334458 0.603836 0.203776
-0.431543 0.579747 -0.349106
-0.056239 0.603836 0.01861
0.456547 0.579747 0.411684
-0.207326 0.603836 -0.403059
0.530331 0.579747 -0.441903
0.158503 0.603836 -0.397446
-0.104343 0.579747 0.238251
-0.29246 0.603836 -0.377259
-0.481436 0.579747 -0.49916
0.370123 0.603836 0.234615
-0.40337 0.603836 -0.50213
-0.526475 0.603836 0.371668
-0.237447 0.603836 0.332699
0.161052 0.603836 0.128153
0.531302 0.603836 -0.027194
0.023847 0.579747 0.137176
0.027637 0.579747 -0.130477
-0.220459 0.603836 0.446745
0.533897 0.596318 0.505245
0.062365 0.579747 -0.201426
-0.32409 0.579747 -0.419731
0.095743 0.579747 0.338995
0.104187 0.603836 0.1495
0.297822 0.591498 -0.584755
-0.403134 0.603836 0.095692
-0.149245 0.603836 -0.16032
0.346326 0.603836 -0.202616
-0.538886 0.603836 -0.521096
-0.496517 0.603836 -0.00839
-0.445329 0.603836 0.064135
-0.120704 0.579747 0.446222
-0.084784 0.603836 -0.302023
0.39113 0.579747 -0.086214
0.491126 0.579747 0.117302
-0.419465 0.603836 -0.427562
0.180932 0.603836 0.188844
0.214313 0.579747 0.228854
0.067994 0.579747 -0.553799
0.459807 0.603836 -0.06206
-0.103525 0.603836 0.080112
0.115775 0.603836 0.215233
-0.010097 0.603836 0.175489
0.303825 0.603836 0.362772
0.34297 0.579747 0.158789
0.465461 0.603836 -0.017397
-0.241717 0.579747 -0.509445
0.133829 0.579747 -0.128419
-0.35803 0.579747 0.031814
-0.435834 0.579747 0.005804
0.301218 0.579747 0.025141
-0.381911 0.579747 0.420785
-0.207753 0.603836 0.072184
-0.409826 0.579747 -0.156005
0.272283 0.603836 -0.174501
-0.033395 0.603836 0.345204
0.548205 0.603836 -0.113734
-0.12583 0.579747 -0.355034
-0.347434 0.579747 -0.12681
0.302892 0.579747 0.426304
0.524025 0.579747 0.178493
-0.139802 0.603836 0.3993
-0.324855 0.579747 -0.194418
-0.485691 0.579747 -0.183165
0.167826 0.579747 0.44544
-0.546515 0.603836 0.187585
0.253851 0.579747 -0.094354
-0.30275 0.579747 0.190285
0.020734 0.579747 -0.375884
0.032404 0.603836 -0.304237
-0.296262 0.603836 -0.493937
-0.202068 0.579747 -0.546885
-0.009841 0.603836 -0.55464
0.000882 0.603836 0.493683
-0.45944 0.579747 -0.44505
0.413161 0.603836 0.159649
-0.375639 0.603836 -0.259266
0.185931 0.579747 -0.088552
0.060305 0.579747 0.415702
0.454841 0.579747 -0.124846
-0.27793 0.579747 -0.073965
0.4179 0.579747 0.306937
0.163925 0.603836 0.266061
-0.260449 0.603836 -0.202357
-0.500361 0.579747 0.390733
-0.501848 0.603836 0.480241
-0.136783 0.603836 -0.5376
-0.085075 0.579747 0.478663
-0.020205 0.579747 -0.508632
-0.03028 0.603836 0.235356
-0.236179 0.603836 -0.074663
0.232796 0.603836 0.33102
0.212407 0.603836 -0.571184
-0.505912 0.603836 0.427189
-0.356167 0.603836 0.360776
-0.346192 0.603836 -0.065159
-0.105871 0.603836 -0.483958
-0.257474 0.603836 0.004125
0.35736 0.603836 -0.099494
-0.514581 0.603836 -0.074276
0.028232 0.579747 -0.230633
-0.038557 0.603836 -0.103897
-0.293166 0.579747 0.316809
-0.354157 0.603836 -0.476606
0.31047 0.579747 -0.369776
0.015513 0.579747 -0.463633
0.004767 0.579747 -0.044846
-0.544557 0.603836 0.109726
-0.399434 0.603836 0.343934
0.387174 0.579747 -0.489898
-0.082044 0.579747 -0.130489
-0.297789 0.603836 -0.114486
-0.398064 0.603836 0.453623
0.226128 0.603836 -0.354868
-0.530104 0.603836 -0.472969
0.058454 0.579747 0.081614
-0.398986 0.579747 0.279258
-0.45408 0.603836 -0.483817
0.42904 0.603836 -0.217404
-0.140021 0.603836 -0.267361
0.504162 0.579747 0.469609
0.3007 0.579747 0.065249
-0.072186 0.603836 0.346276
-0.177567 0.603836 0.390472
0.224652 0.603836 0.089663
-0.369728 0.603836 -0.522496
-0.048606 0.579747 -0.010368
-0.46237 0.579747 -0.54107
-0.207076 0.603836 -0.504639
0.444329 0.603836 0.460309
-0.389267 0.579747 0.0097
-0.067545 0.603836 -0.050325
0.311221 0.579747 -0.476304
0.264291 0.579747 -0.322061
0.237736 0.603836 0.160401
0.491854 0.579747 -0.533679
-0.006191 0.603836 -0.29855
0.50489 0.579747 -0.232944
0.544645 0.603836 0.43104
-0.221741 0.603836 -0.025141
0.521872 0.603836 -0.175242
-0.116514 0.603836 0.004368
-0.1787 0.579747 -0.304051
0.213237 0.603836 -0.512144
-0.15422 0.579747 0.249368
-0.281864 0.579747 -0.296909
0.129321 0.579747 -0.194692
0.392728 0.579747 -0.296685
-0.342648 0.603836 0.177059
0.212574 0.603836 0.268414
-0.519142 0.603836 -0.277239
0.330805 0.579747 -0.511279
0.158734 0.579747 -0.557468
0.439792 0.579747 0.076397
0.265744 0.579747 0.48613
0.014115 0.579747 0.374733
-0.209044 0.603836 0.200723
-0.182017 0.601464 0.505245
0.039714 0.579747 -0.508575
-0.076512 0.579747 0.402323
0.264517 0.579747 0.189324
0.349057 0.603836 0.362265
-0.523292 0.579747 0.161763
0.352262 0.603836 -0.139622
0.088508 0.603836 -0.434647
0.179574 0.579747 -0.476572
0.285229 0.603836 0.326508
0.223173 0.579747 0.010917
0.356292 0.579747 -0.561006
0.520807 0.579747 0.344175
0.396633 0.603836 -0.037811
-0.457409 0.603836 0.230277
0.154491 0.603836 0.217329
0.461968 0.579747 -0.309024
0.219102 0.579747 -0.447231
-0.476211 0.603836 -0.132953
-0.229687 0.579747 0.22868
0.396794 0.579747 0.253458
-0.359441 0.603836 -0.194269
0.176205 0.579747 -0.516447
0.560428 0.579747 -0.088872
-0.049274 0.603836 0.095804
0.493569 0.579747 0.288204
0.410719 0.603836 -0.174779
-0.546665 0.601816 -0.343477
-0.170692 0.603836 0.307397
-0.289097 0.603836 -0.425823
0.196922 0.603836 -0.393635
0.518408 0.603836 -0.472477
-0.2196 0.603836 0.155199
-0.220584 0.603836 -0.204923
0.322482 0.579747 0.230038
0.022408 0.603836 0.228443
0.480489 0.579747 0.170553
0.488437 0.579747 -0.472852
-0.134187 0.579747 0.064369
0.05618 0.603836 0.012957
0.417698 0.579747 -0.512293
0.173583 0.579747 0.097683
0.448454 0.603836 -0.51448
0.012608 0.579747 -0.16913
-0.226787 0.603836 -0.317602
-0.380314 0.579747 0.224023
-0.352279 0.603836 0.281864
0.148881 0.603836 -0.243983
-0.054733 0.603836 0.302564
0.348837 0.603836 0.422923
-0.185594 0.603836 -0.121397
-0.455325 0.603836 0.347936
-0.047352 0.579747 0.458272
-0.203929 0.579747 -0.254566
-0.435292 0.579747 -0.110883
0.561402 0.60068 -0.186769
-0.44584 0.582928 0.505245
0.119596 0.603836 0.408926
0.021347 0.603836 -0.527954
0.422054 0.579747 0.029482
-0.129535 0.579747 0.187679
-0.354299 0.579747 -0.330001
0.134342 0.579747 0.361008
-0.256525 0.579747 0.178337
-0.155362 0.579747 -0.33126
-0.503577 0.603836 -0.431257
0.191336 0.603836 0.457629
-0.472226 0.603836 -0.370573
0.075291 0.603836 -0.165987
-0.116838 0.579747 0.296159
0.336254 0.579747 0.018087
-0.509422 0.603836 -0.113425
-0.168844 0.603836 -0.206515
-0.362417 0.603836 -0.370648
-0.264113 0.603836 -0.573872
-0.534955 0.603836 0.013198
0.036155 0.603836 -0.205755
0.063879 0.603836 -0.085901
-0.33366 0.603836 0.124953
-0.181254 0.603836 -0.345015
-0.042959 0.603836 -0.2894
0.413126 0.579747 -0.008943
-0.166116 0.579747 -0.49022
0.36076 0.579747 0.104313
0.079287 0.579747 0.471035
0.182974 0.579747 0.248644
-0.31524 0.579747 0.44706
0.001027 0.579747 0.439286
0.375911 0.603836 0.332895
0.311664 0.603836 0.130346
0.519161 0.579747 -0.119278
-0.040848 0.603836 -0.493369
0.125653 0.603836 -0.099145
-0.09226 0.60154 0.505245
0.023686 0.579747 0.069411
-0.017797 0.579747 0.258206
0.542413 0.603836 0.390458
-0.111437 0.603836 -0.192602
-0.309746 0.579747 -0.562842
-0.354696 0.603836 0.477418
0.342003 0.603836 0.297052
-0.480273 0.603836 -0.27984
0.460435 0.579747 -0.089787
0.449695 0.579747 0.192915
-0.273837 0.579747 0.098433
-0.373315 0.579747 -0.581087
0.299899 0.579747 0.387301
-0.382915 0.579747 0.075542
0.097681 0.603836 0.008506
-0.436981 0.579747 0.040807
-0.345795 0.579747 0.218689
-0.421873 0.579747 -0.06078
0.175292 0.603836 0.306114
0.09719 0.603836 0.314402
0.085968 0.579747 -0.341961
-0.418564 0.603836 0.294143
0.299987 0.603836 -0.25452
0.248747 0.579747 0.219856
-0.309746 0.603836 -0.301499
0.431863 0.603836 0.380602
-0.208499 0.603836 -0.155185
0.122861 0.603836 0.118508
-0.176421 0.579747 0.072968
0.540915 0.579747 -0.004795
0.111879 0.579747 -0.375632
0.202721 0.603836 0.139198
0.494098 0.579747 -0.014111
0.243376 0.579747 0.2916
-0.350954 0.579747 -0.278136
-0.003301 0.603836 -0.437388
-0.130615 0.579747 -0.455249
0.375505 0.603836 0.039872
-0.097598 0.579747 -0.549199
-0.454587 0.603836 0.020852
0.189359 0.579747 -0.008099
-0.459455 0.603836 -0.243866
-0.518585 0.579747 -0.508263
-0.068256 0.603836 -0.431636
0.448927 0.579747 -0.203993
0.095169 0.579747 0.07072
-0.080617 0.603836 0.259928
0.245378 0.579747 0.101674
0.475138 0.579747 -0.38828
-0.394051 0.579747 -0.35813
0.187572 0.579747 -0.217111
-0.164836 0.579747 -0.455492
0.419529 0.603836 -0.570019
0.3748 0.603836 -0.063622
0.125728 0.603836 -0.405501
-0.002722 0.603836 0.131332
0.136316 0.579747 -0.486329
0.150201 0.579747 0.290761
0.213376 0.579747 -0.124514
0.149177 0.603836 0.33984
-0.154196 0.579747 0.448558
-0.30809 0.603836 0.418152
0.370651 0.579747 0.414619
0.311339 0.579747 0.459136
-0.066201 0.579747 -0.377415
-0.055871 0.603836 -0.216297
0.104508 0.579747 0.244832
0.152613 0.603836 -0.172762
0.477423 0.579747 -0.270551
-0.265745 0.579747 -0.383115
-0.313456 0.603836 0.376699
0.136607 0.603836 -0.305839
0.411801 0.579747 -0.132288
-0.168896 0.603836 -0.399835
-0.02883 0.579747 -0.541452
0.159176 0.579747 -0.364416
0.261362 0.579747 -0.060682
0.280986 0.603836 -0.463219
0.41978 0.579747 -0.069202
-0.510664 0.579747 0.08259
0.060427 0.579747 -0.125148
-0.163164 0.603836 -0.061529
0.511882 0.579747 -0.348067
0.397798 0.603836 -0.327012
0.053417 0.579747 0.114405
-0.104265 0.579747 0.122132
0.32428 0.579747 0.352773
0.546419 0.603836 -0.05696
-0.162135 0.603836 0.124482
0.370292 0.579747 0.281192
-0.546665 0.595978 0.273411
0.176273 0.579747 0.378046
-0.330854 0.579747 0.013102
0.131904 0.579747 -0.576631
-0.4473 0.603836 0.183216
0.089497 0.579747 -0.466619
-0.384307 0.579747 -0.207444
0.293333 0.579747 -0.036224
0.051642 0.603836 0.209349
-0.506119 0.603836 -0.192258
0.477932 0.603836 0.272058
-0.115252 0.603836 -0.314309
-0.147696 0.603836 0.091475
-0.15349 0.579747 0.499617
-0.182199 0.603836 -0.176558
-0.41808 0.600757 -0.584755
0.312981 0.603836 0.083718
-0.119926 0.603836 -0.376411
0.193204 0.603836 0.401307
-0.1078 0.603836 -0.231742
-0.248022 0.603836 -0.144873
-0.43544 0.603836 -0.133878
0.407423 0.603836 -0.414299
0.434047 0.603836 -0.146886
0.127862 0.603836 -0.216638
0.348851 0.603836 -0.29554
0.161919 0.603836 0.471681
-0.411193 0.603836 0.008436
-0.440135 0.603836 0.444842
0.491252 0.603836 -0.071191
0.201122 0.579747 0.316432
0.251882 0.603836 -0.116204
0.141047 0.579747 0.057924
0.476227 0.579747 0.088396
0.065246 0.603836 0.271453
-0.227939 0.579747 0.080312
