-0.417518 -0.322122 0.065814
-0.417518 -0.751464 0.016584
-0.404959 -0.572213 0.11666
-0.40122 -0.336655 -0.099647
-0.40122 -0.356176 0.004981
-0.40122 -0.279432 0.115893
-0.40122 -0.645584 0.023449
-0.417518 -0.535232 0.052327
-0.40122 -0.660571 -0.07223
-0.417518 -0.553192 -0.004414
-0.417518 -0.384504 0.103461
-0.417518 -0.761076 0.08968
-0.417518 -0.341976 -0.04441
-0.40122 -0.736742 -0.03181
-0.40122 -0.547362 -0.04905
-0.417518 -0.403874 -0.112043
-0.40122 -0.299202 0.029135
-0.417518 -0.513597 0.105806
-0.414396 -0.558589 -0.122877
-0.40122 -0.434869 0.079245
-0.40122 -0.612182 -0.015612
-0.40122 -0.798255 -0.016225
-0.40122 -0.483201 -0.05981
-0.40122 -0.4974 0.032058
-0.417518 -0.752341 -0.102299
-0.417518 -0.666385 0.075913
-0.40122 -0.622358 -0.100298
-0.40122 -0.692539 0.106091
-0.417518 -0.688847 0.035525
-0.417518 -0.63966 -0.041256
-0.40122 -0.697115 -0.055758
-0.40122 -0.277565 0.065184
-0.40122 -0.804472 0.028378
-0.417518 -0.57501 -0.086238
-0.417518 -0.743099 0.053168
-0.40122 -0.367969 0.069268
-0.40122 -0.735907 -0.073885
-0.417518 -0.564418 0.074091
-0.40122 -0.336924 0.036942
-0.417518 -0.724102 0.096671
-0.40122 0.069319 -0.118852
-0.417518 -0.603342 0.104188
-0.40122 -0.362247 -0.074618
-0.40122 -0.81186 -0.088632
-0.40122 -0.636366 0.075136
-0.40122 -0.18903 -0.112428
-0.40122 -0.413591 -0.084593
-0.40122 -0.594842 0.012366
-0.417518 -0.29888 0.089669
-0.417518 -0.481265 -0.093227
-0.417518 -0.267136 0.039463
-0.40122 -0.515661 -0.053421
-0.417518 -0.363458 0.03503
-0.40122 -0.767684 0.064287
-0.40122 -0.595791 0.073217
-0.417518 -0.346014 0.108468
-0.417518 0.556255 -0.118351
-0.417518 -0.277594 -0.054964
-0.417518 -0.284151 -0.086674
-0.40122 -0.37666 -0.023822
-0.417518 -0.376882 -0.095599
-0.40122 -0.401852 0.085517
-0.417518 -0.711921 -0.008008
-0.40122 -0.631578 -0.064543
-0.417518 -0.548314 0.024378
-0.417518 -0.587209 -0.028392
-0.417518 -0.502766 -0.072927
-0.417518 -0.321541 -0.081992
-0.417518 -0.624613 0.032866
-0.411298 -0.270102 -0.122877
-0.417518 -0.53992 0.115093
-0.401448 -0.824596 -0.00143
-0.40122 -0.328394 0.003827
-0.40122 -0.753946 -0.010143
-0.404294 -0.099306 -0.122877
-0.417518 -0.671432 -0.030078
-0.417518 -0.800534 -0.039756
-0.417518 -0.501235 0.009039
-0.417518 -0.682757 -0.071886
-0.40122 -0.490667 -0.121552
-0.40122 -0.573882 -0.053608
-0.417518 -0.464791 0.057912
-0.417518 -0.538139 -0.099561
-0.417518 -0.776946 0.023286
-0.40122 -0.56863 0.014165
-0.40122 -0.347487 0.085446
-0.40122 -0.806768 0.092263
-0.40122 -0.279022 0.01282
-0.40122 -0.648115 0.04918
-0.40122 -0.638672 -0.021517
-0.40122 -0.317807 0.101783
-0.417518 -0.618747 0.08343
-0.40122 -0.790607 -0.074746
-0.40122 -0.733066 -0.100603
-0.40122 -0.761395 -0.041671
-0.40122 -0.29546 -0.026257
-0.40122 -0.568727 0.056358
-0.417518 -0.476637 0.036078
-0.417518 -0.303265 0.050843
-0.40122 -0.712966 -0.033915
-0.417518 -0.46858 -0.070498
-0.417518 -0.289566 -0.110643
-0.40122 -0.411506 -0.060918
-0.417518 -0.461886 0.096814
-0.417518 -0.010297 -0.101453
-0.40122 -0.583467 0.092663
-0.40122 -0.766627 0.104731
-0.417518 -0.685496 -0.114691
-0.417518 -0.532287 -0.048028
-0.40122 -0.401782 0.06347
-0.40122 -0.26233 -0.022224
-0.40122 -0.721213 -0.057557
-0.417518 -0.780779 0.070917
-0.40122 -0.700941 0.042985
-0.40122 -0.345093 -0.058259
-0.40122 -0.302393 0.007762
-0.417518 -0.781938 0.094703
-0.417518 -0.334887 0.01615
-0.417518 -0.356147 -0.100396
-0.417518 -0.34319 0.067396
-0.417518 -0.423008 0.110566
-0.40122 -0.464451 0.074959
-0.40122 -0.788294 -0.044076
-0.4046 0.03178 -0.122877
-0.40122 -0.62078 0.061491
-0.402312 -0.538375 -0.122877
-0.417518 -0.073846 -0.109732
-0.417518 -0.765058 0.001039
-0.417518 -0.605468 0.005882
-0.402162 -0.608083 0.11666
-0.417518 -0.568425 -0.020612
-0.417518 -0.707104 0.056222
-0.417518 -0.51998 -0.020718
-0.417518 -0.716742 -0.074829
-0.405633 -0.811299 0.11666
-0.40122 0.101691 -0.113429
-0.40122 -0.466857 0.046769
-0.417518 -0.732166 0.03662
-0.413576 -0.491977 0.11666
-0.40122 -0.532418 -0.014204
0.149939 0.380047 -0.148598
-0.176717 -0.70787 -0.148598
0.367255 0.699451 -0.148598
-0.319579 -0.606173 -0.13298
0.239387 -0.289664 -0.148598
-0.029561 -0.636231 -0.148598
-0.258743 0.68197 -0.148598
0.336683 -0.798945 -0.148598
-0.10841 -0.528998 -0.13298
0.122414 -0.776877 -0.148598
-0.299829 -0.285374 -0.13298
-0.301408 -0.735418 -0.13298
0.017729 -0.504504 -0.13298
-0.125645 0.692382 -0.13298
-0.045745 -0.765142 -0.148598
0.117715 -0.25543 -0.148598
-0.210043 -0.605292 -0.13298
0.122177 -0.534352 -0.148598
0.236287 -0.568458 -0.148598
-0.206453 -0.33171 -0.148598
0.053661 -0.69611 -0.13298
-0.288528 -0.50864 -0.148598
-0.287619 -0.380914 -0.148598
0.33242 -0.287953 -0.13298
-0.349317 0.743968 -0.148598
0.063578 -0.606978 -0.148598
-0.123521 -0.627784 -0.13298
0.28488 0.391178 -0.148598
-0.215175 -0.787495 -0.148598
0.018229 -0.348889 -0.13298
-0.094892 -0.311664 -0.13298
-0.339801 0.365704 -0.148598
-0.362709 -0.137286 -0.148598
-0.357377 -0.798094 -0.148598
0.24678 -0.018414 -0.148598
0.032381 -0.781244 -0.13298
0.325844 -0.451351 -0.13298
-0.338532 -0.446559 -0.148598
-0.382546 0.061946 -0.148598
-0.120085 -0.779037 -0.13298
-0.359811 -0.678293 -0.148598
-0.25638 -0.66625 -0.13298
-0.100497 -0.701489 -0.148598
0.023623 -0.431229 -0.148598
0.005902 0.684599 -0.148598
0.214893 0.418214 -0.148598
0.198959 0.070858 -0.13298
0.08897 -0.469498 -0.148598
0.343677 -0.716659 -0.13298
0.002141 -0.571694 -0.148598
0.134141 -0.322398 -0.13298
-0.228406 -0.265484 -0.13298
-0.350552 0.55223 -0.148598
-0.354145 -0.539102 -0.148598
-0.348543 0.674861 -0.148598
0.061863 -0.29928 -0.148598
0.28 -0.625229 -0.13298
-0.280879 -0.798123 -0.13298
-0.072375 -0.58633 -0.13298
0.187161 -0.524005 -0.148598
-0.199981 -0.538941 -0.148598
-0.347248 -0.326544 -0.148598
-0.058156 0.691783 -0.148598
0.243795 -0.82344 -0.148598
-0.187451 0.691665 -0.148598
-0.078679 0.379243 -0.148598
-0.016931 -0.712137 -0.13298
-0.369876 -0.048005 -0.148598
0.335702 -0.657781 -0.148598
0.119532 -0.718624 -0.13298
0.123756 -0.595387 -0.13298
-0.161734 -0.463856 -0.13298
-0.031037 -0.320998 -0.148598
-0.268652 -0.436719 -0.13298
-0.281092 0.362258 -0.148598
0.191859 -0.320587 -0.13298
0.354502 -0.588624 -0.148598
-0.155645 -0.29891 -0.148598
-0.374067 -0.623672 -0.13298
-0.376655 -0.484218 -0.13298
-0.24876 -0.719168 -0.148598
-0.360344 -0.744938 -0.13298
0.284258 -0.260562 -0.13298
-0.33904 -0.392761 -0.13298
-0.070188 -0.815709 -0.13298
-0.334084 0.042271 -0.13298
0.305051 -0.553594 -0.148598
-0.259108 -0.551733 -0.13298
-0.200611 -0.383119 -0.13298
-0.171359 -0.652699 -0.13298
0.35928 0.551778 -0.148598
0.183192 -0.576572 -0.148598
-0.307126 -0.679543 -0.148598
-0.378341 0.113781 -0.148598
0.04821 -0.543296 -0.148598
0.281437 -0.476324 -0.13298
0.035484 -0.646485 -0.13298
0.176258 -0.260085 -0.148598
-0.227685 -0.484446 -0.13298
-0.273151 -0.612403 -0.148598
-0.39086 -0.097109 -0.146646
0.237517 -0.240748 -0.148598
-0.256582 -0.346789 -0.13298
-0.162847 -0.593933 -0.13298
-0.160416 -0.752048 -0.13298
-0.39007 0.499677 -0.148598
0.129762 -0.488928 -0.13298
0.08475 -0.746289 -0.148598
0.076247 -0.808459 -0.13298
-0.246801 -0.39599 -0.13298
0.250802 -0.517342 -0.148598
-0.318212 -0.824596 -0.13859
-0.237932 0.733374 -0.148598
-0.167126 -0.349441 -0.13298
-0.333852 -0.500635 -0.13298
0.271213 -0.32369 -0.13298
-0.315617 0.713137 -0.148598
0.015335 -0.740424 -0.148598
0.064279 -0.416429 -0.13298
0.058744 -0.368443 -0.13298
0.363931 -0.47689 -0.13298
0.17221 -0.777002 -0.148598
-0.142669 0.651374 -0.148598
-0.334203 0.083433 -0.148598
0.350803 0.178426 -0.148598
0.337721 0.400905 -0.13298
-0.354478 0.003141 -0.148598
-0.39086 -0.428217 -0.137093
-0.086162 -0.739566 -0.13298
-0.103233 -0.488972 -0.148598
-0.306616 0.393065 -0.13298
0.192913 0.38236 -0.13298
-0.244101 -0.305788 -0.13298
-0.291321 0.04081 -0.13298
-0.217274 0.650933 -0.148598
-0.194789 -0.291562 -0.13298
0.004113 0.724071 -0.13298
-0.094134 -0.662551 -0.13298
-0.129621 -0.565362 -0.13298
-0.273854 -0.256251 -0.148598
0.341332 0.353687 -0.148598
0.328937 -0.752299 -0.148598
0.368075 0.509596 -0.148598
-0.269608 -0.761354 -0.148598
0.132462 0.342426 -0.148598
-0.007688 -0.667674 -0.13298
-0.315848 -0.770861 -0.148598
0.312726 -0.33217 -0.13298
0.329398 0.21333 -0.148598
-0.086562 0.652465 -0.148598
0.325357 -0.499471 -0.148598
0.242474 -0.614234 -0.148598
-0.138069 -0.701497 -0.13298
0.020601 -0.608705 -0.13298
-0.299888 -0.642805 -0.13298
-0.009874 -0.775162 -0.13298
0.048786 -0.467778 -0.148598
0.144461 -0.691754 -0.148598
-0.208119 -0.730311 -0.148598
-0.314769 0.003051 -0.148598
0.018937 -0.690745 -0.148598
-0.065902 -0.292141 -0.148598
-0.287372 -0.580524 -0.13298
-0.02026 -0.506306 -0.13298
0.36292 -0.62696 -0.148598
0.031621 -0.27637 -0.148598
-0.313352 -0.33245 -0.13298
0.270884 -0.552101 -0.13298
-0.333655 -0.701073 -0.13298
-0.073466 -0.509339 -0.13298
0.230415 0.387926 -0.13298
0.347762 -0.10333 -0.148598
0.092448 -0.320418 -0.148598
0.295949 -0.660433 -0.13298
-0.039317 -0.589842 -0.148598
-0.365458 -0.570257 -0.13298
-0.14089 -0.665739 -0.148598
-0.217931 0.704436 -0.13298
-0.380555 -0.710458 -0.13298
-0.039462 0.664695 -0.13298
0.075433 -0.567464 -0.148598
0.27512 -0.58822 -0.13298
0.093918 -0.430518 -0.148598
0.032939 -0.398174 -0.13298
-0.17755 -0.779927 -0.148598
-0.090848 -0.628341 -0.148598
-0.052341 -0.72673 -0.13298
-0.056916 -0.653982 -0.13298
-0.347318 -0.644426 -0.148598
-0.277719 -0.704545 -0.13298
-0.352273 -0.269452 -0.148598
0.013051 -0.536242 -0.148598
0.301517 -0.296489 -0.148598
-0.196672 -0.476693 -0.148598
-0.390006 -0.348281 -0.13298
-0.174819 -0.560891 -0.13298
-0.283533 -0.312279 -0.148598
0.130253 -0.288041 -0.148598
-0.125395 -0.291171 -0.13298
-0.292899 -0.415408 -0.148598
-0.227912 -0.691531 -0.148598
0.003109 -0.316013 -0.148598
0.308234 0.08388 -0.148598
-0.347409 -0.360876 -0.148598
0.203248 -0.549997 -0.13298
0.093318 -0.611041 -0.13298
0.358809 0.05953 -0.13298
-0.154446 0.724605 -0.13298
0.345011 -0.55658 -0.148598
-0.243607 -0.795199 -0.13298
0.096413 -0.359756 -0.13298
-0.226755 -0.36984 -0.148598
0.066841 -0.642867 -0.148598
0.207303 -0.281681 -0.148598
0.294033 -0.506856 -0.13298
-0.081759 -0.463922 -0.148598
0.172435 -0.745471 -0.13298
0.048463 -0.728452 -0.13298
-0.367956 0.371614 -0.13298
-0.364424 -0.413084 -0.148598
0.366824 0.272647 -0.148598
-0.39086 -0.553731 -0.145985
-0.348844 -0.29823 -0.13298
0.149292 -0.509311 -0.148598
0.214123 -0.337919 -0.148598
0.107278 -0.57232 -0.148598
-0.153528 -0.630942 -0.148598
-0.124388 -0.344694 -0.13298
-0.371083 0.576938 -0.148598
-0.017893 0.706784 -0.148598
-0.20822 -0.50657 -0.148598
0.093328 -0.501193 -0.148598
0.255671 0.023408 -0.148598
-0.127916 -0.600386 -0.148598
-0.291946 -0.458367 -0.13298
0.367455 -0.815103 -0.148598
0.06949 -0.272817 -0.13298
0.025893 0.746998 -0.13298
-0.25926 -0.484016 -0.13298
-0.308832 0.064715 -0.148598
0.056632 -0.51438 -0.13298
-0.308677 -0.363478 -0.13298
0.070151 -0.777679 -0.13298
-0.227125 -0.660176 -0.148598
-0.364917 -0.509761 -0.148598
-0.189753 -0.679563 -0.148598
0.173507 -0.300879 -0.148598
-0.12188 -0.727938 -0.13298
0.086106 -0.221598 -0.148598
-0.016258 -0.291991 -0.148598
-0.342245 0.396408 -0.148598
0.178367 -0.804837 -0.13298
-0.055077 -0.561246 -0.148598
-0.293272 -0.538869 -0.148598
0.0727 -0.714243 -0.148598
-0.274777 -0.220745 -0.13298
0.165824 -0.539077 -0.13298
-0.04897 0.365934 -0.148598
-0.364471 0.091706 -0.13298
-0.327674 -0.743007 -0.148598
0.321155 -0.364416 -0.148598
0.10303 -0.793874 -0.13298
0.155013 -0.566049 -0.148598
0.062255 -0.343341 -0.148598
0.342424 -0.333544 -0.13298
0.192565 -0.240931 -0.13298
-0.077947 0.676045 -0.13298
-0.289247 -0.341231 -0.148598
0.010025 -0.803495 -0.13298
-0.186164 -0.612555 -0.148598
-0.072427 -0.330654 -0.13298
-0.239404 -0.604795 -0.13298
0.146536 -0.78277 -0.13298
0.113999 -0.744124 -0.148598
-0.044052 -0.703413 -0.148598
-0.190713 -0.356736 -0.148598
0.333531 -0.257546 -0.148598
-0.374515 -0.773222 -0.148598
-0.309082 -0.392792 -0.13298
-0.018305 -0.353233 -0.148598
-0.263988 0.720702 -0.148598
-0.099279 -0.556473 -0.13298
-0.107645 0.675995 -0.148598
-0.109216 -0.757293 -0.148598
-0.354818 -0.473573 -0.148598
0.273019 -0.292032 -0.148598
-0.14864 0.699642 -0.148598
0.208972 -0.817614 -0.13298
-0.022556 -0.550511 -0.13298
-0.224188 0.678564 -0.148598
-0.350448 -0.157625 -0.13298
0.364463 0.36715 -0.13298
-0.042915 -0.29688 -0.13298
-0.082025 -0.767428 -0.13298
-0.287092 -0.824596 -0.14008
0.238777 -0.53731 -0.13298
0.341141 0.52233 -0.148598
-0.338497 -0.775934 -0.13298
-0.390587 -0.81371 -0.148598
-0.116174 -0.320875 -0.148598
0.369784 -0.086405 -0.143922
-0.196207 -0.759376 -0.148598
0.288498 0.428899 -0.148598
-0.338133 -0.124577 -0.13298
-0.330457 -0.420288 -0.148598
-0.084676 -0.27208 -0.148598
-0.016033 -0.797176 -0.148598
-0.116107 0.644484 -0.148598
-0.32699 -0.54183 -0.148598
-0.303103 -0.794968 -0.148598
-0.111101 -0.646535 -0.148598
0.301608 -0.485511 -0.148598
0.012646 -0.452135 -0.13298
-0.215296 -0.299924 -0.148598
-0.206208 -0.810346 -0.13298
-0.365657 0.022174 -0.13298
0.310208 0.381771 -0.148598
0.357185 -0.497772 -0.148598
-0.190679 -0.642418 -0.148598
-0.27492 -0.402986 -0.13298
-0.319397 -0.661475 -0.13298
-0.369254 0.721273 -0.13298
-0.39086 -0.462538 -0.139575
0.359367 -0.199706 -0.13298
-0.046031 -0.343023 -0.148598
0.318034 0.41924 -0.148598
0.035373 -0.757649 -0.148598
-0.387534 -0.166641 -0.13298
0.155486 -0.263351 -0.13298
0.137974 -0.233766 -0.13298
0.05194 -0.439388 -0.13298
0.260929 -0.642973 -0.13298
0.369784 -0.547455 -0.138865
0.070237 -0.487523 -0.148598
0.359947 0.320817 -0.148598
0.119713 0.358754 -0.13298
0.101167 -0.549563 -0.13298
-0.009153 -0.693043 -0.148598
0.359916 -0.405683 -0.148598
-0.113096 -0.5862 -0.13298
-0.132755 -0.456235 -0.13298
-0.025766 -0.525971 -0.148598
0.100082 -0.701888 -0.13298
0.338201 0.060464 -0.148598
0.048578 -0.811894 -0.148598
-0.298735 -0.611995 -0.148598
-0.252243 -0.371976 -0.148598
0.336054 -0.468697 -0.148598
-0.051731 -0.612071 -0.148598
-0.39037 -0.280491 -0.13298
-0.334268 -0.475186 -0.13298
-0.26882 -0.734834 -0.148598
-0.057023 -0.787881 -0.148598
0.039345 -0.710662 -0.148598
-0.358668 -0.028809 -0.13298
0.251471 -0.326496 -0.148598
-0.284663 0.022029 -0.148598
-0.11597 0.717931 -0.13298
-0.112321 -0.471089 -0.13298
-0.122664 -0.809778 -0.13298
0.30549 -0.174566 -0.148598
0.060356 -0.759708 -0.148598
-0.309834 -0.434527 -0.148598
0.367641 0.196953 -0.148598
-0.163768 -0.732778 -0.148598
0.08032 -0.240786 -0.13298
0.154012 -0.301309 -0.13298
0.027173 -0.487444 -0.148598
-0.384887 0.396817 -0.148598
-0.090443 -0.814567 -0.148598
0.367596 -0.72363 -0.13298
-0.224669 -0.321377 -0.13298
-0.01138 -0.478036 -0.13298
0.313296 0.057883 -0.148598
-0.266798 -0.455712 -0.148598
-0.237547 -0.347123 -0.148598
-0.036867 0.705753 -0.13298
0.32702 -0.821552 -0.148598
0.022773 0.720812 -0.148598
0.130425 -0.464448 -0.13298
0.039276 -0.677129 -0.148598
0.363128 -0.697007 -0.148598
-0.338925 0.706111 -0.148598
-0.080509 -0.687681 -0.148598
-0.39086 0.577799 -0.133744
-0.240254 0.669322 -0.13298
-0.026991 -0.568469 -0.148598
0.326981 -0.521451 -0.13298
-0.016176 0.73092 -0.148598
-0.155169 -0.677341 -0.13298
0.286907 0.10583 -0.148598
-0.046765 -0.494619 -0.148598
0.312477 -0.274562 -0.13298
-0.282282 -0.681096 -0.13298
0.079242 -0.406611 -0.148598
-0.355569 0.134317 -0.148598
-0.195137 -0.779669 -0.13298
0.296289 -0.530258 -0.13298
0.338402 -0.681097 -0.148598
-0.340583 -0.218143 -0.148598
-0.24392 -0.518983 -0.13298
-0.25425 -0.774375 -0.13298
0.116446 -0.511761 -0.148598
0.345475 -0.573943 -0.13298
-0.084431 -0.716427 -0.13298
-0.206722 -0.625681 -0.148598
0.165604 -0.816267 -0.148598
-0.262274 0.632956 -0.148598
0.315782 -0.56692 -0.13298
0.072113 -0.387341 -0.13298
-0.371634 -0.160862 -0.148598
0.01653 -0.402254 -0.148598
-0.2451 -0.266968 -0.148598
-0.042694 -0.742451 -0.148598
0.006271 -0.368306 -0.13298
0.07946 -0.448781 -0.148598
-0.335894 -0.266809 -0.13298
0.022228 -0.636554 -0.148598
-0.064481 0.657932 -0.148598
-0.034554 0.348408 -0.148598
-0.283952 0.393336 -0.13298
0.089668 -0.588705 -0.13298
-0.284418 -0.006468 -0.148598
-0.338316 0.058059 -0.148598
0.054499 -0.242152 -0.148598
-0.373465 -0.584479 -0.148598
0.009556 -0.819772 -0.148598
0.045729 -0.378128 -0.148598
-0.09887 -0.289512 -0.13298
-0.228737 -0.461974 -0.13298
0.369784 0.040717 -0.138611
0.31126 -0.200764 -0.148598
-0.153527 -0.321215 -0.148598
-0.39086 -0.611912 -0.142899
-0.197686 -0.561181 -0.148598
-0.109353 0.732672 -0.148598
-0.281235 -0.242142 -0.13298
0.018142 -0.774136 -0.148598
-0.376535 -0.366034 -0.13298
-0.176883 -0.586539 -0.148598
0.039932 -0.49685 -0.13298
-0.20113 -0.270244 -0.148598
0.125567 -0.573222 -0.13298
-0.10976 -0.824596 -0.143237
0.318302 -0.671417 -0.148598
0.127887 0.381009 -0.148598
-0.30729 -0.756679 -0.13298
-0.083081 -0.597643 -0.148598
0.005884 -0.337871 -0.148598
-0.280783 -0.488671 -0.13298
-0.000951 -0.554581 -0.13298
0.354495 0.537136 -0.13298
-0.359676 -0.781637 -0.13298
-0.02391 -0.766888 -0.148598
-0.214131 -0.716192 -0.13298
0.115897 -0.349804 -0.13298
-0.343345 -0.513395 -0.148598
-0.163012 -0.530519 -0.148598
-0.062592 -0.311281 -0.13298
0.084005 -0.276984 -0.148598
-0.271288 0.373743 -0.13298
0.1428 -0.768191 -0.148598
0.222016 -0.302637 -0.148598
-0.029366 -0.66759 -0.13298
-0.075031 0.362622 -0.13298
-0.333863 -0.367314 -0.13298
-0.344081 -0.629805 -0.13298
-0.207019 -0.525911 -0.13298
-0.28044 0.713877 -0.13298
-0.389668 -0.188028 -0.13298
0.147811 -0.804218 -0.148598
0.320219 -0.319506 -0.148598
-0.054844 -0.824596 -0.145038
0.125556 -0.814777 -0.13298
-0.237029 0.714024 -0.13298
-0.052204 -0.801629 -0.13298
0.161594 -0.283153 -0.148598
0.33052 -0.710583 -0.148598
0.293327 -0.241299 -0.13298
-0.31421 0.698747 -0.13298
-0.155748 0.738962 -0.148598
-0.185737 -0.628909 -0.13298
-0.354424 -0.70547 -0.13298
-0.331563 0.386954 -0.13298
-0.10559 0.699533 -0.13298
-0.339384 -0.138685 -0.148598
-0.197089 -0.342251 -0.13298
-0.094362 -0.510773 -0.13298
-0.09509 -0.533034 -0.148598
-0.119677 -0.490665 -0.13298
0.233994 -0.504921 -0.148598
-0.026411 -0.472272 -0.148598
-0.134583 -0.645453 -0.13298
0.060201 -0.319993 -0.148598
0.238141 -0.303256 -0.13298
-0.132503 0.730435 -0.13298
-0.189964 -0.704899 -0.13298
0.313706 -0.492557 -0.13298
-0.116378 -0.608399 -0.13298
-0.268929 -0.804129 -0.148598
-0.252118 -0.33264 -0.148598
0.314066 -0.518221 -0.148598
-0.349632 -0.42747 -0.148598
0.028637 -0.659682 -0.148598
-0.024821 -0.341925 -0.13298
0.366941 -0.244679 -0.13298
0.082104 -0.300949 -0.148598
-0.288186 -0.354143 -0.13298
0.26832 -0.531987 -0.13298
-0.065579 -0.760975 -0.148598
-0.34088 -0.609895 -0.13298
-0.273642 -0.632557 -0.148598
0.105305 -0.252587 -0.13298
-0.146737 -0.620221 -0.13298
-0.277508 -0.323411 -0.13298
0.272919 -0.354504 -0.148598
-0.163297 -0.32897 -0.13298
-0.206635 0.709533 -0.148598
0.340839 -0.810614 -0.13298
0.280082 0.418608 -0.13298
0.215769 0.401403 -0.13298
-0.39086 -0.788815 -0.138777
-0.009009 -0.54538 -0.148598
0.189124 -0.511949 -0.13298
-0.024347 -0.678676 -0.148598
0.13132 -0.585858 -0.148598
0.075936 -0.540011 -0.148598
0.296054 -0.257783 -0.148598
-0.332402 -0.327378 -0.13298
-0.064195 -0.485465 -0.148598
-0.330589 0.725856 -0.148598
-0.071161 -0.803902 -0.148598
0.042658 -0.628247 -0.13298
-0.265512 -0.827655 0.025457
-0.074153 -0.827655 0.003386
0.075914 -0.827655 0.007985
0.290271 -0.84601 0.043502
-0.152431 -0.84601 0.080738
-0.340804 -0.827655 -0.052279
0.185928 -0.827655 0.03051
-0.212205 -0.827655 -0.064663
0.366649 -0.84601 -0.063586
0.125818 -0.84601 -0.076929
-0.033609 -0.827655 -0.085989
0.001622 -0.84601 0.053895
0.078684 -0.84601 0.096749
0.243295 -0.834617 0.11666
-0.273203 -0.84601 0.106551
-0.14861 -0.84601 -0.023452
-0.330139 -0.84601 0.049358
0.012199 -0.84601 -0.017577
0.298901 -0.827655 -0.053193
-0.194302 -0.827655 0.027914
-0.276532 -0.827655 -0.06588
0.068596 -0.84601 -0.105805
-0.062237 -0.827655 0.06614
0.248539 -0.827655 -0.000463
0.145167 -0.84601 -0.016925
0.184648 -0.827655 -0.113435
0.345723 -0.84601 0.014929
-0.351678 -0.84601 -0.11264
0.315956 -0.827655 0.096764
-0.089439 -0.84601 -0.087481
-0.366866 -0.84601 0.007748
-0.158886 -0.827655 -0.083659
0.220596 -0.84601 0.066351
-0.219269 -0.827655 0.083695
-0.114261 -0.84601 0.044157
0.018561 -0.84601 -0.089084
-0.226923 -0.84601 -0.007729
0.175624 -0.84601 -0.064109
0.085584 -0.84601 -0.038941
-0.099615 -0.827655 0.100784
0.112217 -0.84601 0.040022
0.058517 -0.827655 0.055219
-0.068411 -0.827655 -0.045959
0.323812 -0.827655 -0.094444
-0.029603 -0.84601 0.003603
-0.288439 -0.84601 -0.025144
0.202276 -0.84601 -0.02745
-0.325828 -0.827655 -0.009866
-0.113584 -0.827655 -0.042789
-0.174444 -0.827655 0.115721
0.348538 -0.827655 0.053553
-0.271969 -0.84601 -0.11185
-0.255309 -0.84601 0.062108
0.249554 -0.827655 0.041892
-0.373008 -0.84601 -0.075473
0.274798 -0.827655 0.076359
-0.378392 -0.827655 -0.031142
-0.158398 -0.827655 0.044853
0.051226 -0.84601 -0.018718
0.304187 -0.84601 0.007083
-0.183002 -0.84601 -0.04727
-0.244934 -0.84601 -0.073862
-0.160404 -0.827655 0.00761
-0.20631 -0.827655 -0.101198
-0.109131 -0.827655 -0.006194
0.28494 -0.827655 -0.017394
-0.356162 -0.84601 0.076567
-0.294515 -0.84601 0.045232
0.158662 -0.84601 0.056097
0.326799 -0.84601 -0.040591
-0.039298 -0.84601 -0.055304
-0.03995 -0.827655 0.038455
0.210649 -0.84601 0.007015
0.093749 -0.827655 0.063713
-0.30286 -0.827655 0.111327
0.095639 -0.827655 -0.093668
-0.190967 -0.84601 0.074976
-0.124139 -0.84601 -0.085066
-0.311677 -0.827655 -0.10467
0.025374 -0.827655 0.036605
0.166303 -0.827655 -0.036599
-0.234692 -0.84601 0.034945
0.122199 -0.827655 -0.116174
-0.081129 -0.84601 0.041735
0.165175 -0.84601 0.009541
-0.164415 -0.84601 -0.118969
0.219116 -0.84601 -0.10912
0.303219 -0.839247 -0.122877
-0.332333 -0.827655 0.022317
-0.253866 -0.827655 -0.042233
-0.017865 -0.827655 -0.020808
0.307974 -0.84601 0.071056
-0.132798 -0.827655 0.099137
0.122227 -0.84601 0.009053
-0.072937 -0.84601 0.103505
0.18782 -0.827655 -0.004493
0.105598 -0.827655 -0.0235
0.166277 -0.827655 -0.088171
-0.367295 -0.827655 0.099216
-0.105665 -0.827655 0.06784
-0.136905 -0.84601 -0.056715
-0.012917 -0.827655 0.022196
-0.39086 -0.839656 0.025933
-0.010692 -0.827655 -0.106447
0.138485 -0.827655 -0.056513
0.22794 -0.84601 0.031849
-0.317127 -0.827655 0.068958
-0.282312 -0.84601 0.004044
-0.051077 -0.84601 -0.016907
0.088808 -0.84601 -0.068421
0.342722 -0.827655 0.082623
-0.216792 -0.827655 -0.028614
-0.046945 -0.84601 0.0894
-0.069265 -0.827655 -0.076312
-0.174715 -0.827655 -0.017762
-0.321209 -0.84601 0.098195
-0.218403 -0.827655 0.050551
0.275928 -0.827655 0.02645
-0.138447 -0.84601 0.010667
-0.336539 -0.84601 -0.073572
0.3568 -0.827655 -0.006448
0.051862 -0.827655 0.026631
0.271383 -0.836031 0.11666
-0.250115 -0.83375 0.11666
-0.244694 -0.84601 -0.104087
-0.254751 -0.827655 6.5e-05
-0.186641 -0.827655 0.054404
-0.355746 -0.84601 -0.038564
0.257495 -0.84601 0.066131
-0.210117 -0.827655 0.003184
0.028296 -0.84601 0.114879
0.304976 -0.84601 -0.0884
-0.299417 -0.843324 -0.122877
0.032982 -0.84601 -0.119829
0.266653 -0.84601 0.006461
-0.175327 -0.84601 0.031358
0.223689 -0.827655 -0.009953
0.327473 -0.84601 -0.067026
0.171867 -0.84601 -0.015978
-0.280425 -0.84601 0.070141
0.063057 -0.84601 0.073501
-0.340679 -0.827655 0.086908
-0.131109 -0.827655 0.073088
0.308402 -0.827655 0.046114
0.033903 -0.827655 -0.024508
-0.19332 -0.827655 0.098192
0.099206 -0.827655 0.01861
0.229843 -0.827655 0.096132
-0.385639 -0.827655 -0.106528
0.002044 -0.827655 0.00171
-0.29304 -0.827655 -0.087516
0.205055 -0.84601 0.095996
-0.025037 -0.84601 0.047471
-0.236503 -0.84601 0.081829
-0.271536 -0.827655 -0.021747
0.185898 -0.84601 0.047333
-0.106246 -0.84601 -0.022752
-0.138595 -0.84601 0.039401
0.052343 -0.84601 0.006047
0.194428 -0.827655 -0.041848
0.05694 -0.83274 -0.122877
0.369784 -0.837428 -0.086353
-0.340646 -0.84601 -0.015745
-0.052924 -0.84601 0.010325
0.327466 -0.84601 -0.016369
-0.210691 -0.84601 0.035595
-0.387275 -0.827655 -0.053209
-0.328669 -0.84601 -0.043373
-0.121751 -0.84601 0.084844
-0.387695 -0.832236 0.11666
0.305556 -0.84601 0.111936
-0.221757 -0.84601 -0.078317
-0.383505 -0.827655 0.055826
0.351336 -0.84601 -0.025293
-0.019296 -0.84601 -0.084001
-0.332321 -0.84601 0.007914
0.163389 -0.827655 0.02527
-0.265998 -0.84601 -0.04893
0.077513 -0.84601 0.021746
0.124186 -0.827655 -0.093388
0.369784 -0.844625 0.026258
-0.20979 -0.84601 0.061002
-0.138051 -0.827655 -0.015386
-0.100575 -0.827655 -0.102056
-0.377845 -0.84601 0.043161
0.099123 -0.84601 0.108244
0.124441 -0.827655 0.041559
0.206852 -0.827655 -0.110216
-0.305818 -0.827655 0.040698
-0.353101 -0.827655 -0.100567
-0.058953 -0.827655 0.091244
-0.178982 -0.84601 0.093372
-0.060214 -0.827655 -0.024716
0.135423 -0.84601 -0.097532
0.211198 -0.84601 0.045892
0.221218 -0.827655 0.012306
-0.353494 -0.84601 0.102888
-0.174161 -0.827655 -0.039617
0.198108 -0.827655 0.048441
-0.155249 -0.84601 -0.094597
0.297609 -0.827655 0.076013
0.078067 -0.84601 0.057964
-0.221151 -0.84601 0.108185
0.260686 -0.84601 0.0432
-0.22359 -0.84601 -0.100469
-0.146229 -0.827655 -0.062529
-0.363022 -0.827655 -0.079964
-0.198387 -0.827655 -0.039432
-0.250926 -0.84601 0.099262
-0.099059 -0.84601 -0.002374
-0.073605 -0.84601 -0.03655
-0.351041 -0.84601 0.052758
0.090154 -0.827655 -0.058093
-0.121103 -0.828164 -0.122877
-0.111615 -0.835574 0.11666
0.084017 -0.827655 0.105429
-0.267216 -0.84601 -0.012578
0.161879 -0.84601 -0.112527
-0.011376 -0.827655 0.043
0.358128 -0.827655 0.035115
0.05849 -0.84601 0.045491
0.221837 -0.84601 -0.056327
-0.386816 -0.84601 -0.034763
-0.070855 -0.84601 0.063374
0.113153 -0.827655 0.070185
-0.352544 -0.827655 0.024961
0.226471 -0.827655 0.040588
-0.299179 -0.84601 0.103432
-0.044479 -0.827655 0.008515
0.032851 -0.84601 -0.010296
-0.272287 -0.84601 0.051172
0.070727 -0.827655 0.076794
-0.1146 -0.84601 0.024072
-0.230703 -0.827655 -0.043073
0.277104 -0.84601 -0.015703
0.14403 -0.84601 0.042594
0.18801 -0.84601 -0.106692
-0.470183 0.863757 0.201348
-0.423813 0.848513 0.199246
-0.461405 0.840829 0.153256
-0.454919 0.853412 0.179455
-0.453785 0.819863 0.161169
0.023548 -0.867425 -0.148196
-0.288403 -0.867425 -0.144757
-0.133376 -0.856227 -0.122877
0.198886 -0.867425 -0.159689
0.291592 -0.867425 -0.135082
0.106039 -0.856994 -0.160138
-0.068227 -0.867425 -0.150351
-0.225424 -0.852353 -0.122877
0.347694 -0.859835 -0.160138
-0.017052 -0.824596 -0.147812
-0.178421 -0.830914 -0.160138
0.141194 -0.824596 -0.143757
-0.349096 -0.858171 -0.160138
0.244438 -0.86381 -0.122877
0.301652 -0.824596 -0.154626
-0.245158 -0.841228 -0.160138
0.030444 -0.824596 -0.135752
-0.114143 -0.850076 -0.160138
0.369784 -0.851661 -0.125326
0.059949 -0.854174 -0.160138
0.146895 -0.85868 -0.122877
-0.039439 -0.865654 -0.122877
0.33494 -0.867425 -0.123099
-0.101226 -0.836426 -0.122877
0.208278 -0.826851 -0.160138
-0.021136 -0.859631 -0.160138
-0.001926 -0.858364 -0.122877
0.146226 -0.857406 -0.160138
0.198631 -0.867425 -0.12329
-0.142455 -0.824596 -0.137922
-0.082233 -0.835076 -0.160138
-0.383107 -0.854098 -0.160138
0.269059 -0.867425 -0.16002
0.106859 -0.824596 -0.151396
-0.32486 -0.862045 -0.122877
-0.256852 -0.867425 -0.130582
-0.036255 -0.831424 -0.122877
0.3107 -0.863654 -0.160138
0.341594 -0.836651 -0.122877
-0.219967 -0.824596 -0.151467
0.094031 -0.839654 -0.122877
-0.195009 -0.849784 -0.122877
0.063062 -0.867425 -0.124976
0.274776 -0.824596 -0.144382
-0.184667 -0.858979 -0.160138
-0.345748 -0.824596 -0.132675
-0.324602 -0.844606 -0.160138
-0.239512 -0.824596 -0.132818
0.085208 -0.867425 -0.146995
0.165269 -0.867425 -0.140139
-0.107197 -0.861936 -0.122877
0.272574 -0.854399 -0.122877
-0.374299 -0.866621 -0.122877
0.160517 -0.827856 -0.122877
-0.303656 -0.829814 -0.160138
0.125975 -0.867425 -0.149452
0.11461 -0.852544 -0.122877
-0.177658 -0.824596 -0.137179
0.311315 -0.861155 -0.122877
0.041103 -0.842004 -0.160138
0.229425 -0.867425 -0.138664
0.248483 -0.867425 -0.15218
0.013922 -0.836601 -0.122877
0.089123 -0.832835 -0.160138
-0.231558 -0.857622 -0.160138
0.369784 -0.83527 -0.143467
0.348989 -0.824596 -0.148581
0.310662 -0.843007 -0.160138
0.191945 -0.824596 -0.142095
0.255532 -0.843405 -0.122877
-0.366135 -0.843442 -0.160138
0.078942 -0.826594 -0.122877
0.144529 -0.835212 -0.160138
-0.289609 -0.860483 -0.122877
-0.146387 -0.838994 -0.122877
0.2918 -0.206634 -0.158141
0.196754 -0.21316 -0.160138
0.048764 -0.216305 -0.160138
-0.351437 -0.235375 -0.160138
-0.258796 -0.216008 -0.160138
0.339786 -0.231491 -0.160138
-0.320338 -0.237899 -0.122877
0.135894 -0.216696 -0.160138
0.074639 -0.249463 -0.155758
0.325285 -0.206634 -0.131046
0.342369 -0.243969 -0.122877
0.11514 -0.22604 -0.122877
0.306008 -0.239591 -0.160138
-0.200213 -0.249463 -0.156484
-0.319965 -0.220848 -0.160138
0.273064 -0.234601 -0.160138
0.209727 -0.242614 -0.160138
-0.256721 -0.249463 -0.125326
0.032642 -0.249463 -0.158311
0.162356 -0.239961 -0.160138
-0.299533 -0.249463 -0.15324
-0.285409 -0.220076 -0.160138
0.293514 -0.206634 -0.136162
-0.39086 -0.206641 -0.148544
0.350052 -0.249463 -0.157024
0.259639 -0.249463 -0.139632
-0.236133 -0.249463 -0.12406
0.419435 -0.221812 -0.155998
-0.440395 -0.229716 -0.160138
-0.426837 -0.247718 -0.129274
0.40576 -0.223287 -0.131262
-0.426837 0.141939 -0.135856
-0.426837 -0.756426 -0.158483
-0.426837 -0.187898 -0.156725
-0.423148 0.406132 -0.160138
-0.39086 -0.372762 -0.158637
-0.418208 -0.515853 -0.160138
-0.426182 -0.016416 -0.160138
-0.401909 -0.883855 -0.160138
-0.426837 -0.641026 -0.142085
-0.426837 0.529584 -0.157371
-0.424745 0.257076 -0.160138
-0.426837 -0.289621 -0.1367
-0.400592 -0.581262 -0.160138
-0.419171 -0.452028 -0.160138
-0.409334 -0.807361 -0.122877
-0.39086 0.009167 -0.125151
-0.426837 0.3578 -0.13383
-0.426837 -0.34195 -0.144816
-0.425075 0.082187 -0.160138
-0.40466 -0.713502 -0.160138
-0.417842 0.031563 -0.160138
-0.414785 0.652499 -0.160138
-0.401174 -0.146494 -0.122877
-0.408924 -0.045554 -0.122877
-0.426837 -0.842747 -0.146325
-0.401311 -0.249156 -0.160138
-0.39086 0.374051 -0.156905
-0.39086 0.553336 -0.132563
-0.39325 -0.672685 -0.122877
-0.407185 0.39343 -0.122877
-0.39086 -0.310536 -0.140479
-0.426837 0.449858 -0.152565
-0.426837 0.187719 -0.147404
-0.404928 -0.792645 -0.160138
-0.426837 -0.482659 -0.12413
-0.408698 0.22041 -0.160138
-0.426837 -0.681704 -0.141259
-0.426837 -0.084423 -0.138891
-0.423606 0.595503 -0.160138
-0.39086 -0.898049 -0.127046
-0.39086 -0.774896 -0.124592
-0.426837 -0.591344 -0.133277
-0.391909 -9.1e-05 -0.160138
-0.392782 -0.178138 -0.160138
-0.4147 -0.049796 -0.160138
-0.395209 -0.625506 -0.160138
-0.396109 -0.680707 -0.160138
-0.393261 -0.283069 -0.160138
-0.421745 -0.154606 -0.160138
-0.426837 -0.421335 -0.148158
-0.422353 -0.002821 -0.122877
-0.395015 -0.379589 -0.122877
-0.426837 0.285087 -0.142051
-0.402957 -0.480282 -0.160138
-0.426837 -0.780998 -0.129467
-0.426837 -0.735389 -0.128162
-0.416407 -0.31025 -0.160138
-0.426837 0.327197 -0.126705
-0.410609 0.556159 -0.160138
-0.42317 -0.366239 -0.122877
-0.39086 -0.070075 -0.13196
-0.415122 -0.32297 -0.122877
-0.39086 0.344601 -0.150686
-0.39086 0.648893 -0.142664
-0.422281 -0.706191 -0.122877
-0.426837 -0.18116 -0.127968
-0.426837 0.107125 -0.144535
-0.416812 -0.910254 -0.128617
-0.39086 -0.018425 -0.132571
-0.39086 -0.125159 -0.142374
-0.397459 -0.644861 -0.122877
-0.39086 -0.655801 -0.148321
-0.418584 -0.622967 -0.122877
-0.426837 0.055472 -0.1515
-0.423162 0.361573 -0.160138
-0.426837 -0.804847 -0.142395
-0.39086 0.090921 -0.145437
-0.423249 -0.829298 -0.122877
-0.420427 -0.506794 -0.122877
-0.425763 -0.658103 -0.160138
-0.39086 0.028784 -0.140352
-0.39086 -0.029904 -0.153642
-0.423905 -0.626729 -0.160138
-0.414518 0.277803 -0.160138
-0.39086 0.132266 -0.154076
-0.419904 0.005663 -0.160138
-0.401932 -0.539918 -0.160138
-0.42477 -0.494239 -0.160138
-0.39086 -0.511524 -0.143786
-0.39086 0.273606 -0.142057
-0.39086 0.535002 -0.145384
-0.426837 -0.039418 -0.144592
-0.419117 -0.649016 -0.122877
-0.426837 -0.218074 -0.143499
-0.39086 -0.39451 -0.159223
-0.426837 0.567859 -0.151936
-0.420628 -0.343435 -0.122877
-0.420663 0.091336 -0.122877
-0.401657 0.044831 -0.160138
-0.426837 0.114958 -0.12528
-0.4264 0.401323 -0.122877
-0.421451 -0.421109 -0.122877
-0.426837 0.514853 -0.143311
-0.39086 -0.154277 -0.149255
-0.409239 -0.173058 -0.122877
-0.426837 0.376002 -0.125699
-0.39086 0.229121 -0.159253
0.40576 0.26148 -0.151465
0.393887 -0.645618 -0.160138
0.376901 -0.387057 -0.160138
0.40576 0.525738 -0.155414
0.40576 -0.048312 -0.156595
0.370169 0.411901 -0.160138
0.40576 -0.748462 -0.152656
0.369866 0.337287 -0.122877
0.40576 -0.467435 -0.146093
0.40576 -0.837268 -0.145405
0.376973 0.051613 -0.160138
0.39285 0.184492 -0.160138
0.369784 -0.184439 -0.154753
0.40576 0.465371 -0.157264
0.403698 -0.529136 -0.160138
0.40576 0.008735 -0.141803
0.369784 -0.909954 -0.139996
0.390167 -0.790955 -0.122877
0.403951 0.350246 -0.160138
0.400067 -0.413953 -0.122877
0.375906 0.301623 -0.160138
0.40576 -0.574345 -0.128459
0.393893 0.102145 -0.160138
0.369784 0.223758 -0.153859
0.40576 -0.117555 -0.157505
0.40576 -0.706364 -0.141267
0.369784 -0.428912 -0.154052
0.37334 0.198975 -0.122877
0.369784 -0.674926 -0.140644
0.40576 -0.178797 -0.145088
0.369784 -0.784523 -0.156926
0.374413 -0.250856 -0.160138
0.40576 0.21141 -0.139682
0.370951 -0.567979 -0.122877
0.383519 -0.145182 -0.160138
0.40576 0.338643 -0.126907
0.39017 -0.016622 -0.160138
0.369784 -0.22409 -0.135964
0.405107 0.536004 -0.122877
0.371801 0.363728 -0.160138
0.37113 -0.519114 -0.160138
0.382328 -0.721206 -0.160138
0.375783 -0.877039 -0.160138
0.383161 0.494662 -0.122877
0.389522 -0.557771 -0.160138
0.383726 -0.822016 -0.122877
0.394627 -0.48503 -0.122877
0.40576 -0.436661 -0.149605
0.386578 -0.071184 -0.160138
0.39996 -0.729394 -0.122877
0.369784 -0.447953 -0.129555
0.405108 0.289794 -0.160138
0.40238 -0.401164 -0.160138
0.40576 -0.251833 -0.153165
0.370031 -0.473393 -0.160138
0.385057 0.327419 -0.160138
0.395808 0.031933 -0.160138
0.377357 -0.597868 -0.160138
0.391006 0.075301 -0.160138
0.396108 -0.672383 -0.160138
0.398062 -0.860379 -0.160138
0.39597 0.418548 -0.160138
0.369784 -0.608435 -0.130974
0.402392 0.276979 -0.122877
0.369784 0.255094 -0.130224
0.399312 0.246617 -0.122877
0.369784 -0.11517 -0.151807
0.369784 -0.776758 -0.123658
0.40576 0.064532 -0.137259
0.401575 -0.851932 -0.122877
0.369784 0.172467 -0.135551
0.40576 0.488752 -0.155365
0.382062 -0.42999 -0.122877
0.369784 -0.644556 -0.137298
0.391503 -0.477487 -0.160138
0.40576 0.569927 -0.14897
0.369784 -0.5714 -0.143696
0.372506 -0.162987 -0.160138
0.40576 -0.81836 -0.154223
0.369784 -0.213014 -0.152912
0.387511 -0.866374 -0.122877
0.383358 -0.458342 -0.160138
0.371779 0.383705 -0.160138
0.369784 -0.373515 -0.146938
0.369784 0.282239 -0.12905
0.369784 -0.509437 -0.136616
0.369784 0.235552 -0.137333
0.399751 -0.910254 0.150454
0.40576 -0.742853 0.148786
0.40576 -0.541357 0.125818
0.399359 -0.836581 0.153921
0.400484 -0.692031 0.11666
0.370961 -0.801107 0.11666
0.39039 -0.611203 0.153921
0.37839 -0.667838 0.153921
0.373037 -0.909511 0.11666
0.369784 -0.709432 0.14415
0.40576 -0.578747 0.118112
0.38523 -0.726584 0.11666
0.404583 -0.799217 0.11666
0.374201 -0.743747 0.153921
0.383497 -0.764797 0.11666
0.369784 -0.685712 0.12338
0.40576 -0.864731 0.127738
0.400761 -0.48147 0.153921
0.40576 -0.660291 0.122632
0.377495 -0.893625 0.153921
0.369784 -0.624227 0.142485
0.370963 -0.589846 0.153921
0.381323 -0.555259 0.11666
0.369784 -0.547678 0.151792
0.374993 -0.62294 0.11666
0.401022 -0.746658 0.11666
0.369784 -0.747819 0.129569
0.399176 -0.65403 0.153921
0.377553 -0.440355 0.11666
0.369784 -0.868026 0.150158
0.40576 -0.58866 0.137109
0.369784 -0.886759 0.133142
0.379313 -0.519219 0.153921
0.404173 -0.890269 0.153921
0.380648 -0.910254 0.135939
-0.425922 -0.327202 0.153921
-0.426837 -0.704671 0.146425
-0.417047 -0.519162 0.153921
-0.425582 -0.818277 0.153921
-0.42268 -0.449945 0.11666
-0.426837 -0.597143 0.153735
-0.39086 -0.334619 0.125085
-0.419637 -0.79505 0.11666
-0.426837 -0.749562 0.149501
-0.39086 -0.901937 0.117345
-0.39086 -0.659282 0.134121
-0.421925 -0.317025 0.11666
-0.426837 -0.369497 0.133475
-0.426837 -0.281947 0.147429
-0.399428 -0.729656 0.153921
-0.417247 -0.66729 0.153921
-0.39086 -0.535541 0.122941
-0.409403 -0.631415 0.153921
-0.409844 -0.569069 0.153921
-0.426837 -0.744986 0.11964
-0.399568 -0.473665 0.11666
-0.426837 -0.406291 0.119263
-0.412188 -0.883454 0.11666
-0.426837 -0.578969 0.133174
-0.39086 -0.906587 0.14409
-0.426837 -0.649549 0.132618
-0.426837 -0.291306 0.119165
-0.392346 -0.704443 0.153921
-0.390873 -0.586802 0.153921
-0.39086 -0.728859 0.11885
-0.426837 -0.502477 0.126633
-0.39086 -0.793727 0.128032
-0.426837 -0.795616 0.144366
-0.409582 -0.367948 0.11666
-0.426837 -0.527771 0.131394
-0.390951 -0.589499 0.11666
-0.405135 -0.537806 0.153921
-0.401397 -0.302336 0.11666
-0.426837 -0.454376 0.137036
-0.426837 -0.501666 0.148297
-0.410795 -0.86657 0.153921
-0.426837 -0.728976 0.14773
-0.408697 -0.910254 0.135253
-0.426837 -0.349677 0.132152
-0.426837 -0.834495 -0.007463
-0.39086 -0.85884 0.112541
-0.39086 -0.865992 -0.044739
-0.410939 -0.824596 -0.057572
-0.39086 -0.846475 -0.12274
-0.39086 -0.846948 0.067083
-0.42034 -0.867425 -0.122031
-0.411336 -0.830486 0.11666
-0.39086 -0.866837 -0.005079
-0.426837 -0.827201 0.022588
-0.39086 -0.866685 -0.078138
-0.414702 -0.867425 -0.020807
-0.426837 -0.846635 -0.065596
-0.422044 -0.867425 0.059736
-0.404882 -0.867425 -0.104634
-0.39086 -0.866618 0.01653
-0.402091 -0.824596 0.049511
-0.047625 -0.866158 0.11666
-0.204846 -0.866543 0.11666
0.048119 -0.842502 0.153921
-0.338294 -0.827133 0.11666
-0.105948 -0.852808 0.153921
0.191274 -0.867347 0.11666
-0.235602 -0.838739 0.153921
0.010089 -0.867425 0.123862
0.291936 -0.867425 0.122121
-0.158608 -0.867425 0.122317
0.369784 -0.867016 0.125664
0.24135 -0.867425 0.137764
0.105026 -0.865959 0.11666
-0.257052 -0.867425 0.141148
-0.350864 -0.862661 0.11666
-0.30287 -0.824596 0.148519
-0.32688 -0.855952 0.153921
0.137679 -0.867425 0.126289
-0.077557 -0.867425 0.145639
0.05422 -0.853809 0.11666
0.016013 -0.858322 0.153921
0.180376 -0.867425 0.149574
0.322085 -0.862209 0.11666
-0.234278 -0.860838 0.11666
-0.178206 -0.828044 0.153921
0.281102 -0.860282 0.153921
0.369784 -0.846303 0.153209
-0.290826 -0.867425 0.148771
-0.133998 -0.857621 0.11666
0.042223 -0.867425 0.147215
-0.124676 -0.824596 0.128943
-0.183261 -0.852824 0.11666
-0.39086 -0.830033 0.146999
0.222015 -0.847533 0.11666
-0.071993 -0.867425 0.121429
-0.15042 -0.833371 0.11666
-0.008317 -0.867425 0.14798
-0.124223 -0.867425 0.146987
0.346082 -0.867425 0.130376
0.130096 -0.834179 0.153921
-0.084024 -0.843092 0.153921
-0.213231 -0.867425 0.138806
-0.281515 -0.865621 0.11666
0.235595 -0.851918 0.153921
0.343623 -0.839272 0.153921
-0.321969 -0.859688 0.11666
0.265622 -0.867425 0.13866
-0.091502 -0.848143 0.11666
-0.39086 -0.854137 0.141869
0.082804 -0.867425 0.118753
0.276272 -0.83848 0.153921
0.067196 -0.837115 0.11666
0.064729 -0.865847 0.153921
-0.362265 -0.867425 0.133269
0.317705 -0.847749 0.153921
-0.27511 -0.855732 0.153921
-0.093659 -0.867425 0.133354
0.369784 -0.851687 0.085711
0.369784 -0.859824 -0.020756
0.384057 -0.824596 0.000988
0.397419 -0.824596 0.039951
0.399153 -0.833301 0.11666
0.37155 -0.867425 0.026538
0.369784 -0.865342 -0.094994
0.369784 -0.853341 0.056487
0.37275 -0.838903 0.11666
0.375032 -0.824596 -0.044821
0.404496 -0.824596 0.083926
0.40576 -0.866911 -0.005502
0.377459 -0.867425 -0.06033
0.40576 -0.829238 0.005659
0.40576 -0.84546 -0.070813
0.40576 -0.850951 0.05652
0.421678 -0.910254 -0.123007
0.413215 -0.910254 0.02104
0.422587 -0.852775 -0.01674
0.40576 -0.907918 -0.059945
0.422587 -0.87409 0.086072
0.413718 -0.849069 -0.091975
0.40576 -0.863382 0.041116
0.415421 -0.873316 0.163927
0.40576 -0.900256 -0.158749
0.40576 -0.901497 0.059354
0.40576 -0.853876 -0.052762
0.40576 -0.875777 -0.12165
0.40576 -0.891746 0.112799
0.422587 -0.89186 -0.092238
0.422587 -0.870007 -0.15592
0.422587 -0.87284 0.017223
0.40576 -0.850808 0.014805
0.422587 -0.90143 -0.039202
0.422587 -0.890668 0.041658
0.40576 -0.907089 -0.10346
0.40576 -0.868856 0.102965
0.42112 -0.910254 -0.077634
0.40576 -0.891446 0.028404
0.422587 -0.863532 0.146256
0.422587 -0.906681 -0.148066
0.40576 -0.8898 -0.137182
0.40576 -0.88481 -0.102099
0.407212 -0.910254 0.121787
0.422587 -0.857629 -0.041667
0.422587 -0.849176 0.003262
-0.090047 -0.909922 0.171349
-0.245465 -0.891826 0.171349
0.258912 -0.899154 0.171349
0.055579 -0.906269 0.153921
-0.335668 -0.896461 0.153921
-0.16814 -0.84987 0.171349
0.3303 -0.863953 0.153921
0.129196 -0.890098 0.153921
-0.012396 -0.873616 0.171349
0.197144 -0.882994 0.171349
-0.295408 -0.852641 0.171349
-0.155139 -0.900131 0.153921
-0.057433 -0.849069 0.16689
0.257414 -0.850701 0.171349
0.35084 -0.90742 0.153921
0.148452 -0.849069 0.169641
-0.380661 -0.876948 0.153921
0.297571 -0.906623 0.153921
-0.04089 -0.900268 0.153921
0.090175 -0.878286 0.153921
-0.196892 -0.880364 0.153921
0.360842 -0.872482 0.171349
-0.401836 -0.849069 0.160731
0.298601 -0.876108 0.171349
0.041241 -0.880532 0.171349
-0.206235 -0.849069 0.165922
-0.304251 -0.905518 0.153921
-0.144759 -0.874849 0.171349
0.073056 -0.858196 0.171349
-0.37613 -0.902471 0.171349
0.114726 -0.861131 0.153921
-0.267038 -0.901886 0.153921
-0.311475 -0.876386 0.171349
0.007859 -0.893628 0.171349
0.091917 -0.900201 0.171349
0.152009 -0.876553 0.171349
-0.087273 -0.867629 0.171349
0.241269 -0.872239 0.171349
0.3905 -0.86867 0.171349
-0.113853 -0.899235 0.171349
-0.178001 -0.876878 0.171349
-0.044013 -0.866636 0.153921
-0.062661 -0.887551 0.153921
0.416158 -0.849069 0.165087
-0.034883 -0.849587 0.171349
0.392815 -0.904631 0.171349
-0.238416 -0.868353 0.153921
0.264922 -0.886098 0.153921
0.036086 -0.850142 0.171349
-0.209303 -0.875868 0.171349
0.317693 -0.860295 0.171349
-0.126419 -0.849069 0.160337
0.044328 -0.901483 0.171349
-0.394583 -0.893073 0.171349
0.132774 -0.862459 0.171349
-0.14813 -0.854069 0.171349
0.370137 -0.901209 0.171349
-0.370233 -0.875734 0.171349
-0.032735 -0.873157 0.171349
0.081724 -0.853918 0.153921
0.289189 -0.903379 0.171349
-0.431743 -0.908531 0.159002
-0.426837 -0.90655 -0.038092
-0.443664 -0.879974 0.057851
-0.430704 -0.849069 -0.09125
-0.429066 -0.910254 0.102297
-0.443664 -0.903174 -0.090599
-0.443664 -0.862979 0.104214
-0.443664 -0.897754 -0.139755
-0.442902 -0.858772 0.170559
-0.443664 -0.868489 -0.046875
-0.426837 -0.884194 -0.00417
-0.433833 -0.849069 0.042172
-0.426837 -0.864056 0.139534
-0.426837 -0.898734 0.036549
-0.443664 -0.851343 0.073996
-0.443664 -0.907768 -0.007732
-0.443664 -0.869738 -0.075796
-0.443061 -0.849069 -0.02403
-0.443664 -0.858349 -0.13303
-0.443664 -0.884795 0.165756
-0.426837 -0.889656 0.138029
-0.426837 -0.889231 -0.102358
-0.443664 -0.876688 0.081064
-0.426837 -0.850412 0.094245
-0.443664 -0.868727 -0.112765
-0.443664 -0.905798 -0.052767
-0.426837 -0.89043 -0.124657
-0.430256 -0.910254 0.12446
-0.440531 -0.849069 0.137834
-0.426837 -0.895326 -0.08346
0.14943957000075728 -0.530305 0.15008634907663018
0.15582030879562916 -0.81526 0.14951801076926682
0.030437451860964415 -0.394336 0.16166383387440839
0.23663037149921884 -0.672635 0.14237640542859575
0.3070416269094993 -0.511731 0.13604858806806425
0.022813254413729833 -0.546606 0.17739729307083374
0.10104516240043782 -0.654587 0.15439688373188395
0.32115176518114397 -0.394744 0.13479178499873717
0.23082038513616457 -0.574304 0.14283768458607324
0.058431867501560264 -0.743621 0.15819248933063806
0.12051612911640383 -0.427253 0.15809601270310736
0.15853057889566763 -0.728059 0.14927660450415042
0.3337745322804062 -0.696299 0.13922136452255016
0.3399706352897129 -0.589529 0.14914779174980874
0.023446746432702392 -0.467107 0.1773408673506522
0.25417865528054284 -0.438777 0.1485428437304132
0.24854820110106157 -0.765879 0.14125865161784767
0.1762354855579917 -0.465896 0.14769961208869872
0.031510696895074686 -0.6141 0.17127853018249622
0.15823773824538784 -0.619356 0.14930268809178152
0.22847965204719345 -0.506412 0.1430461758477504
0.11417671799693191 -0.769259 0.163208604086967
0.33468674809000815 -0.451279 0.14946281882927398
0.18146179471451573 -0.404903 0.14723409989720085
0.2854242097903759 -0.581522 0.13797407140941717
0.2818443822492005 -0.641391 0.1382929299602545
0.08512817739543421 -0.591103 0.15581462431128862
0.04305175702206959 -0.666063 0.1595624099993857
0.3471727486774339 -0.644521 0.13247407192637375
0.06863347954293991 -0.447507 0.15728382230846893
0.10467290167070559 -0.292292 0.15610376269272364
0.28191809044008725 -0.70119 0.1382863647035038
0.19670544543520255 -0.764756 0.14587633382541054
0.0801980653657487 -0.386157 0.16270519434393105
0.3408182794849105 -0.541985 0.14907229129717586
0.054701635408710536 -0.513715 0.1585247445540342
0.11302287107803405 -0.472513 0.16040993685277322
-0.008353250341361529 -0.633338 0.17941934928935654
0.12905327888076923 -0.694843 0.15190217488630947
0.33887758903277376 -0.740934 0.13321292946988328
0.24618482641794975 -0.616546 0.14221610506696475
0.19959600178592346 -0.538712 0.1456188692971607
0.28676290990594067 -0.465302 0.137854832151675
0.2694807344722926 -0.386112 0.14518099105526233
-0.003928874085289968 -0.503606 0.1797792391957309
0.12451026457489808 -0.377508 0.15230682537333481
-0.008600689545113727 -0.376725 0.17664134733823295
0.28502678319356756 -0.741349 0.13800947056405938
0.018578021607642492 -0.691838 0.17777452917494066
0.19552013804121293 -0.588814 0.14598191025153642
0.3692149479053901 -0.572256 0.13159804042289414
0.22810130772348342 -0.411035 0.1488526394507291
0.12025735083598904 -0.509473 0.1633737836152999
0.026191165036435926 -0.433472 0.16174789458958183
0.15884856904837072 -0.780138 0.15993642810788722
0.23965167133628726 -0.707628 0.15273922103510593
0.12307792986896962 -0.618505 0.15571433873210436
0.1160619602952459 -0.54345 0.163747470931974
0.2213688037398893 -0.798323 0.14367954568481986
-0.008974110702730409 -0.60077 0.17244894496739063
0.27585148161467554 -0.797824 0.15485894408510392
0.1882110744638214 -0.800544 0.14663293530608407
0.05014168814006803 -0.48123 0.15893090327571846
0.19790668973532985 -0.731996 0.14576933788431154
0.026511443102246346 -0.582325 0.1653436590368949
0.3026559895517377 -0.42119 0.13643922084473
0.07727427083946092 -0.718572 0.15651417903397985
0.11351132035328143 -0.573299 0.1557381793349315
0.2734097746758356 -0.670735 0.1390442082597788
0.2936606020936534 -0.770599 0.13724044832737103
0.1829299821924491 -0.495142 0.14710332708030205
0.2175628713428856 -0.608669 0.14401854360433833
0.06037617005035667 -0.407796 0.1580193085039173
0.20310012902294491 -0.426423 0.1453067534424457
0.004842028500358531 -0.413797 0.1629657858671293
0.3459121131091651 -0.406514 0.14861857882389204
0.2531898250136596 -0.549719 0.14084521788192617
0.026660314735052426 -0.642104 0.16701504206808365
0.05951059683575416 -0.603794 0.1580964059108949
0.23688632779280977 -0.6446 0.1452500288165454
0.01632494150242858 -0.363953 0.17797521310426567
0.1288152213453377 -0.748241 0.15192337889122048
0.05387237705303455 -0.355031 0.16688829664507435
0.08007418603652383 -0.637068 0.15626478799713964
0.30897995311849413 -0.447542 0.1358759395594584
0.15559719210970172 -0.691299 0.1495378839788905
0.33453122248076556 -0.61541 0.14771673155056486
0.33373797976984837 -0.565984 0.138810989189505
-0.005990087390092935 -0.692495 0.16393061245042254
0.31157069642250007 -0.579411 0.1356451796566404
0.23725291753461825 -0.530049 0.14936573482660015
0.27880740557333966 -0.552566 0.13856343628231987
0.16509957239429082 -0.424772 0.1486914981761671
0.19733993351080875 -0.36917 0.14581981938554314
0.12826141385705347 -0.720059 0.15197270703653643
0.12339288475363086 -0.671564 0.15925033978140116
0.09071406299668955 -0.772148 0.15531708431320967
-0.004802415752961309 -0.532291 0.1798570463601951
0.26349602300156777 -0.729535 0.13992723529274595
0.29859207848663044 -0.659279 0.1368011971628759
