-0.164221 -0.958733 -0.127369
-0.052682 -0.958733 -0.245925
0.063386 -0.937996 -0.144613
-0.173125 -0.958733 0.092977
-0.09705 -0.937996 -0.023656
-0.003039 -0.937996 -0.035214
0.153634 -0.937996 -0.170852
0.156676 -0.958733 0.0489
-0.023922 -0.958733 0.182781
-0.093115 -0.937996 -0.177536
0.115452 -0.958733 0.172581
0.074432 -0.937996 -0.064514
0.019197 -0.937996 -0.214376
-0.163175 -0.937996 0.017841
-0.234868 -0.945105 0.138349
0.007857 -0.937996 0.045578
0.140794 -0.937996 -0.022577
0.164433 -0.958733 -0.24039
0.108326 -0.937996 0.096283
-0.173762 -0.958733 0.174579
-0.114053 -0.958733 0.125346
0.203914 -0.958733 -0.011917
-0.114807 -0.958733 -0.08478
-0.226749 -0.958733 -0.162811
0.023345 -0.958733 -0.097273
0.169662 -0.937996 0.196249
-0.044596 -0.958733 0.005991
-0.035811 -0.958733 -0.186858
-0.172697 -0.958733 -0.040563
0.100962 -0.958733 -0.197599
-0.147467 -0.958733 -0.192698
-0.039713 -0.937996 0.128019
0.124331 -0.958733 -0.118986
-0.102199 -0.937996 0.034433
0.055779 -0.937996 0.074212
-0.215365 -0.958733 -0.081016
-0.064633 -0.958733 -0.062394
0.015147 -0.958733 -0.167681
0.003479 -0.958733 0.11117
-0.205046 -0.958733 0.036556
0.123157 -0.958733 -0.064712
0.20453 -0.937996 -0.176997
-0.098056 -0.937996 -0.126063
0.067503 -0.937996 0.18437
0.156333 -0.937996 0.095732
-0.141764 -0.958733 0.057095
-0.161457 -0.937996 0.133585
0.179139 -0.958733 -0.139913
0.054 -0.958733 -0.03024
0.193117 -0.937996 0.026251
-0.081888 -0.937996 0.148495
0.139941 -0.937996 0.141783
0.107835 -0.937996 0.027777
0.02322 -0.937996 0.192178
-0.219249 -0.958733 0.093271
0.214892 -0.958733 0.196522
-0.128055 -0.958733 -0.152203
-0.190779 -0.937996 -0.175889
-2e-05 -0.958733 0.008369
-0.024276 -0.937996 0.078444
0.064273 -0.937996 -0.188639
0.206374 -0.937996 -0.10155
-0.005685 -0.937996 -0.122195
-0.195401 -0.937996 -0.223447
-0.16699 -0.937996 -0.09078
0.192516 -0.937996 -0.046749
-0.04716 -0.937996 -0.030204
-0.200963 -0.937996 0.19859
0.188415 -0.958733 0.075896
0.094031 -0.937996 0.143589
-0.031637 -0.937996 -0.079717
0.069726 -0.958733 -0.099888
0.197785 -0.937996 0.165275
-0.141763 -0.937996 -0.057527
0.135398 -0.937996 -0.21439
0.217056 -0.958733 0.105691
-0.231615 -0.958733 0.176418
0.089428 -0.958733 0.057026
0.033828 -0.947585 -0.250556
-0.063124 -0.958733 0.191089
-0.106062 -0.937996 0.07424
-0.080042 -0.937996 0.108863
0.107637 -0.958733 -0.027917
-0.117541 -0.958733 0.004562
0.008252 -0.958733 0.15033
-0.073914 -0.958733 -0.20471
-0.074649 -0.958733 -0.14993
-0.050622 -0.937996 0.045578
-0.12576 -0.937996 0.169144
0.069394 -0.958733 0.103553
-0.198519 -0.937996 -0.018036
-0.1934 -0.958733 0.13774
-0.143115 -0.958733 0.217464
-0.078756 -0.937996 -0.090912
-0.195117 -0.937996 -0.132007
-0.084225 -0.937996 0.216869
0.034442 -0.958733 -0.133443
0.183024 -0.958733 -0.198994
0.113996 -0.958733 -0.244805
0.036874 -0.937996 0.023857
0.038281 -0.937996 -0.071787
-0.135921 -0.937996 -0.109098
0.089617 -0.958733 -0.132361
0.154378 -0.937996 -0.107537
-0.230654 -0.958733 -0.113039
0.125213 -0.958733 -0.167911
-0.210943 -0.954377 -0.250556
0.150291 -0.958733 0.16866
0.02892 -0.958733 0.082798
-0.072583 -0.937996 0.009127
0.032652 -0.937996 -0.012151
0.084932 -0.958733 -0.166885
0.007568 -0.958733 -0.066544
0.061913 -0.937996 -0.228727
-0.030663 -0.958733 -0.052044
-0.16813 -0.958733 -0.222532
0.133825 -0.958733 0.111113
-0.040529 -0.958733 -0.151373
-0.156248 -0.937996 -0.167169
0.137223 -0.937996 0.067615
0.169998 -0.958733 -0.010726
-0.141617 -0.958733 -0.02712
-0.196224 -0.937996 -0.053226
0.131651 -0.958733 0.002372
-0.026101 -0.958733 0.034165
-0.192776 -0.937996 0.111409
-0.125939 -0.958733 -0.241118
0.231726 -0.954099 0.135275
0.13557 -0.958733 0.199156
-0.169936 -0.958733 -0.007524
0.07837 -0.937996 -0.021721
-0.031445 -0.958733 0.224806
-0.171467 -0.958733 0.042882
-0.203648 -0.937996 0.160996
-0.197724 -0.958733 0.068569
-0.141267 -0.937996 0.107823
-0.114793 -0.958733 -0.192124
-0.154508 -0.937996 0.190462
0.080762 -0.937996 0.213763
-0.06131 -0.937996 -0.172512
0.070706 -0.958733 0.135667
0.191968 -0.937996 0.219243
0.104928 -0.937996 -0.10422
-0.093477 -0.958733 -0.048583
-0.165974 -0.937996 0.069919
-0.002653 -0.937996 -0.191384
-0.015369 -0.937996 0.1605
-0.006022 -0.937996 -0.153673
-0.234868 -0.956896 -0.193083
-0.049319 -0.937996 0.17207
-0.096286 -0.958733 0.166725
0.041359 -0.937996 0.106692
0.047894 -0.937996 -0.114915
-0.138909 -0.937996 -0.003598
-0.196428 -0.937996 -0.09986
-0.066721 -0.937996 -0.128588
-0.137124 -0.958733 0.145723
0.035365 -0.958733 -0.198481
-0.079778 -0.958733 0.037712
0.140301 -0.937996 -0.143202
-0.007378 -0.937996 0.130741
0.053247 -0.958733 0.160581
0.185724 -0.937996 0.103367
-0.03487 -0.958733 0.149423
-0.033546 -0.937996 0.202486
0.162741 -0.937996 -0.065686
0.21353 -0.958733 -0.081077
-0.018041 -0.937996 -0.00306
0.09065 -0.958733 0.188955
0.152449 -0.958733 -0.040203
0.199808 -0.937996 -0.139034
0.002767 -0.958733 0.194978
0.035238 -0.958733 0.044428
0.11029 -0.937996 -0.048317
0.21513 -0.937996 0.06158
-0.040918 -0.958733 0.096366
0.120815 -0.937996 -0.1892
-0.20484 -0.958733 0.00118
-0.024596 -0.953438 -0.250556
0.108144 -0.937996 0.064569
0.09645 -0.958733 -0.086094
0.071534 -0.958733 -0.246268
0.110855 -0.937996 -0.008265
0.216408 -0.958733 0.03446
-0.033367 -0.937996 -0.132913
-0.145022 -0.937996 -0.136205
-0.134998 -0.958733 0.188057
0.075582 -0.958733 -0.215232
-0.234868 -0.939279 -0.247619
-0.193396 -0.958733 -0.15106
-0.218098 -0.937996 0.017995
-0.072057 -0.937996 -0.227243
0.128627 -0.958733 0.046728
0.013835 -0.958733 -0.234227
-0.030039 -0.958733 -0.022124
0.015728 -0.958733 -0.037554
-0.125183 -0.937996 -0.170724
0.188461 -0.958733 -0.108115
0.054884 -0.958733 -0.063465
0.178003 -0.958733 0.171033
0.227465 -0.958733 0.167342
-0.105974 -0.937996 -0.062217
0.225429 -0.958733 -0.106169
0.132935 -0.937996 0.178458
0.156502 -0.958733 -0.190969
0.039661 -0.958733 0.200178
-0.034198 -0.958733 -0.225186
-0.173994 -0.937996 0.21006
-0.085559 -0.958733 0.091592
-0.088476 -0.958733 -0.007908
0.005904 -0.937996 -0.093385
-0.098743 -0.937996 -0.211715
0.173765 -0.937996 0.152486
-0.146822 -0.937996 0.040422
0.212444 -0.937996 0.003231
-0.074653 -0.958733 0.125162
-0.075867 -0.937996 0.066356
0.194708 -0.958733 -0.223118
0.187015 -0.937996 -0.010406
-0.119123 -0.958733 0.034153
-0.099221 -0.937996 0.006492
-0.131168 -0.937996 0.204491
0.029867 -0.958733 0.173385
-0.230164 -0.958733 -0.052809
-0.161069 -0.937996 -0.207116
0.031114 -0.958733 0.129008
0.093126 -0.958733 0.089908
-0.015023 -0.958733 -0.170472
-0.223903 -0.958733 0.055126
0.067533 -0.937996 0.152501
-0.057826 -0.937996 0.215626
0.110636 -0.937996 -0.075168
-0.212647 -0.958733 0.11974
-0.099342 -0.958733 -0.162553
0.216037 -0.937996 0.089611
0.162183 -0.958733 0.213422
-0.070672 -0.937996 -0.041735
0.027152 -0.937996 -0.178132
-0.114938 -0.958733 0.087244
-0.00801 -0.937996 0.207541
0.096794 -0.937996 -0.177159
0.141901 -0.937996 0.038361
0.051482 -0.958733 -0.154765
-0.014598 -0.937996 -0.060167
0.03686 -0.937996 -0.148712
-0.211074 -0.958733 0.212616
0.220316 -0.937996 0.180884
-0.085633 -0.958733 -0.244283
0.205234 -0.958733 0.152001
-0.152105 -0.958733 -0.09346
-0.011396 -0.958733 -0.108194
-0.197721 -0.937996 0.049783
-0.144383 -0.958733 0.093054
-0.061657 -0.958733 -0.026118
0.089352 -0.958733 -0.006287
0.150479 -0.958733 -0.218956
-0.159899 -0.937996 -0.018503
-0.053409 -0.937996 -0.104297
-0.163444 -0.958733 -0.154261
0.146411 -0.958733 0.084784
0.174066 -0.937996 -0.155677
0.041675 -0.958733 -0.000492
0.186445 -0.937996 0.061294
0.118926 -0.937996 0.157266
0.101106 -0.937996 0.175598
-0.028503 -0.937996 0.019942
0.18912 -0.958733 0.193706
0.077927 -0.937996 0.115015
0.19966 -0.937996 -0.07734
-0.183183 -0.958733 -0.110905
0.162342 -0.958733 -0.119228
-0.204735 -0.958733 -0.174729
-0.149526 -0.958733 0.02054
0.10344 -0.937996 -0.132657
0.121331 -0.937996 0.11754
0.199657 -0.958733 -0.164136
-0.136693 -0.958733 -0.125394
-0.175972 -0.937996 -0.24984
0.073546 -0.958733 -0.045203
0.128446 -0.958733 0.135003
0.139523 -0.958733 -0.240836
-0.101253 -0.937996 0.126646
-0.022997 -0.937996 0.102752
0.171509 -0.958733 -0.056435
0.195612 -0.937996 -0.200752
-0.222913 -0.937996 -0.183654
-0.112226 -0.937996 -0.103884
-0.037095 -0.937996 -0.171726
0.063259 -0.958733 0.034928
0.196363 -0.958733 -0.034764
-0.115332 -0.958733 -0.219538
0.081665 -0.958733 0.157059
-0.058665 -0.937996 -0.077764
-0.02047 -0.958733 -0.138423
-0.231382 -0.937996 -0.210532
0.197532 -0.958733 0.015513
-0.200552 -0.937996 0.089022
-0.002948 -0.958733 -0.022981
0.128354 -0.958733 -0.095653
0.041543 -0.937996 0.217039
-0.055337 -0.937996 -0.195392
0.170929 -0.958733 0.113638
0.026457 -0.958733 0.019463
-0.173072 -0.937996 -0.148416
-0.064399 -0.937996 -0.014132
0.045778 -0.937996 0.048017
-0.101131 -0.937996 0.187152
-0.174899 -0.958733 0.116423
-0.124217 -0.937996 0.024333
0.04984 -0.937996 -0.168239
0.204912 -0.937996 -0.227026
-0.161717 -0.937996 -0.116778
0.156024 -0.958733 -0.143607
0.214467 -0.937996 0.116221
-0.042341 -0.958733 -0.080807
-0.197776 -0.958733 -0.04272
-0.136917 -0.937996 -0.192442
0.204897 -0.937996 0.141516
0.228347 -0.937996 -0.173
0.071533 -0.958733 0.080453
-0.048339 -0.958733 0.122385
0.044593 -0.937996 0.16599
0.079393 -0.937996 0.05883
0.163846 -0.937996 -0.021574
-0.06424 -0.937996 0.12566
-0.053652 -0.937996 0.081837
0.022265 -0.937996 0.138834
-0.214365 -0.937996 0.130731
0.162613 -0.958733 0.188114
-0.224779 -0.937996 -0.0133
0.1743 -0.937996 -0.234421
0.058294 -0.958733 -0.132929
0.110856 -0.958733 -0.222245
-0.042775 -0.958733 0.201138
-0.125742 -0.937996 -0.022064
-0.148326 -0.937996 0.167686
0.003519 -0.937996 0.023395
0.012189 -0.958733 -0.209282
0.14806 -0.937996 -0.192665
0.216092 -0.958733 0.081117
-0.208949 -0.937996 -0.149613
-0.079326 -0.937996 -0.195099
0.096732 -0.937996 -0.214161
0.006062 -0.958733 0.089038
-0.05707 -0.937996 0.151198
-0.216787 -0.958733 -0.142927
0.086504 -0.958733 0.219143
0.219729 -0.937996 -0.148759
0.140079 -0.937996 -0.000424
-0.091108 -0.958733 -0.122477
-0.01618 -0.937996 0.182964
0.218739 -0.937996 -0.06336
-0.123123 -0.937996 0.129674
-0.080465 -0.958733 0.059777
-0.231776 -0.937996 -0.034238
0.190246 -0.937996 0.185942
0.159915 -0.937996 -0.043207
-0.105133 -0.958733 -0.104463
0.188946 -0.937996 0.12505
0.150539 -0.937996 0.210753
-0.139179 -0.958733 -0.051035
0.113407 -0.937996 0.213282
-0.075167 -0.937996 0.042786
-0.167572 -0.958733 0.211168
-0.116275 -0.958733 -0.063104
0.150163 -0.937996 0.122628
-0.187966 -0.937996 0.140995
0.047641 -0.958733 0.106077
-0.084302 -0.937996 -0.062069
0.074352 -0.937996 -0.104156
-0.030336 -0.958733 0.055388
0.149141 -0.958733 -0.164101
-0.020441 -0.937996 0.225418
0.04474 -0.937996 0.192955
-0.144193 -0.958733 -0.00172
0.058697 -0.937996 -0.013213
0.120729 -0.958733 0.066616
0.03525 -0.937996 0.080244
-0.186831 -0.937996 -0.08074
-0.112492 -0.958733 0.152787
-0.233748 -0.958733 0.155172
-0.141424 -0.937996 0.140834
-0.187921 -0.958733 0.158686
-0.023776 -0.937996 -0.040974
-0.079629 -0.958733 0.215924
0.072971 -0.958733 -0.074623
0.231726 -0.943012 -0.009077
0.212026 -0.958733 0.128814
0.06767 -0.958733 0.17989
-0.062568 -0.958733 -0.128361
0.054545 -0.937996 -0.057504
-0.009617 -0.958733 -0.052019
-0.011115 -0.958733 0.15856
0.031463 -0.958733 -0.018885
-0.050168 -0.937996 0.001356
-0.215614 -0.937996 -0.10847
0.074495 -0.958733 -0.14697
0.196604 -0.958733 -0.128417
0.151793 -0.937996 0.166888
-0.215019 -0.937996 -0.079075
-0.230699 -0.937996 -0.149784
0.109098 -0.958733 0.026733
0.217598 -0.937996 0.023354
0.143169 -0.958733 -0.059149
-0.196118 -0.937996 0.002574
-0.210389 -0.937996 -0.209107
0.159645 -0.941376 -0.250556
0.227072 -0.937996 -0.119106
0.120682 -0.958733 -0.043851
-0.030564 -0.937996 0.050126
0.135664 -0.958733 -0.141103
-0.170633 -0.937996 0.151949
-0.192311 -0.958733 0.100156
0.091376 -0.937996 0.039958
-0.234868 -0.953847 -0.00188
0.138611 -0.937996 -0.094568
0.017808 -0.958733 -0.145203
-0.230672 -0.937996 0.156933
-0.082443 -0.937996 0.085475
-0.035274 -0.937996 -0.194026
-0.234868 -0.943339 -0.087196
0.168392 -0.958733 0.076858
-0.162147 -0.937996 -0.038295
-0.053032 -0.937996 -0.221372
-0.021526 -0.958733 0.07319
0.088673 -0.958733 -0.105834
-0.150802 -0.958733 -0.21304
0.025367 -0.958733 -0.075114
0.02261 -0.94994 0.226407
-0.093274 -0.958733 0.147225
0.119376 -0.937996 0.043758
-0.102381 -0.937996 0.206814
0.035813 -0.958733 -0.112521
-0.010873 -0.937996 -0.083077
-0.125353 -0.954224 0.226407
-0.158053 -0.958733 0.067903
-0.112384 -0.937996 0.154939
0.020213 -0.937996 0.060618
0.129891 -0.958733 0.21777
0.18482 -0.940565 -0.250556
0.045563 -0.958733 0.022222
0.108191 -0.941317 -0.250556
0.149341 -0.937996 -0.126075
0.012928 -0.937996 -0.150608
0.15202 -0.958733 -0.021028
-0.161185 -0.958733 0.189058
-0.130495 -0.958733 -0.095807
-0.126693 -0.958733 -0.171292
0.021178 -0.958733 0.103933
0.036745 -0.937996 -0.221889
-0.212846 -0.958733 0.018505
0.004371 -0.958733 0.026936
-0.131965 -0.958733 0.118798
0.137339 -0.958733 0.029766
-0.003851 -0.958733 -0.147477
-0.097396 -0.958733 -0.229604
0.042123 -0.958733 -0.180942
-0.092565 -0.958733 0.024049
0.057894 -0.958733 0.204234
0.119431 -0.958733 -0.011691
-0.089204 -0.937996 -0.043143
0.18103 -0.958733 -0.249568
-0.22382 -0.958733 -0.235818
0.017902 -0.937996 0.210608
-0.047383 -0.937996 0.027373
-0.234868 -0.957704 0.103902
-0.182816 -0.937996 0.038876
-0.229531 -0.958733 0.073654
0.073577 -0.937996 -0.085708
-0.234868 -0.945367 0.016037
0.118714 -0.937996 0.012925
0.121845 -0.937996 -0.132946
-0.07375 -0.940561 -0.250556
-0.010069 -0.958733 0.043131
-0.057153 -0.937996 0.188666
-0.174549 -0.937996 0.109472
-0.016008 -0.937996 0.062088
-0.100936 -0.958733 -0.021328
-0.133974 -0.937996 -0.090894
0.201881 -0.958733 -0.052186
-0.225915 -0.937996 0.051317
-0.156144 -0.958733 -0.111135
-0.103402 -0.958733 0.101222
0.195901 -0.958733 0.092323
-0.067928 -0.958733 0.095386
0.046299 -0.937996 -0.190096
0.059344 -0.937996 0.105597
-0.208232 -0.937996 0.072771
0.052568 -0.958733 -0.105224
0.195603 -0.958733 -0.080596
0.090321 -0.937996 0.161292
0.18181 -0.958733 -0.162826
-0.100397 -0.958733 0.076814
-0.171699 -0.958733 -0.205055
0.018384 0.922338 -0.071429
0.224863 0.922338 -0.24644
0.17718 0.922338 0.137022
-0.161583 0.922338 -0.106717
-0.077799 0.9016 0.078278
0.029527 0.918222 -0.250556
0.192446 0.922338 -0.09683
0.076684 0.922338 0.049772
0.125483 0.9016 -0.1971
-0.044139 0.9016 -0.164133
-0.078861 0.9016 -0.03095
-0.116054 0.922338 0.185991
0.06473 0.9016 0.149853
0.115616 0.9016 -0.036612
-0.152903 0.922338 0.02601
-0.177834 0.922338 0.120879
0.048758 0.922338 -0.161422
-0.009616 0.922338 0.016158
0.161784 0.922338 0.041105
-0.025853 0.922338 0.153872
0.110783 0.922338 -0.11392
-0.214727 0.917733 -0.250556
-0.161387 0.922338 -0.187603
-0.002193 0.9016 0.086515
-0.043187 0.922338 -0.246317
-0.091977 0.9016 -0.102654
-0.182676 0.9016 -0.03309
0.183525 0.922338 -0.164947
0.169706 0.922338 0.20589
0.119753 0.9016 0.105973
-0.225001 0.9016 -0.109091
0.09425 0.919868 -0.250556
0.176936 0.9016 -0.018633
-0.176194 0.9016 0.190123
-0.101537 0.922338 -0.189048
0.04495 0.9016 0.003033
0.047862 0.922338 0.21246
0.129899 0.9016 0.166569
-0.105018 0.9016 0.131416
-0.057415 0.922338 0.206739
-0.127018 0.922338 -0.059338
-0.075508 0.922338 0.022635
-0.022851 0.9016 -0.038341
0.17133 0.922338 -0.240094
-0.200402 0.9016 0.059139
-0.002341 0.922338 -0.19069
-0.046454 0.922338 -0.084303
0.049619 0.9016 0.098068
0.023468 0.9016 -0.119888
0.061907 0.9016 -0.046921
-0.129178 0.9016 0.079894
0.062136 0.9016 -0.214679
-0.120935 0.922338 -0.138836
0.191803 0.9016 0.093286
0.013753 0.9016 0.174409
0.027776 0.922338 0.053217
0.151788 0.9016 -0.081049
0.114776 0.922338 0.020357
0.066371 0.922338 -0.08983
0.147146 0.9016 -0.136776
0.090464 0.9016 -0.152835
-0.19444 0.9016 0.013028
-0.06547 0.922338 0.119975
-0.19721 0.9016 -0.145838
0.200157 0.922338 0.016796
-0.198409 0.922338 -0.079092
-0.016114 0.922338 -0.126117
0.090317 0.9016 0.209575
0.204453 0.9016 -0.212848
-0.060867 0.922338 -0.128578
-0.131178 0.922338 -0.015343
-0.213094 0.922338 0.147369
0.197133 0.9016 0.178322
-0.042594 0.9016 0.042979
0.203407 0.9016 -0.052792
0.222665 0.922338 0.056222
-0.201407 0.9016 -0.203538
-0.152054 0.9016 0.146044
0.010602 0.922338 -0.019604
-0.113282 0.9016 0.014908
-0.065656 0.922338 0.160677
-0.051433 0.922338 -0.197811
-0.213396 0.922338 -0.017583
-0.001553 0.922338 0.122253
-0.027665 0.9016 0.190217
-0.151844 0.9016 -0.152378
0.128814 0.922338 0.207078
0.140652 0.9016 -0.003444
0.217891 0.922338 0.114023
0.093825 0.922338 0.164897
-0.170708 0.922338 0.072303
-0.034433 0.922338 0.089674
0.09066 0.922338 0.119779
-0.140238 0.922338 0.113699
0.014932 0.9016 -0.21863
0.107725 0.9016 -0.073731
0.169831 0.922338 -0.05492
0.105261 0.922338 0.074577
-0.234868 0.918742 -0.216249
-0.046815 0.9016 -0.009542
0.161267 0.922338 0.087489
0.000659 0.9016 -0.152025
-0.009204 0.9016 -0.084859
0.087624 0.922338 -0.004421
-0.220814 0.9016 0.210644
-0.089671 0.9016 -0.065518
-0.087405 0.922338 -0.237744
0.032924 0.922338 0.151763
-0.217601 0.9016 0.098028
0.211892 0.922338 0.20633
0.227033 0.922338 -0.160686
0.154107 0.922338 -0.190528
0.098511 0.922338 -0.208075
-0.16223 0.9016 -0.004028
-0.051793 0.922338 -0.040643
-0.129303 0.922338 -0.219906
-0.124927 0.922338 0.051782
0.112679 0.922338 -0.170468
-0.02253 0.9016 -0.216104
0.206114 0.9016 -0.124771
0.139909 0.922338 0.124909
-0.232096 0.9016 -0.144219
0.213484 0.922338 0.148192
0.057441 0.922338 -0.122945
-0.163458 0.9016 -0.061489
-0.209731 0.9016 -0.05353
-0.179558 0.921168 0.226407
0.055933 0.922338 0.124015
-0.122601 0.9016 -0.088415
-0.125394 0.922338 0.148178
-0.222429 0.9016 0.033975
0.049824 0.922338 -0.022624
-0.07838 0.9016 -0.177183
0.033216 0.922338 -0.190731
0.203276 0.922338 -0.025862
-0.081631 0.9016 -0.143493
0.148781 0.9016 -0.220304
-0.103745 0.9016 -0.21422
0.022917 0.922338 0.021026
0.139338 0.9016 0.029045
-0.015158 0.922338 0.048179
0.023116 0.9016 0.119535
0.208479 0.922338 -0.188397
-0.078026 0.907199 0.226407
-0.094694 0.922338 0.096238
0.053029 0.9016 0.056602
0.217235 0.922338 -0.076362
0.060968 0.911603 -0.250556
-0.072018 0.9016 0.184352
-0.169007 0.922338 0.163693
0.042043 0.9016 -0.090503
-0.221886 0.922338 0.07013
0.048064 0.9016 0.188706
-0.128327 0.9016 -0.173312
0.077814 0.9016 0.084135
0.026997 0.922338 0.091376
0.167276 0.9016 0.11562
-0.138929 0.922338 0.216678
-0.205923 0.9016 0.180404
-0.185878 0.922338 -0.221534
-0.021082 0.922338 -0.15997
0.158952 0.9016 0.155659
-0.192868 0.922338 -0.182129
0.143185 0.9016 -0.170276
0.144814 0.922338 -0.036668
-0.059049 0.9016 -0.105779
0.102343 0.9016 0.039538
-0.155562 0.9016 0.055315
-0.059035 0.9016 -0.063602
-0.094626 0.922338 0.046925
0.076693 0.922338 0.191563
-0.089175 0.922338 -0.010951
0.189192 0.9016 0.035902
0.066944 0.9016 -0.173823
-0.114353 0.9016 0.207925
0.040372 0.922338 -0.220076
-0.094449 0.922338 0.151814
0.172046 0.922338 0.006343
-0.025402 0.922338 -0.016893
-0.091431 0.922338 0.204325
0.127135 0.922338 -0.064502
0.10483 0.9016 -0.228258
-0.143034 0.9016 -0.116668
0.119638 0.9016 -0.148152
0.086198 0.922338 -0.130299
0.181628 0.9016 -0.185797
-0.019076 0.922338 -0.058691
-0.146854 0.9016 -0.209023
-0.18358 0.918969 -0.250556
0.019375 0.9016 -0.174385
-0.203641 0.9016 0.123574
-0.021535 0.9016 0.126275
-0.208861 0.922338 -0.121531
0.135299 0.922338 -0.092914
-0.048878 0.9016 0.149541
0.051924 0.922338 0.034858
0.000341 0.9016 0.033459
0.231726 0.902008 0.178005
0.208689 0.922338 0.083356
-0.097633 0.922338 -0.121397
0.022583 0.922338 -0.139438
-0.170838 0.922338 -0.14818
0.227818 0.9016 -0.10641
-0.227404 0.9016 -0.03106
0.123856 0.9016 0.069466
0.200193 0.9016 0.121677
-0.078685 0.922338 -0.205638
-0.108167 0.9016 -0.012805
0.152328 0.9016 0.183613
-0.005662 0.9016 -0.245959
0.183338 0.9016 -0.14609
-0.150475 0.9016 0.20177
0.070549 0.9016 0.032162
-0.201549 0.922338 0.030256
0.116365 0.922338 -0.018159
0.079498 0.9016 -0.102661
0.027683 0.9016 -0.026061
0.062138 0.922338 0.009103
-0.095077 0.922338 -0.082739
0.071561 0.9016 -0.012617
-0.158772 0.9016 -0.088958
-0.104226 0.9016 0.172506
0.100545 0.922338 -0.057375
0.060336 0.922338 0.080931
0.163335 0.922338 -0.129598
0.074211 0.922338 0.219164
0.006814 0.922338 -0.111711
0.031812 0.9016 -0.060403
0.223406 0.9016 0.073549
-0.012012 0.9016 0.220039
-0.090175 0.922338 -0.043957
-0.21573 0.922338 -0.149344
-0.1787 0.922338 0.006594
-0.200853 0.9016 -0.097482
-0.170246 0.922338 -0.04449
0.139498 0.9016 -0.111231
0.115458 0.9016 0.144184
0.152254 0.9016 0.218169
-0.190353 0.922338 0.198927
-0.141045 0.9016 0.014634
-0.07508 0.9016 0.146094
-0.041354 0.922338 0.175275
0.205409 0.9016 0.001452
0.189402 0.922338 -0.206909
0.080159 0.922338 -0.228494
-0.221685 0.9016 0.000609
0.107728 0.922338 0.19143
0.013615 0.9016 0.065577
0.100583 0.9016 0.005008
-0.044869 0.9016 -0.129308
0.164824 0.9016 0.056726
-0.139827 0.9016 -0.028483
-0.220546 0.922338 0.226341
-0.07463 0.922338 -0.104065
0.221686 0.922338 -0.126311
-0.039958 0.922338 0.115332
0.081797 0.922338 -0.169209
-0.001699 0.922338 0.172795
-0.040892 0.9016 0.015652
0.225217 0.9016 -0.14222
-0.199953 0.922338 -0.041693
0.21879 0.9016 -0.177058
-0.064137 0.922338 0.084796
0.077123 0.9016 0.113068
-0.136136 0.922338 -0.191721
-0.093395 0.9016 0.031002
-0.00786 0.922338 -0.218981
0.15857 0.9016 -0.247515
-0.049051 0.9016 0.090441
0.047289 0.922338 0.17269
0.207767 0.9016 0.053178
-0.158314 0.922338 0.09598
-0.123207 0.9016 0.104485
0.011867 0.9016 -0.00518
0.085994 0.9016 -0.200971
-0.152051 0.922338 -0.070183
0.137485 0.9016 -0.054617
0.21728 0.922338 -0.218656
-0.14478 0.922338 -0.041901
0.089637 0.922338 -0.081031
-0.047541 0.922338 0.030381
0.186653 0.922338 0.10577
-0.167177 0.9016 0.033463
0.042774 0.9016 -0.237132
-0.128655 0.922338 0.019785
-0.018032 0.9016 0.164702
-0.207181 0.9016 -0.168383
-0.165675 0.9016 0.084872
0.194797 0.9016 0.20636
-0.036639 0.9016 0.220146
-0.082901 0.9016 0.05328
0.152344 0.922338 -0.009539
-0.201386 0.922338 0.110621
-0.217543 0.922338 0.197927
-0.023103 0.9016 0.073813
0.069493 0.9016 -0.127461
0.215703 0.9016 0.098179
-0.159163 0.922338 0.192376
0.072973 0.9016 0.179393
0.199058 0.9016 0.15408
0.073566 0.922338 -0.051557
-0.058004 0.922338 -0.004153
-0.123459 0.9016 0.036816
0.127475 0.922338 0.146935
0.05286 0.9016 -0.149807
0.104457 0.9016 -0.129425
0.149205 0.9016 0.089667
-0.151253 0.9016 0.177713
0.162809 0.9016 -0.117397
0.034169 0.922338 -0.1142
0.135533 0.922338 -0.133358
0.223488 0.9016 0.127352
0.038731 0.9016 0.162292
0.175763 0.922338 0.061693
-0.013492 0.922338 0.193658
0.22835 0.9016 -0.072035
-0.190615 0.9016 0.218227
-0.051156 0.922338 -0.221691
0.041937 0.9016 -0.182805
-0.193361 0.9016 0.081906
0.185008 0.922338 -0.073288
-0.175732 0.922338 -0.086336
-0.073541 0.922338 -0.073019
-0.064372 0.904714 -0.250556
0.114215 0.922338 0.120366
-0.089719 0.922338 -0.168677
-0.102572 0.9016 -0.132734
-0.097061 0.922338 0.011162
0.024191 0.922338 -0.048688
0.029118 0.922338 -0.005194
-0.067902 0.9016 -0.204251
0.129175 0.922338 0.078937
-0.132373 0.922338 -0.117854
-0.167485 0.9016 0.222779
0.11882 0.9016 0.220526
-0.062791 0.9016 0.023361
0.162222 0.9016 0.009858
0.043223 0.922338 -0.080269
0.1903 0.922338 0.195389
0.030232 0.9016 0.04333
0.166171 0.9016 -0.167991
0.106837 0.922338 0.048535
-0.131022 0.922338 -0.094883
0.117516 0.9016 0.189689
0.046362 0.9016 0.126605
0.123739 0.9016 -0.090113
-0.170564 0.9016 -0.110378
-0.151425 0.922338 -0.13615
0.00573 0.922338 0.060307
-0.042705 0.922338 -0.14236
0.107815 0.9016 0.085628
-0.004018 0.922338 0.147661
-0.01161 0.922338 -0.098481
0.220511 0.9016 0.2095
0.055246 0.922338 0.147896
0.212217 0.922338 -0.046662
0.110639 0.9016 -0.180129
-0.178975 0.922338 0.14351
-0.191959 0.922338 0.061359
-0.001784 0.9016 -0.182129
0.120626 0.922338 -0.211296
0.112871 0.904073 -0.250556
0.018862 0.922338 0.112492
-0.150451 0.9016 -0.175975
-0.050962 0.922338 0.136875
-0.131641 0.9016 -0.065969
0.093675 0.9016 0.148709
0.081522 0.9016 -0.057334
-0.089432 0.922338 -0.142309
-0.114615 0.922338 0.105973
-0.014974 0.922338 0.070298
-0.030689 0.9016 -0.07963
-0.216663 0.9016 0.075721
0.221748 0.922338 0.012187
0.187794 0.914696 0.226407
0.105481 0.9016 0.124563
0.190318 0.922338 -0.143713
0.101498 0.9016 -0.1026
-0.007806 0.9016 -0.022311
0.198658 0.9016 -0.168235
0.170681 0.9016 -0.218663
-0.078293 0.9016 -0.085477
-0.030718 0.922338 0.010136
-0.064468 0.9016 0.205885
-0.119247 0.9016 -0.15341
-0.020327 0.9016 0.026726
0.101947 0.922338 0.096057
-0.060218 0.9016 0.123636
-0.186632 0.922338 0.176352
0.193145 0.922338 0.040916
-0.046669 0.9016 0.171845
-0.207281 0.9016 -0.017059
-0.171897 0.9016 0.119464
0.115154 0.9016 -0.012189
0.127019 0.922338 0.100435
-0.052744 0.922338 0.051287
-0.093972 0.922338 0.130295
0.018656 0.922338 -0.214253
0.006409 0.922338 0.034809
-0.1839 0.922338 0.089256
-0.183704 0.9016 -0.127366
0.026179 0.9016 0.085854
-0.07723 0.922338 0.182369
0.181132 0.922338 -0.036679
0.068677 0.922338 -0.142647
0.113886 0.922338 -0.092411
0.114471 0.922338 -0.147221
0.231726 0.914597 -0.188068
0.000997 0.9016 0.117789
0.144139 0.922338 -0.218112
-0.221855 0.922338 0.100507
-0.187506 0.9016 0.137478
-0.01152 0.9016 0.051219
0.196699 0.922338 0.124688
0.017088 0.922338 -0.092595
-0.025115 0.9016 -0.154854
0.070658 0.922338 -0.019043
0.207255 0.9016 -0.10152
-0.193326 0.9016 0.103037
0.21396 0.9016 -0.242658
0.022532 0.9016 0.193622
-0.164554 0.922338 0.043609
0.172321 0.9016 0.085249
-0.196846 0.922338 -0.202769
0.148668 0.922338 -0.057285
-0.048841 0.922338 -0.063571
0.16304 0.922338 0.121676
-0.136692 0.922338 0.069006
0.137986 0.9016 0.125885
0.015312 0.918059 0.226407
0.021416 0.9016 0.020149
-0.139764 0.9016 -0.230239
0.125664 0.922338 0.167571
-0.199958 0.922338 0.22304
0.091408 0.9016 0.068626
0.147857 0.922338 0.214961
-0.110772 0.922338 -0.043326
-0.214658 0.922338 -0.217895
0.18081 0.9016 0.19086
-0.209946 0.922338 0.051432
0.026676 0.9016 -0.201911
0.172752 0.9016 0.170652
0.19035 0.9016 0.015563
-0.186621 0.9016 -0.238283
0.203041 0.922338 0.061573
-0.008008 0.922338 -0.041626
0.072774 0.922338 -0.109595
-0.165534 0.9016 -0.189605
-0.169866 0.922338 -0.127729
0.054136 0.9016 -0.065633
0.194668 0.922338 -0.002627
0.212711 0.9016 0.033621
-0.086863 0.922338 0.077654
0.078365 0.922338 -0.207472
0.167687 0.922338 -0.152489
-0.226806 0.922338 -0.130398
-0.054066 0.9016 -0.028193
0.109376 0.922338 0.21171
0.036294 0.922338 0.189366
0.121913 0.922338 -0.045258
0.231726 0.902992 -0.220667
-0.046762 0.922338 -0.020464
0.231726 0.911256 0.14895
-0.230031 0.922338 0.157376
0.009909 0.922338 0.188677
-0.100117 0.9016 0.153347
0.151865 0.922338 -0.082494
0.083048 0.922338 0.14858
0.042157 0.922338 0.110164
-0.234868 0.902306 0.189996
0.074852 0.9016 -0.0837
0.058876 0.9016 -0.195438
0.135437 0.90953 -0.250556
0.128664 0.922338 0.033993
-0.05616 0.9016 -0.219731
0.190551 0.922338 0.151062
-0.021593 0.911601 -0.250556
-0.212364 0.9016 -0.072674
-0.201717 0.9016 0.199237
0.09137 0.9016 -0.179883
0.143494 0.9016 -0.189527
-0.008281 0.922338 -0.008097
-0.097347 0.9016 -0.180416
-0.13228 0.922338 0.198665
0.072577 0.9016 0.006495
-0.188652 0.922338 -0.163495
0.037971 0.922338 0.07577
0.154596 0.922338 0.194473
0.009126 0.922338 0.078923
-0.142016 0.922338 0.132536
-0.07673 0.922338 0.145194
-0.102455 0.9016 -0.05158
0.058734 0.922338 -0.215756
-0.022136 0.922338 0.109167
-0.021063 0.922338 0.176429
-0.205356 0.922338 -0.059714
-0.04839 0.922338 0.074528
-0.187178 0.9016 -0.215805
0.140922 0.9016 0.198497
0.019339 0.922338 0.164603
0.091128 0.9016 0.175022
-0.008948 0.9016 0.011951
-0.154648 0.920086 0.226407
-0.043025 0.922338 -0.102607
-0.053232 0.9016 -0.192843
-0.093003 0.922338 -0.101633
0.211092 0.9016 -0.083437
-0.068674 0.922338 -0.033205
-0.096055 0.9016 0.07567
-0.134064 0.9016 0.150063
-0.040188 0.922338 0.213072
0.057627 0.922338 -0.068964
0.093419 0.9016 -0.249681
-0.069929 0.922338 -0.232468
-0.216377 0.922338 0.120981
-0.117773 0.922338 0.034286
0.128325 0.922338 0.225164
-0.099172 0.922338 0.029433
0.074489 0.922338 0.111768
-0.116962 0.922338 0.006122
0.036552 0.902463 0.226407
-0.19084 0.9016 0.030609
0.125294 0.9016 -0.169156
0.088259 -0.933243 -0.250556
-0.106274 -0.853685 -0.250556
-0.218898 -0.848311 -0.250556
0.006292 -0.846708 -0.250556
-0.150604 -0.937996 -0.250543
0.186295 -0.889407 -0.235003
0.077365 -0.864672 -0.250556
-0.211253 -0.909672 -0.250556
0.151483 -0.84199 -0.250556
-0.011784 -0.910449 -0.250556
-0.050865 -0.834308 -0.242493
-0.09991 -0.937996 -0.238903
-0.165572 -0.836595 -0.250556
0.202966 -0.846742 -0.250556
0.211432 -0.927533 -0.250556
-0.123542 -0.899024 -0.250556
-0.031859 -0.869294 -0.250556
0.109634 -0.84097 -0.250556
0.173491 -0.921787 -0.250556
-0.040037 -0.926788 -0.235003
-0.197579 -0.872792 -0.235003
-0.070136 -0.922274 -0.250556
0.045826 -0.845523 -0.250556
-0.140454 -0.867062 -0.250556
0.175638 -0.856876 -0.235003
-0.172801 -0.902245 -0.250556
0.049271 -0.905064 -0.250556
0.162283 -0.891834 -0.250556
0.05401 -0.869407 -0.235003
0.231174 -0.853182 -0.250556
0.030075 -0.923642 -0.235003
0.089436 -0.900962 -0.250556
-0.192219 -0.850575 -0.250556
0.029025 -0.865986 -0.250556
-0.129323 -0.83623 -0.250556
-0.190917 -0.914577 -0.235003
-0.082313 -0.845237 -0.250556
0.207648 -0.898851 -0.250556
0.011612 -0.926804 -0.250556
-0.076805 -0.876562 -0.250556
0.230492 -0.93575 -0.235003
0.127267 -0.859671 -0.235003
-0.047801 -0.911352 -0.250556
0.135043 -0.919177 -0.250556
0.120729 -0.888753 -0.250556
-0.045023 -0.856974 -0.235003
-0.167361 -0.856918 -0.235003
0.064982 -0.937778 -0.250556
-0.151731 -0.916018 -0.250556
-0.137377 -0.892171 -0.235003
-0.204489 -0.933489 -0.250556
-0.011115 -0.863118 -0.250556
-0.102813 -0.890045 -0.250556
-0.084361 -0.901767 -0.250556
0.219627 -0.912083 -0.235003
-0.119484 -0.848161 -0.235003
-0.055715 -0.937996 -0.247946
-0.161494 -0.882971 -0.250556
0.120325 -0.937843 -0.235003
-0.069417 -0.839846 -0.235003
0.193101 -0.91347 -0.250556
-0.116466 -0.935322 -0.250556
-0.192158 -0.894336 -0.235003
0.053219 -0.889587 -0.235003
0.217914 -0.881892 -0.250556
0.18931 -0.877943 -0.250556
-0.123103 -0.879709 -0.250556
0.006512 -0.917037 -0.235003
-0.105479 -0.919104 -0.235003
-0.234868 -0.86437 -0.246602
0.004878 -0.8881 -0.250556
0.072216 -0.907891 -0.250556
0.101467 -0.915096 -0.250556
0.063251 -0.852877 -0.250556
-0.234868 -0.844303 -0.238974
0.150963 -0.910096 -0.250556
0.166546 -0.858753 -0.250556
0.03394 -0.858405 -0.235003
0.079806 -0.88242 -0.250556
0.018158 -0.008779 -0.250556
-0.10887 -0.011157 -0.235003
0.146432 -0.022948 -0.235003
0.075458 -0.06088 -0.235003
-0.148871 -0.067791 -0.250556
0.106837 0.031341 -0.235003
0.188175 0.014889 -0.250556
-0.014629 -0.070041 -0.249509
-0.019509 0.020511 -0.250556
-0.103151 0.032505 -0.250556
-0.069267 0.007658 -0.235003
0.148697 0.025294 -0.250556
-0.142387 -0.028613 -0.250556
-0.07073 -0.036107 -0.250556
-0.053174 -0.070041 -0.236705
0.070218 0.033646 -0.247727
0.229183 -0.02918 -0.235003
0.161231 -0.053058 -0.250556
0.116479 -0.001925 -0.250556
0.046557 -0.027674 -0.250556
0.113248 -0.051167 -0.250556
0.205289 -0.063062 -0.235003
-0.162586 0.027763 -0.250556
-0.223214 -0.058199 -0.235003
-0.195989 -0.020891 -0.250556
0.080309 -0.037689 -0.250556
-0.107729 -0.03675 -0.250556
0.04706 -0.06244 -0.250556
-0.079086 -0.016768 -0.235003
-0.111031 -0.065354 -0.250556
0.010005 0.017603 -0.250556
0.186998 -0.05244 -0.250556
0.040232 0.008578 -0.250556
-0.173108 -0.068036 -0.235003
-0.124661 0.019525 -0.250556
-0.035459 0.030165 -0.235003
-0.06522 0.02584 -0.250556
0.126084 0.033612 -0.250556
-0.154036 0.005446 -0.250556
0.080095 0.010558 -0.250556
0.09531 -0.068134 -0.250556
0.215837 -0.008274 -0.250556
-0.027771 -0.058106 -0.235003
-0.176064 -0.051749 -0.250556
0.026622 -0.070041 -0.246862
-0.068342 -0.058085 -0.250556
0.124287 -0.018015 -0.235003
-0.141255 0.033646 -0.248398
-0.203393 0.033646 -0.240702
0.10169 -0.023265 -0.250556
-0.066344 -0.010184 -0.250556
0.149099 -0.00898 -0.250556
0.133705 -0.056073 -0.250556
-0.036785 -0.068462 -0.250556
-0.049148 -0.049783 -0.235003
-0.081739 0.013115 -0.250556
0.071263 -0.018434 -0.250556
0.207147 -0.048736 -0.250556
-0.160419 -0.018984 -0.250556
-0.129348 -0.009287 -0.235003
-0.126911 -0.043515 -0.250556
0.008633 -0.049799 -0.250556
0.173538 0.02862 -0.250556
0.219363 -0.046685 -0.235003
-0.082418 0.027854 -0.235003
-0.231035 -0.049835 -0.250556
0.137353 0.009766 -0.250556
-0.05917 -0.032663 -0.235003
-0.006579 -0.031777 -0.250556
0.057917 -0.046852 -0.250556
-0.19617 0.003692 -0.250556
0.06185 0.012882 -0.235003
-0.200531 -0.062501 -0.250556
-0.098577 -0.010618 -0.250556
-0.121071 -0.015224 -0.250556
-0.191731 -0.042038 -0.250556
0.225309 0.01488 -0.250556
0.066899 -0.044898 -0.235003
-0.090137 -0.04064 -0.250556
0.156335 0.003923 -0.235003
0.231726 0.032035 -0.245863
-0.057124 0.022465 -0.235003
0.130828 0.799119 -0.250556
-0.116098 0.9016 -0.245371
-0.053687 0.83846 -0.235003
0.174289 0.869228 -0.250556
-0.113528 0.832224 -0.235003
-0.004254 0.814979 -0.235003
-0.078031 0.800085 -0.250556
-0.17329 0.797913 -0.248947
-0.210539 0.870522 -0.250556
0.046486 0.874055 -0.250556
0.130697 0.8906 -0.250556
0.083412 0.811744 -0.250556
-0.12985 0.865688 -0.250556
0.014091 0.849553 -0.250556
-0.210806 0.803376 -0.250556
0.18292 0.836333 -0.235003
-0.127661 0.803468 -0.250556
0.080174 0.882713 -0.250556
-0.084665 0.860678 -0.250556
-0.036509 0.873257 -0.250556
-0.148722 0.822123 -0.235003
-0.018916 0.836447 -0.250556
-0.102189 0.878094 -0.235003
0.05724 0.799412 -0.235003
-0.143256 0.89611 -0.250556
0.020063 0.876178 -0.235003
-0.041857 0.895173 -0.235003
-0.074712 0.830397 -0.250556
0.130046 0.829607 -0.250556
-0.167806 0.869739 -0.250556
-0.091913 0.894706 -0.250556
0.047068 0.842624 -0.250556
0.155993 0.803343 -0.250556
0.190711 0.818866 -0.250556
-0.173177 0.82092 -0.235003
0.004959 0.797913 -0.249811
-0.22835 0.850011 -0.250556
0.165314 0.841399 -0.250556
-0.035993 0.80826 -0.235003
0.059514 0.822458 -0.250556
0.075613 0.900114 -0.235003
-0.20119 0.842409 -0.250556
-0.229578 0.892929 -0.250556
-0.058448 0.812916 -0.250556
0.105924 0.87933 -0.235003
0.090889 0.84509 -0.250556
-0.19645 0.888672 -0.250556
-0.107269 0.858499 -0.250556
0.128028 0.874934 -0.235003
0.103164 0.826501 -0.250556
0.017149 0.834472 -0.235003
0.214107 0.87589 -0.250556
0.016085 0.9016 -0.243884
0.059683 0.881479 -0.235003
-0.128072 0.830932 -0.250556
-0.027349 0.892403 -0.250556
0.068157 0.856089 -0.250556
-0.146329 0.882199 -0.235003
0.113724 0.863797 -0.250556
-0.022173 0.823708 -0.235003
0.191367 0.844862 -0.250556
-0.067432 0.869962 -0.250556
-0.221121 0.797913 -0.235105
-0.06467 0.846831 -0.250556
-0.188355 0.854415 -0.235003
-0.034601 0.840062 -0.235003
-0.013049 0.803361 -0.250556
-0.146205 0.806455 -0.250556
0.040936 0.822228 -0.250556
0.174104 0.799528 -0.250556
-0.219866 0.833633 -0.250556
-0.027525 0.857343 -0.250556
0.156917 0.847978 -0.235003
0.027662 0.797913 -0.249537
0.231726 0.900072 -0.241556
0.23313186651513046 -0.5707900000000001 0.2334213690093699
0.2287452617514614 -0.04773499999999997 0.31957933000919486
0.15316194694584717 -0.6377380000000001 0.57169416775778
0.20172343197971127 -0.34893600000000013 0.43388168311177344
0.17045708673019766 0.12828799999999996 0.4985357180418396
0.19047279113189874 -0.880306 0.4814718993805984
0.24814210074877655 -0.28413699999999986 0.2300893178016181
0.2317202328529105 -0.7719200000000002 0.30699520080032455
0.15963901362370825 -0.4419740000000001 0.6118987932659294
0.12139732626416173 -0.768516 0.7060585287206061
0.1375584754399713 -0.244232 0.6376968598314017
0.20871165773228387 -0.6013169999999999 0.4043214847729415
0.21867439445621487 -0.20741300000000007 0.36217910357574723
0.2179300885784395 -0.4198660000000001 0.2977248970895891
0.21963100491478926 0.09914599999999996 0.35813264086980934
0.13476057091168192 -0.5883590000000001 0.7120404065604257
0.18337753967717632 -0.738823 0.4438821957798215
0.18235536068067656 -0.005221000000000031 0.4482060134331361
0.17486766371464438 -0.4858990000000001 0.4798789752483006
0.16820663591262358 -0.778262 0.5756577468087081
0.22207475582652014 -0.903888 0.34779557332231725
0.1276252499496962 -0.35761200000000004 0.7103535696479034
0.20408251895475255 0.24848000000000003 0.4239027440577362
0.1729883078152234 -0.331898 0.5554312723305423
0.16660952436778875 0.014236000000000026 0.582413529421652
0.19328257553078496 -0.22709800000000002 0.4695865100040666
0.2328634260632655 -0.657553 0.30215949296343053
0.20700112412009036 -0.10796500000000009 0.4115570427860844
0.13497346459039417 -0.857253 0.6486314569848212
0.21146065950313608 -0.311091 0.3250905852307563
0.24131900667509434 0.04153300000000004 0.26639238285488437
0.2129167866312311 -0.47165900000000005 0.38653378748118283
0.13224857419324287 -0.6814010000000001 0.6601577446926441
0.16695025069995534 -0.16122199999999998 0.5809722568705471
0.24076570024102234 -0.9546220000000001 0.2687328693406421
0.19381467052462353 -0.821367 0.39973312720897547
0.17930681422077582 -0.06699999999999995 0.5287039871559686
0.23620811169259556 0.15854499999999994 0.28801147112145725
0.17341185756371677 -0.540754 0.5536396566880143
0.18890604817305034 -0.6338059999999999 0.4880992228600205
0.19023577867912494 -0.9558599999999999 0.4148718414594732
0.2491759580389168 -0.05153300000000005 0.23315747475712476
0.15784377061876415 -0.244081 0.55189005133983
0.1655036016947808 0.10492100000000004 0.5870915828674056
0.18556596384462734 -0.399362 0.5022277811969147
0.14447680687481787 0.014256999999999964 0.6760349352024687
0.17083305847036415 -0.873353 0.564547978109577
0.23809096402375785 -0.19287999999999994 0.28004700484310335
0.2037652592572119 0.15522900000000006 0.42524475273293777
0.19996453925193278 -0.6940759999999999 0.37371917949554945
0.2270087307891431 -0.57297 0.32692485682603445
0.24937706014604327 -0.379861 0.23038127034417002
0.21737406681988433 0.01720299999999997 0.36767949011109136
0.21982679026838398 0.19745900000000005 0.3573044687286951
0.15365387146887116 -0.334141 0.6372159474975249
0.18706640261435326 0.07487100000000002 0.4282783037579341
0.16803772271327405 0.04887200000000003 0.5087696290124126
0.17247429704784561 -0.803186 0.4900029174151769
0.1640661098353593 -0.716561 0.5255695534214088
0.1465423308519898 -0.49528400000000006 0.6672977677724758
0.15531931233217564 -0.940507 0.6301711318341569
0.22971245520212197 -0.49238800000000005 0.3154881012415751
0.14700954750303905 -0.05704600000000004 0.5977188203989995
0.17310145436147564 -0.29969200000000007 0.4873500416729002
0.23792278647560539 -0.11100200000000005 0.2807583959537432
0.23915190775275583 -0.652407 0.22796397691265463
0.14799818245897842 0.17416200000000004 0.6611395147654593
0.13708412677251613 -0.42948699999999995 0.7073059756377506
0.23609998112128003 -0.854374 0.2884688634908153
0.22219991121119176 -0.13529199999999997 0.34726616598416665
0.19704731447686707 -0.4018459999999999 0.3860590417156774
0.19630213379497136 -0.2839050000000001 0.3892111563632322
0.19080362466711517 -0.555267 0.48007247336541353
0.180606911792061 -0.9380600000000001 0.5232045737958784
0.1377687548914232 -0.6155460000000001 0.6368073776492884
0.13529049422288947 -0.13142600000000004 0.6472904214848734
0.16052172774666357 -0.45149799999999995 0.5405622913838135
0.1408725624182695 -0.737736 0.6236782702982042
0.18425367282593846 -0.17313800000000001 0.5077787728454644
0.19038048959265147 -0.17697999999999992 0.41425971422473656
0.24945709752433717 -0.731581 0.2319682545967938
0.1359535871396555 -0.889181 0.7120881588356771
0.215401673730019 -0.24745499999999998 0.308420093130536
0.15071336466816387 -0.386196 0.5820516719856051
0.19279023633373127 -0.0921209999999999 0.4716691050475267
0.20084706876590375 -0.757196 0.3699860792213845
0.13561189509124646 -0.3946559999999999 0.6459308956551006
0.18491621470049174 -0.4405350000000001 0.4373735996813818
0.20844455221462999 -0.883859 0.4054513412427813
0.1870190092150107 -0.654487 0.42847877786024846
0.2221525178118492 -0.841766 0.34746664008648104
0.15673669762052939 0.15788199999999997 0.5565729706618534
0.2146296208938781 -0.5426820000000001 0.37928849771550044
0.16098190329342896 -0.5113210000000001 0.606218369308604
0.19916966452024099 -0.040802000000000005 0.37708149999795815
0.1470233968618212 -0.19007299999999994 0.6652628583164594
0.22275041140865848 0.099047 0.27733492916875924
0.23698665180606734 -0.34947700000000004 0.28471824606207924
0.1513221622342268 -0.793296 0.6470790786963417
0.24574890912335065 -0.440385 0.24765389334001334
0.2189099810626555 0.2574270000000001 0.36118257211569904
0.242409054859973 -0.520051 0.26178147850165356
0.2009918251354913 -0.5167570000000001 0.43697638041934495
0.16334191052865166 -0.290975 0.5962355375535509
0.22192912465281223 -0.36337299999999995 0.3484115932580697
0.16373067499923583 -0.598632 0.5269884429416727
0.22213107630657042 -0.605327 0.2799547169524016
0.22864357300141572 -0.7166459999999999 0.32000947347144226
0.18052339818059815 -0.010452000000000017 0.5235578364130634
0.14773448246094378 -0.8313190000000001 0.5946523451737926
0.21293169540311796 0.04468099999999997 0.3188681026569788
0.20517321187870624 -0.6188400000000001 0.3516864917460464
0.15344216617108614 -0.10863500000000004 0.5705088402984648
0.15719273199647849 -0.564975 0.6222465657412151
0.14521918132010836 -0.680652 0.6052920702252642
0.13656510003020159 -0.5334539999999999 0.7095014590106692
0.20363614731070828 -0.9542839999999999 0.3581882756177085
0.20559565675803387 -0.23785499999999993 0.4175021704124852
0.17563355025062177 -0.685282 0.47663927482789004
0.1402309564628433 -0.8180399999999999 0.6939948845141771
0.13954513256264844 -0.11095499999999991 0.6968959199462119
0.16752794402883464 -0.9335900000000001 0.5785286138078704
0.2028562722630254 -0.05236700000000005 0.42908976816130734
0.13966173008458097 0.03788999999999998 0.6288000916597605
0.2208431721826889 -0.008063000000000042 0.2854025520240322
0.1412736112483794 -0.31064899999999995 0.6895844542632606
0.1461394415015171 -0.206828 0.6013993692094509
0.17501380047450404 -0.8218130000000001 0.5468634373947373
0.13660163491635158 0.12623499999999999 0.6417442957125935
0.18122367072258916 0.20179999999999998 0.4529930625073324
0.14369868143537576 -0.893119 0.6117237854786417
0.22248496180238309 -0.43889599999999995 0.3460604018445185
0.19650831753166792 -0.835286 0.4559416197683872
0.14278743924679677 -0.727012 0.6831809610922479
0.24907342946680985 -0.16004799999999997 0.23030949005002013
0.174334372939518 -0.04456899999999997 0.4821347954869645
0.17823558591355498 -0.9519980000000001 0.46563266270567805
0.22252011629826096 -0.28876499999999994 0.2783090775979665
0.1534916756118979 -0.019187999999999983 0.637902036051562
0.13643258256407875 0.13754 0.7100620079569463
0.2056993706374267 0.14765800000000007 0.3494608399402552
0.1638169493912429 -0.13025900000000012 0.5266235022214402
0.2214940261959902 -0.9016739999999999 0.28264943923059827
0.20819240092492397 0.20113599999999998 0.4065179413211142
0.1879597906415168 -0.748756 0.4921018926795304
0.14688650815983667 -0.9075280000000001 0.6658418975925616
0.20197392735803876 -0.08848100000000003 0.36521946682752116
0.22340701704809363 -0.698879 0.2745574869939765
0.20473406316318993 0.029664000000000024 0.42114671173854035
0.15122295874361896 -0.588946 0.5798960887980985
0.20090302002798538 -0.2910870000000001 0.437352026067371
0.22000900178430288 -0.255703 0.35653371392756406
0.17600423049474517 0.088839 0.5426739179264684
0.13375411985002758 -0.4423490000000001 0.6537892858307737
0.1761433743911222 -0.353812 0.47448271846512957
0.16275749985739607 -0.661945 0.5311049742658952
0.21774511628197635 0.20487100000000003 0.29850732999376756
0.19761585065999338 -0.39351899999999995 0.4512567540958559
0.20836886081470912 0.11163800000000001 0.405771515901332
0.19955967022817395 -0.7839450000000001 0.44303439637520436
0.1793914327014044 -0.18099200000000004 0.4607434302298166
0.13088428847430444 0.071546 0.6659286739485872
0.19609576544929044 -0.33169000000000004 0.3900840945660284
0.2077032371824442 -0.7944260000000001 0.3409844834783218
0.18365407786168964 -0.59246 0.44271243912456965
0.22557491997044726 -0.810289 0.2653872565759744
0.1605523263976954 -0.289191 0.5404328590750377
0.13513335979691393 -0.070403 0.6479551001833236
0.15124624076926055 -0.28731299999999993 0.6474002265301464
0.15130049066390264 -0.7293880000000001 0.5795681287375163
0.19517739124430555 0.10554600000000003 0.46157143861250705
0.17537523266075233 -0.19801500000000005 0.5453345790707768
0.23715459928917446 -0.5607929999999999 0.28400782812669334
0.16087188674568959 -0.37427699999999997 0.5390811186472965
0.20408155323851013 -0.5047030000000001 0.35630420832605486
0.24432365616739388 -0.22943899999999995 0.2536827140382541
0.18784176727325114 0.16974 0.49260113158480845
0.2124513195884226 -0.189905 0.3209000925872333
0.17773500983092966 -0.4995879999999999 0.5353527204909776
0.20810704679309833 -0.732003 0.40687898934033084
0.21011293846746298 -0.007572000000000023 0.3307914458684148
0.22678285480526228 -0.9561410000000001 0.3114806024562079
0.21211869098890437 -0.6438060000000001 0.3899097324371469
0.1697360628780639 -0.24795100000000003 0.5015856492877293
0.22851795748665343 -0.09230399999999994 0.32054082716010074
0.24783513895460427 -0.844619 0.23882914013716466
0.14364783706035295 0.16517099999999996 0.6119388572097653
0.2437170728690508 -0.490413 0.22904321204040173
0.1971453221861871 0.05445599999999995 0.38564446905749333
0.13656348957488412 -0.18968000000000007 0.7095082712374469
0.17484902844597083 -0.4412880000000001 0.4799578024438709
0.2494266920839949 -0.3360970000000001 0.230393003661483
0.12213905597037718 -0.68756 0.7029210117018607
0.16663593639194318 -0.895742 0.5146991858347502
0.1687113986221263 -0.4805649999999999 0.5735226003015345
0.22672731578261635 -0.7551429999999999 0.26051262172892226
0.22345008466763552 -0.6720619999999999 0.34197793165418433
0.19831455820272792 -0.1439840000000001 0.44830122084959967
0.15780194423657107 0.07792699999999997 0.6196695976687466
0.14766983418319982 -0.3309660000000001 0.5949258074201534
0.2492072468850847 -0.6111260000000001 0.2330251229225871
0.17636865352658304 -0.7543790000000001 0.5411324083242063
0.14419497719426144 -0.6267049999999998 0.6772270748885615
0.15710434156300218 -0.02618799999999999 0.555017836606036
0.2332800284043373 -0.012654000000000054 0.23279464414582396
0.1882255157688986 0.016656000000000004 0.4909778752612144
0.1438346498771789 -0.10528699999999991 0.6111486389035553
0.18827677481795108 -0.695991 0.4231584287468857
0.13228216368986428 -0.578282 0.660015661105567
0.18168338613926388 -0.8514840000000001 0.5186510867826308
0.1431428897418659 -0.23491299999999993 0.68167740532489
0.1719164347689276 -0.6899850000000001 0.5599652958387108
0.23818091945649053 -0.464993 0.27966649331880755
0.20231055797545006 -0.9150309999999999 0.4313981398636846
0.1403591410842809 -0.9561410000000001 0.6655431651688928
0.14452783585882503 -0.7777129999999999 0.608216461863394
0.15720837641956242 -0.153802 0.6221803898239462
0.12941141205395973 -0.033155000000000046 0.6721589419243964
0.19875600756869777 -0.8551600000000001 0.3788312691045662
0.2148571097676704 0.11966299999999996 0.3107235989566435
0.231339705267898 -0.139926 0.3086048326703633
0.15928857910357583 0.03659199999999996 0.5457785107450033
0.23872226250820422 -0.04273799999999994 0.27737661194625546
0.22989512684813163 -0.814325 0.3147154000899362
0.2118446380638289 -0.8742179999999999 0.3234663557319082
0.17552081837839922 0.07159099999999996 0.47711613070232717
0.16371116492644192 -0.25135700000000005 0.5946735912709559
0.23386439361953182 -0.6951879999999999 0.23032277900078257
0.18922625326011955 -0.47533899999999996 0.41914213447382037
0.1675348005241342 -0.34109100000000003 0.5108969901175546
