-0.169743 0.535339 -0.110195
0.202182 0.555846 -0.122524
0.209889 0.555846 0.115801
-0.030596 0.535339 0.178008
0.191819 0.555846 0.068437
0.142016 0.555846 0.060273
-0.187736 0.535339 0.03209
0.099614 0.535339 -0.00538
0.010339 0.535339 0.019388
0.04849 0.555846 0.031826
0.181463 0.535339 -0.018129
0.062887 0.555846 -0.061432
-0.103136 0.535339 -0.036686
-0.069297 0.535339 -0.106938
0.233552 0.53736 -0.206295
0.010898 0.555846 0.101025
-0.065198 0.535339 -0.012511
0.066929 0.535339 0.075831
0.17158 0.555846 -0.152273
0.119798 0.535339 0.093416
-0.083612 0.555846 0.102711
0.035707 0.535339 0.129936
0.153807 0.535339 -0.063335
-0.201123 0.555846 -0.190343
0.193783 0.555846 0.154877
-0.060324 0.535339 0.056245
0.097923 0.535339 -0.045748
0.191063 0.555846 0.213239
-0.192355 0.535339 0.090737
0.067028 0.535339 0.157317
-0.047677 0.555846 -0.14869
-0.211683 0.555846 -0.10819
0.215581 0.535339 0.04375
0.131767 0.555846 0.021804
-0.130567 0.535339 -0.175081
-0.014913 0.555846 -0.075229
0.073069 0.555846 -0.121205
-0.012648 0.555846 0.046869
0.029069 0.535339 0.171841
-0.15608 0.555846 -0.020248
-0.11226 0.535339 -0.07653
-0.006905 0.535339 -0.134869
-0.149053 0.555846 0.13295
0.076321 0.555846 -0.190144
-0.126382 0.555846 0.082232
0.036854 0.535339 -0.191939
-0.20748 0.54114 0.220461
-0.032925 0.548533 0.220461
0.144248 0.555846 0.164049
0.21662 0.555846 0.006952
0.156506 0.535339 0.217378
-0.188667 0.535339 -0.14854
0.113148 0.555846 -0.19814
-0.165462 0.535339 -0.069933
-0.166555 0.535339 -0.211242
-0.222638 0.535339 -0.031775
0.039366 0.535339 -0.1307
0.231693 0.555846 -0.070699
0.021763 0.535339 -0.033675
0.116305 0.535339 -0.131131
0.166478 0.555846 0.131461
-0.137486 0.535339 -0.137399
-0.06415 0.535339 -0.18727
-0.084197 0.555846 -0.077197
-0.120597 0.535339 0.208295
-0.104212 0.555846 -0.199692
0.178667 0.555846 -0.045703
-0.049803 0.535339 0.11764
0.204995 0.555846 -0.160283
-0.217802 0.535339 0.151337
-0.031953 0.535339 -0.019058
0.077962 0.555846 0.01259
0.0456 0.555846 0.092281
-0.115938 0.535339 0.026393
-0.076146 0.555846 0.029444
0.160792 0.535339 -0.222152
0.002745 0.555846 -0.110728
0.142126 0.555846 -0.086497
0.019574 0.555846 -0.007935
-0.028505 0.535339 -0.0539
0.09067 0.555846 0.148397
0.136388 0.555846 -0.151373
-0.007845 0.535339 0.120717
0.157275 0.555846 -0.186246
0.092783 0.555846 0.192766
0.07813 0.535339 -0.08416
0.131653 0.535339 -0.002833
0.088814 0.555846 0.094213
0.224273 0.535339 0.141291
-0.045933 0.555846 -0.081974
0.123888 0.535339 0.044431
-0.009432 0.555846 0.188899
0.18481 0.555846 0.009906
-0.183201 0.555846 0.186046
-0.09329 0.535339 0.079944
0.046597 0.535339 0.219611
-0.079504 0.535339 -0.135852
-0.020828 0.535339 0.06813
-0.094933 0.555846 0.186549
0.010648 0.535339 -0.063947
0.149171 0.555846 0.19605
-0.167455 0.555846 -0.132615
-0.142294 0.535339 -0.097173
0.111606 0.535339 0.155665
-0.017721 0.555846 -0.196549
0.227873 0.555846 0.199433
-0.132715 0.535339 -0.030918
-0.133066 0.555846 0.188475
0.171892 0.555846 -0.119324
-0.103104 0.535339 -0.156861
0.098181 0.535339 -0.183065
0.229501 0.535339 0.10775
-0.142055 0.555846 -0.203334
-0.015345 0.535339 -0.09625
0.187231 0.535339 0.132381
-0.129227 0.535339 0.14322
-0.189738 0.535339 -0.051931
-0.044983 0.555846 -0.04186
-0.218008 0.555846 0.105332
-0.08661 0.548338 0.220461
0.119983 0.555846 -0.11118
-0.101547 0.555846 0.158501
-0.021436 0.535339 0.028723
-0.059219 0.535339 0.173274
0.06168 0.535339 -0.163936
0.060602 0.555846 0.118533
0.141612 0.535339 0.120651
-0.013177 0.555846 0.085989
-0.167095 0.555846 -0.046225
-0.153705 0.555846 0.041113
-0.017619 0.535339 0.153089
0.168556 0.535339 -0.093224
-0.045312 0.535339 -0.123445
0.200694 0.535339 0.183074
-0.215482 0.555846 0.027306
0.196952 0.535339 -0.143307
0.070235 0.535339 -0.030396
-0.219842 0.555846 -0.059572
-0.118487 0.555846 -0.147049
0.055206 0.555846 0.058413
0.074948 0.535339 0.202187
0.048504 0.555846 -0.093489
0.045638 0.555846 0.164466
0.18225 0.555846 0.106391
0.194932 0.535339 0.086193
0.061733 0.535339 0.004802
0.054473 0.535339 -0.21547
-0.17719 0.555846 0.018082
0.002124 0.535339 0.172038
-0.004227 0.555846 0.009849
0.10879 0.535339 0.068985
-0.198258 0.555846 -0.13134
-0.20707 0.535339 -0.167859
0.121412 0.535339 0.212468
0.200977 0.555846 -0.059888
-0.101164 0.535339 0.131071
-0.132012 0.555846 0.022527
-0.172059 0.555846 0.146472
0.216428 0.541855 -0.225565
0.038084 0.535339 0.044265
0.221082 0.555846 0.09219
0.102601 0.555846 -0.15814
-0.0635 0.535339 0.082177
0.149956 0.535339 -0.142562
0.10889 0.535339 -0.071959
-0.097763 0.535339 -0.117339
-0.156365 0.535339 -0.187339
0.233552 0.554841 -0.12793
-0.212217 0.535339 0.049432
-0.051764 0.555846 -0.178095
-0.150587 0.535339 0.0579
0.047977 0.555846 -0.181308
-0.194111 0.535339 0.141672
0.210225 0.535339 -0.178403
-0.198233 0.535339 -0.100941
-0.038227 0.538485 -0.225565
0.159407 0.555846 0.010505
0.118523 0.555846 -0.01257
-0.166584 0.555846 0.109421
-0.069432 0.555846 0.06802
0.027894 0.555846 -0.071788
-0.110085 0.555846 -0.023787
-0.106824 0.555846 0.114315
-0.048725 0.555846 0.047596
-0.031752 0.535339 0.097777
-0.044774 0.555846 -0.203709
-0.116431 0.555846 -0.177688
-0.007148 0.535339 -0.016065
0.228333 0.535339 0.014998
0.147792 0.535339 0.037029
0.017106 0.535339 -0.14191
-0.072831 0.555846 0.169435
0.024918 0.535339 0.099273
0.019423 0.535339 -0.115906
-0.048514 0.555846 0.164456
-0.040849 0.555846 0.128194
0.220027 0.535339 -0.078081
0.205548 0.535339 -0.012844
0.132606 0.555846 0.098047
-0.116536 0.535339 -0.205208
0.024985 0.555846 -0.100488
-0.227855 0.551745 0.006618
0.157068 0.535339 0.160596
0.005942 0.535339 0.083903
-0.009515 0.537425 0.220461
0.152333 0.535339 -0.01572
-0.173431 0.555846 -0.097583
0.179326 0.535339 -0.16286
0.041622 0.555846 0.002341
0.032845 0.555846 0.117383
-0.068749 0.555846 -0.200472
-0.112498 0.535339 0.002447
0.114558 0.555846 -0.045426
0.215892 0.535339 -0.110679
-0.055159 0.555846 -0.004611
-0.074152 0.555846 -0.124338
0.169855 0.555846 -0.068136
0.173008 0.555846 -0.224801
-0.042571 0.555846 0.199826
-0.131246 0.555846 0.106779
-0.185558 0.535339 -0.196726
0.124295 0.555846 0.200648
-0.216713 0.535339 -0.119247
-0.142936 0.555846 -0.0851
0.194736 0.535339 0.056834
0.109751 0.555846 0.17618
0.219024 0.555846 -0.203105
-0.185193 0.555846 0.074244
0.161576 0.555846 0.046904
0.017916 0.535339 -0.20615
0.126909 0.535339 -0.101757
0.083699 0.535339 -0.116654
0.050775 0.535339 0.185345
0.007048 0.555846 -0.201055
-0.072185 0.555846 -0.021367
0.208471 0.535339 0.161006
0.058617 0.535339 -0.05116
0.080512 0.555846 0.067015
0.032369 0.535339 -0.055491
-0.09828 0.535339 0.046105
0.182792 0.555846 -0.176307
-0.210746 0.535339 0.009657
0.060707 0.555846 0.146768
-0.024951 0.555846 -0.010775
-0.145712 0.555846 -0.148232
-0.03965 0.535339 0.002803
-0.159093 0.535339 -0.145776
0.189183 0.535339 -0.048003
-0.061247 0.535339 0.033142
-0.176918 0.535339 -0.168369
0.074963 0.555846 -0.098319
0.191023 0.555846 0.179455
0.191544 0.555846 -0.087544
0.049517 0.555846 -0.130973
-0.066809 0.535339 0.15176
0.219327 0.555846 0.0345
0.118402 0.555846 0.066475
0.029762 0.555846 0.208676
-0.179851 0.555846 -0.182281
-0.212851 0.555846 -0.037929
0.128348 0.535339 0.139411
-0.206615 0.535339 0.172515
0.157104 0.555846 -0.028538
0.198312 0.555846 -0.021946
0.103209 0.555846 0.004056
0.030959 0.555846 -0.036013
0.079038 0.555846 -0.155324
-0.001012 0.535339 -0.044704
0.183393 0.535339 0.218335
0.091885 0.535339 0.085561
-0.128221 0.535339 0.091132
0.01889 0.535339 -0.178637
-0.094241 0.555846 -0.109289
0.094082 0.542612 0.220461
-0.158345 0.555846 0.191561
0.233552 0.538256 -0.046774
0.015057 0.535339 0.042621
0.083973 0.535339 0.05011
-0.166484 0.535339 0.025736
-0.18975 0.555846 0.102705
-0.028526 0.555846 0.105684
0.09411 0.555846 -0.128085
-0.175326 0.555846 0.049978
-0.086755 0.535339 -0.017152
0.066998 0.555846 0.087064
0.123575 0.535339 -0.204733
0.115279 0.555846 0.036368
0.083313 0.555846 -0.00864
-0.128814 0.535339 -0.114419
-0.122088 0.555846 -0.212199
0.084485 0.535339 0.14428
0.232028 0.555846 -0.008431
-0.20611 0.535339 -0.080655
0.15242 0.555846 -0.10563
0.214098 0.548037 0.220461
0.012388 0.555846 -0.056621
-0.088282 0.535339 0.107919
0.134305 0.535339 0.077361
0.218266 0.535339 -0.147034
-0.098415 0.535339 0.173386
-0.130789 0.555846 -0.01785
0.006419 0.555846 0.12312
-0.131504 0.555846 -0.103288
-0.062144 0.535339 0.008724
0.162354 0.535339 0.13601
-0.201762 0.535339 0.07153
-0.141791 0.535339 -0.059755
-0.097215 0.555846 0.086241
0.012361 0.535339 -0.007382
-0.01717 0.535339 -0.211123
-0.161715 0.535339 -0.043735
-0.150249 0.535339 -0.166879
-0.202312 0.535339 -0.015764
-0.185488 0.535339 0.053233
-0.070391 0.555846 -0.06103
0.130403 0.555846 -0.210545
-0.207865 0.555846 0.127571
-0.045239 0.535339 0.138366
0.141592 0.555846 -0.052184
0.145008 0.535339 -0.044049
0.073508 0.547469 0.220461
-0.007659 0.535339 0.047033
-0.094402 0.555846 -0.130364
0.007791 0.555846 0.051936
0.146095 0.555846 0.119312
0.147204 0.535339 0.058048
0.125462 0.535339 0.02348
-0.049865 0.535339 -0.084276
0.121275 0.555846 -0.167761
-0.066301 0.555846 0.189372
0.073309 0.535339 -0.206309
-0.033242 0.555846 -0.059168
-0.053782 0.555846 -0.119639
0.103314 0.535339 0.040979
-0.214703 0.535339 -0.051266
-0.01367 0.555846 0.211667
-0.155128 0.555846 0.092036
-0.145579 0.555846 -0.127472
0.016357 0.535339 0.137436
0.059271 0.535339 -0.124863
0.069222 0.555846 0.031519
0.216539 0.555846 -0.143089
0.182121 0.535339 0.009054
-0.161893 0.535339 -0.090309
0.050733 0.555558 0.220461
0.020935 0.555846 0.06787
-0.006112 0.555846 -0.137063
-0.124229 0.555846 -0.076403
-8.7e-05 0.535339 -0.081558
-0.027726 0.555846 -0.177133
0.146008 0.535339 0.199647
-0.113144 0.555846 0.046663
-0.216767 0.555846 0.152623
0.172802 0.555846 0.028631
0.130646 0.555846 -0.187466
0.166393 0.535339 -0.031792
0.062091 0.535339 0.108369
-0.182361 0.555846 -0.158795
0.111326 0.555846 -0.139963
0.085396 0.555846 -0.208548
0.028723 0.555846 0.028278
-0.067883 0.535339 -0.075186
0.000865 0.535339 -0.108262
-0.154964 0.555846 -0.1824
-0.164545 0.555846 -0.066095
-0.03125 0.555846 0.037835
0.173567 0.535339 -0.073909
0.051622 0.535339 -0.089441
0.215838 0.555846 0.183572
0.080688 0.555846 0.131199
-0.08189 0.555846 0.132372
-0.03608 0.535339 -0.140984
0.190121 0.535339 0.153732
-0.206325 0.535339 0.201678
0.102218 0.535339 0.18213
-0.06664 0.555846 -0.153928
0.068159 0.535339 0.132422
-0.056138 0.535339 0.203151
0.197278 0.535339 -0.116404
0.105142 0.535339 -0.160477
0.133118 0.535339 -0.15223
0.077604 0.555846 -0.074097
0.196118 0.555846 0.049505
-0.196823 0.555846 -0.216809
0.189253 0.535339 0.198691
0.051451 0.535339 -0.145804
0.060069 0.555846 -0.042372
-0.095135 0.535339 -0.213803
-0.226131 0.535339 0.172142
-0.083837 0.535339 -0.154549
0.048883 0.555846 -0.211721
-0.148496 0.555846 0.207977
-0.050324 0.555846 0.069181
-0.203126 0.535339 -0.132722
0.007089 0.555846 -0.022422
0.165142 0.555846 0.097886
0.121663 0.555846 -0.08427
0.215424 0.535339 -0.20093
-0.070573 0.555846 0.088985
0.158499 0.535339 -0.203467
-0.018905 0.555846 -0.096955
-0.194643 0.535339 0.122866
-0.03938 0.535339 0.034341
-0.066507 0.535339 -0.037464
-0.028019 0.535339 0.20807
0.22046 0.555846 -0.113593
-0.098792 0.535339 0.154698
0.125689 0.555846 0.165745
0.042445 0.555846 -0.1138
-0.093417 0.555846 0.022733
0.198661 0.555846 -0.041504
-0.058385 0.555846 0.021531
-0.09968 0.535339 0.017617
-0.141377 0.535339 -0.078211
-0.198163 0.555846 0.033524
-0.016536 0.555846 0.141096
-0.163046 0.535339 0.043736
0.049828 0.535339 0.082355
0.173002 0.555846 0.061146
-0.109555 0.535339 0.088206
-0.102811 0.535339 0.212187
0.018497 0.535339 -0.159926
-0.183955 0.555846 -0.120342
-0.209985 0.535339 -0.150098
-0.042675 0.535339 0.164744
-0.015166 0.555846 -0.121615
-0.038751 0.535339 -0.070256
-0.221673 0.555846 -0.209571
0.115304 0.555846 0.102369
-0.021761 0.535339 -0.03743
-0.218632 0.535339 -0.18447
0.203186 0.535339 -0.062675
0.13984 0.535339 0.164912
-0.087098 0.535339 -0.103192
-0.015789 0.535339 -0.114299
-0.219176 0.555846 -0.01186
0.030324 0.535339 0.0284
-0.240048 0.961524 -0.224506
-0.243235 -0.897517 0.214212
-0.243158 0.194115 -0.246072
-0.243235 -0.500615 -0.240651
-0.243235 -0.255208 0.023936
-0.243235 -0.663635 0.02084
-0.243235 0.338908 -0.008576
-0.243235 -0.025516 -0.115526
-0.243235 0.762531 -0.059914
-0.243235 0.148897 0.138041
-0.243235 0.411319 -0.245885
-0.243235 -0.284095 -0.188999
-0.227855 -0.461765 -0.01123
-0.227855 -0.063052 0.075218
-0.228926 0.713366 -0.246072
-0.243235 0.153854 -0.059216
-0.243235 0.592758 -0.000695
-0.243235 -0.729998 -0.174547
-0.227855 0.794565 0.102307
-0.243235 -0.400938 0.143649
-0.227855 -0.136914 -0.245839
-0.243235 0.321142 0.145749
-0.227855 0.560883 -0.225538
-0.243235 0.471185 -0.087961
-0.243235 -0.776867 0.126852
-0.243235 0.461561 0.084666
-0.243235 -0.546069 0.137705
-0.243235 -0.167804 -0.095445
-0.227855 0.289388 -0.14252
-0.243235 0.600026 0.141176
-0.243235 -0.822661 -0.06919
-0.227855 -0.151597 0.183163
-0.243235 -0.596654 -0.124829
-0.243235 0.902522 -0.032904
-0.227855 0.645662 -0.124591
-0.243235 -0.415942 -0.133314
-0.243235 0.057094 0.038456
-0.234351 -0.627832 -0.246072
-0.227855 0.224736 0.039935
-0.243235 0.040299 0.191071
-0.243235 0.855316 -0.137755
-0.243235 0.689378 0.059355
-0.243235 -0.024348 -0.228607
-0.243235 0.092076 -0.200016
-0.243235 -0.352061 -0.030252
-0.227855 -0.655416 0.130681
-0.243235 -0.897223 0.106888
-0.232813 -0.815909 -0.246072
-0.238335 0.305507 -0.246072
-0.227855 -0.713701 -0.070492
-0.243235 -0.145321 0.012209
-0.227855 -0.767586 0.024104
-0.227855 0.054213 -0.057407
-0.243235 0.19397 -0.150017
-0.243235 0.376196 -0.10017
-0.243235 -0.057845 -0.026927
-0.243235 -0.268622 -0.095996
-0.227855 0.431212 -0.002306
-0.243235 -0.199251 0.098516
-0.243235 0.736125 -0.149312
-0.243235 -0.532981 0.04613
-0.227855 -0.473993 0.196916
-0.227855 0.894842 0.149038
-0.227855 -0.506642 -0.130968
-0.243235 0.244835 -0.062004
-0.243235 -0.351411 0.067893
-0.243235 0.478019 -0.184905
-0.227855 -0.106213 -0.158585
-0.227855 0.687895 0.148831
-0.227855 0.67704 -0.038523
-0.227855 0.376202 0.070305
-0.227855 -0.193514 -0.177714
-0.227855 0.405525 0.162074
-0.243235 0.835478 0.026778
-0.227855 -0.819673 -0.159399
-0.227855 -0.041283 0.166885
-0.243235 -0.852307 0.028493
-0.243235 0.507067 0.15753
-0.243235 -0.349762 0.220872
-0.227855 0.54442 0.067691
-0.243235 0.238355 0.164819
-0.243235 0.142453 0.027139
-0.243235 0.813355 -0.225197
-0.243235 -0.433965 0.065452
-0.242279 -0.342946 -0.246072
-0.227855 0.545281 -0.143679
-0.243235 0.64789 -0.202333
-0.229076 0.961524 0.191525
-0.227855 0.02624 0.114902
-0.227855 0.371693 -0.179651
-0.243235 0.506708 -0.016709
-0.227855 -0.339182 -0.133393
-0.243235 -0.527034 -0.057054
-0.243235 0.783127 0.183463
-0.227855 0.115028 -0.127487
-0.241209 -0.898633 -0.045152
-0.227855 -0.655156 -0.170807
-0.227855 -0.716851 0.082931
-0.243235 -0.414466 -0.218021
-0.227855 -0.704524 -0.244477
-0.233239 -0.236333 -0.246072
-0.243235 -0.885298 -0.124123
-0.227855 0.757908 0.034128
-0.227855 -0.640907 -0.054573
-0.234634 0.961524 0.010469
-0.227855 -0.837648 0.165255
-0.243235 0.021959 -0.171716
-0.227855 -0.718452 0.170322
-0.227855 -0.208453 -0.036969
-0.227855 0.617274 0.072748
-0.227855 -0.130681 0.113532
-0.243235 -0.583263 0.225568
-0.243235 -0.234784 0.160538
-0.243235 -0.095005 0.22344
-0.227855 0.832319 -0.042456
-0.243235 0.893873 0.065671
-0.243235 -0.561066 -0.186378
-0.227855 -0.088937 -0.091328
-0.233831 -0.887502 -0.246072
-0.243235 0.893376 -0.223666
-0.227855 0.308593 0.068843
-0.243235 0.090691 0.096923
-0.243235 -0.472068 0.120644
-0.227855 0.315725 -0.075665
-0.243235 -0.426101 -0.067334
-0.243235 -0.299367 0.175081
-0.229995 0.046557 -0.246072
-0.243235 0.180247 0.195891
-0.243235 0.609099 -0.064307
-0.243235 -0.01627 0.031902
-0.243235 -0.758613 -0.115473
-0.227855 0.103354 0.182525
-0.243235 0.255801 -0.204765
-0.243235 0.63761 0.193391
-0.243235 0.928033 -0.169497
-0.227855 0.796125 -0.165003
-0.227855 0.17467 0.082609
-0.243235 0.422695 -0.146895
-0.227855 0.202204 -0.018245
-0.231794 0.400295 0.225588
-0.243235 -0.467211 -0.176492
-0.243235 -0.290389 -0.033465
-0.243235 0.903806 -0.094632
-0.243235 -0.275868 0.086809
-0.243235 -0.66184 -0.11159
-0.243235 0.735117 0.100685
-0.243235 -0.389986 0.017781
-0.227855 0.278057 0.010454
-0.227855 -0.198528 0.039575
-0.227855 0.809362 -0.098637
-0.227855 0.241484 0.097974
-0.227855 0.700161 -0.098724
-0.243235 -0.763549 -0.034009
-0.236606 -0.562551 -0.246072
-0.243235 -0.130553 -0.048532
-0.243235 -0.362308 -0.188713
-0.227855 0.132415 -0.241436
-0.243235 0.599172 -0.16441
-0.243235 0.058592 -0.116121
-0.243235 -0.800521 0.072403
-0.227855 0.650458 0.017435
-0.243235 0.853829 0.187612
-0.227855 -0.340455 0.129444
-0.243235 -0.585411 -0.061672
-0.236541 0.468834 -0.246072
-0.227855 0.491699 0.037693
-0.243235 -0.757833 -0.228315
-0.227855 -0.708719 -0.013126
-0.243235 -0.222346 -0.130319
-0.243235 0.84258 0.13111
-0.227855 0.388189 -0.04014
-0.243235 0.098459 -0.009213
-0.227855 -0.621654 0.178449
-0.243235 -0.533923 0.198815
-0.227855 -0.004441 -0.034418
-0.243235 0.727048 0.185906
-0.227855 0.203371 -0.095972
-0.239089 0.613641 -0.246072
-0.243235 -0.315029 0.026844
-0.243235 -0.625986 0.087129
-0.243235 0.704689 0.006114
-0.243235 -0.079517 0.130962
-0.243235 -0.086948 0.018652
-0.227855 -0.394675 0.195091
-0.227855 -0.056049 -0.178548
-0.243235 0.683592 -0.160583
-0.243235 -0.809609 -0.006399
-0.227855 0.593019 -0.112997
-0.227855 0.46115 0.182962
-0.227855 0.788459 -0.012536
-0.243235 -0.847469 -0.201837
-0.243235 0.646518 0.114059
-0.227855 -0.529561 -0.006811
-0.243235 0.537787 -0.060882
-0.23145 0.357629 -0.246072
-0.227855 0.304586 -0.192896
-0.227855 -0.344589 -0.079852
-0.227855 0.906806 0.017252
-0.227855 0.35311 0.192863
-0.227855 0.844507 0.075998
-0.236259 0.766286 -0.246072
-0.227855 0.289793 0.190797
-0.227855 -0.76982 0.176797
-0.243235 0.381787 0.118724
-0.227855 -0.157159 0.069953
-0.243235 -0.182173 -0.228436
-0.243235 -0.482178 0.043697
-0.227855 -0.513191 -0.192967
-0.227855 0.069682 0.144835
-0.243235 0.956672 0.132438
-0.243235 0.742136 -0.199095
-0.227855 0.479569 -0.137282
-0.243235 -0.459907 -0.109449
-0.243235 0.149158 -0.189683
-0.243235 0.334525 -0.128288
-0.227855 -0.022156 0.103519
-0.227855 0.434855 -0.056622
-0.227855 0.424394 -0.193826
-0.243235 -0.032833 0.213035
-0.243235 -0.151091 -0.145145
-0.227855 -0.402261 -0.027267
-0.243235 0.439337 0.130115
-0.243235 -0.708564 0.217988
-0.227855 0.515398 0.106857
-0.243235 -0.616723 -0.196529
-0.243235 -0.855796 0.081392
-0.227855 -0.550912 -0.101483
-0.243235 -0.294697 -0.241844
-0.243235 -0.252039 0.215696
-0.227855 0.747621 0.144802
-0.227855 -0.55733 0.08487
-0.227855 0.524045 -0.19462
-0.243235 0.437988 0.042561
-0.243235 -0.235763 -0.194085
-0.243235 -0.603203 0.129017
-0.243235 0.28651 -0.038995
-0.243235 -0.10049 0.176152
-0.227855 0.07482 -0.158491
-0.243235 0.018422 -0.084546
-0.227855 0.90464 0.197634
-0.243235 -0.822775 0.115387
-0.227855 -0.853343 -0.030824
-0.227855 -0.392767 0.09977
-0.243235 0.341583 0.038855
-0.227855 -0.777791 -0.181049
-0.243235 0.569918 0.103971
-0.227855 0.246402 -0.123831
-0.243235 0.635428 -0.024084
-0.243235 0.287115 0.107136
-0.243235 -0.478279 -0.066945
-0.243235 0.426696 -0.10073
-0.243235 -0.728851 0.127981
-0.243235 -0.578176 0.175844
-0.230577 0.238505 -0.246072
-0.243235 0.762718 -0.111745
-0.243235 -0.11743 -0.207227
-0.243235 0.838659 -0.186996
-0.227855 0.799455 0.053377
-0.243235 -0.704656 0.041004
-0.243235 -0.503882 0.087828
-0.243235 -0.434085 0.177953
-0.243235 -0.689758 -0.196284
-0.227855 0.126834 0.073805
-0.227855 0.696972 -0.203622
-0.227855 0.689349 0.103425
-0.227855 0.090422 -0.084747
-0.243235 0.513669 -0.244682
-0.243235 -0.050303 -0.071573
-0.243235 -0.886457 -0.169621
-0.227855 0.379222 0.005036
-0.227855 0.027858 0.069041
-0.227855 -0.698308 -0.132988
-0.243235 -0.117237 0.057141
-0.243235 0.2405 0.209408
-0.243235 -0.184492 0.157265
-0.243235 -0.88679 0.167731
-0.227855 0.917512 0.110745
-0.243235 0.203967 0.136687
-0.243235 -0.29761 -0.130419
-0.227855 0.190033 -0.198989
-0.243235 0.054369 -0.014333
-0.243235 -0.569027 -0.020052
-0.227855 -0.236712 0.11653
-0.243235 0.558056 0.026648
-0.243235 -0.817028 0.203407
-0.227855 0.014934 0.005185
-0.227855 0.102582 0.036064
-0.243235 -0.352024 0.177461
-0.243235 -0.896804 0.047211
-0.227855 -0.514476 0.162975
-0.227855 -0.857568 -0.094749
-0.243235 -0.227772 -0.082003
-0.227855 -0.759686 0.088329
-0.243235 -0.667796 0.076371
-0.243235 0.33939 0.094867
-0.227855 0.938838 0.046509
-0.227855 0.596047 0.185067
-0.243235 -0.379373 -0.0998
-0.243235 0.864576 -0.012861
-0.227855 0.234731 -0.165031
-0.227855 -0.310501 0.066478
-0.243235 -0.248455 -0.02521
-0.240904 0.961524 -0.078308
-0.243235 0.547293 0.210163
-0.227855 -0.163268 -0.023296
-0.243235 0.001209 0.174121
-0.243235 0.869762 -0.059985
-0.227855 -0.555303 -0.143697
-0.243235 -0.322743 -0.208762
-0.227855 -0.635916 -0.007264
-0.243235 0.52014 -0.113314
-0.227855 0.689923 0.198891
-0.227855 0.274338 0.149038
-0.243235 0.744738 -0.006887
-0.227855 0.917161 -0.131379
-0.227855 0.480554 -0.045675
-0.227855 0.497254 0.204257
-0.227855 -0.429682 0.015665
-0.227855 0.144958 0.178437
-0.243235 0.240072 -0.009745
-0.243235 0.557918 0.143948
-0.243235 -0.095967 -0.242975
-0.243235 0.664939 -0.082581
-0.243235 0.349778 -0.057536
-0.227855 0.183378 0.037173
-0.227855 -0.613863 -0.087576
-0.243235 -0.675765 -0.032918
-0.243235 -0.455191 -0.225328
-0.227855 -0.233203 0.061959
-0.227855 -0.670517 0.168977
-0.227855 -0.796797 -0.097225
-0.227855 -0.270944 0.1488
-0.243235 -0.075816 -0.135896
-0.243235 -0.217195 0.006557
-0.227855 0.873836 0.109917
-0.227855 0.876258 -0.186825
-0.243235 -0.66726 -0.230022
-0.227855 -0.313848 -0.166696
-0.243235 0.560285 -0.186558
-0.243235 -0.692399 0.111443
-0.227855 0.72629 0.058983
-0.243235 -0.155878 -0.196768
-0.243235 0.768103 0.072506
-0.243235 0.784225 0.137487
-0.243235 0.030696 -0.210469
-0.227855 0.098768 -0.045807
-0.227855 0.026165 -0.135396
-0.243235 -0.136618 0.14959
-0.243235 -0.019564 -0.1806
-0.243235 -0.626588 0.214576
-0.227855 0.112645 0.134154
-0.227855 -0.126581 -0.103508
-0.243235 0.36046 0.15716
-0.227855 0.850087 -0.090527
-0.243235 0.273175 0.060839
-0.227855 -0.469158 0.077682
-0.227855 0.726569 -0.056594
-0.243235 0.127033 -0.087861
-0.227855 0.117243 -0.17286
-0.227855 0.817743 0.173691
-0.243235 0.580178 0.06473
-0.243235 -0.398411 -0.173969
-0.227855 -0.217198 0.207489
-0.227855 -0.051538 0.013497
-0.227855 -0.855731 -0.144951
-0.227855 0.777471 -0.203705
-0.227855 -0.623538 0.051615
-0.227855 -0.862361 0.116362
-0.243235 0.925064 0.168562
-0.243235 0.482634 0.127779
-0.243235 0.814346 -0.135037
-0.243235 0.155737 -0.020985
-0.243235 0.592553 -0.21066
-0.243235 0.289184 -0.107552
-0.227855 -0.450977 -0.143048
-0.239643 0.009797 -0.246072
-0.243235 0.940458 -0.034919
-0.243235 0.638048 0.155523
-0.227855 0.582856 -0.033839
-0.227855 -0.434299 -0.187135
-0.243235 -0.097626 -0.02989
-0.243235 0.38957 -0.214926
-0.235607 0.961524 -0.185204
-0.243235 0.40926 0.092833
-0.227855 0.164016 -0.092033
-0.243235 -0.760023 -0.077874
-0.227855 0.325567 -0.161435
-0.243235 -0.10132 0.091226
-0.243235 -0.502437 -0.02784
-0.243235 -0.183135 0.196565
-0.227855 -0.737387 0.051494
-0.227855 -0.018003 0.066114
-0.227855 -0.628817 -0.136474
-0.243235 -0.576547 0.05663
-0.227855 -0.67627 -0.070207
-0.243235 0.209833 0.085224
-0.243235 -0.743781 -0.000252
-0.227855 0.200512 -0.055573
-0.243235 -0.517652 -0.09516
-0.243235 0.651228 0.077398
-0.227855 -0.805329 0.144718
-0.243235 0.511925 -0.163366
-0.227855 -0.429575 0.101294
-0.243235 0.877021 0.032977
-0.227855 -0.314191 0.103698
-0.243235 0.325833 0.221483
-0.243235 0.343617 -0.197527
-0.227855 -0.518142 0.11966
-0.243235 0.036508 0.146685
-0.227855 0.31216 0.023477
-0.227855 -0.308855 -0.086987
-0.227855 -0.55787 0.017739
-0.243235 -0.698273 -0.099581
-0.227855 -0.262163 -0.062206
-0.243235 0.504156 0.076056
-0.227855 -0.443039 0.14643
-0.227855 -0.785342 -0.134402
-0.243235 0.474482 0.009973
-0.227855 0.210216 0.182983
-0.227855 -0.494991 0.013722
-0.227855 -0.393281 0.063754
-0.243235 0.625251 0.041193
-0.227855 0.84521 -0.218845
-0.243235 0.434503 0.210153
-0.227855 -0.29519 -0.001466
-0.243235 0.164021 -0.22667
-0.243235 0.924786 -0.20649
-0.227855 -0.038749 -0.147221
-0.227855 -0.276379 0.048308
-0.243235 -0.164425 0.127155
-0.243235 0.180057 0.005204
-0.227855 0.592751 0.035206
-0.243235 -0.742987 0.194325
-0.243235 -0.3227 -0.050175
-0.230079 -0.057671 -0.246072
-0.227855 -0.787947 -0.062377
-0.243235 0.245347 0.13014
-0.243235 -0.854976 0.191975
-0.227855 -0.794588 -0.218375
-0.227855 0.495251 -0.218832
-0.243235 -0.044411 0.127789
-0.243235 0.671259 -0.006448
-0.227855 -0.723733 -0.205494
-0.227855 0.408877 0.054566
-0.227855 0.274073 -0.175707
-0.227855 0.641345 -0.17164
-0.243235 0.443819 -0.221699
-0.227855 -0.330106 -0.001587
-0.243235 0.128476 0.104876
-0.243235 0.733315 0.220005
-0.227855 0.868034 0.21534
-0.243235 0.796 -0.051376
-0.243235 -0.659293 0.203519
-0.227855 0.281654 -0.070155
-0.227855 -0.116697 0.000697
-0.243235 0.17702 0.161631
-0.227855 -0.011685 -0.078188
-0.227855 0.444705 -0.125514
-0.243235 0.525866 0.038389
-0.243235 0.364504 -0.144832
-0.243235 0.152876 0.220689
-0.227855 0.737075 -0.095113
-0.243235 0.25581 0.031338
-0.243235 0.172889 0.113831
-0.243235 -0.389952 -0.067416
-0.227855 0.64635 -0.053203
-0.227855 -0.725713 -0.112435
-0.227855 0.178746 -0.123833
-0.237856 -0.396094 -0.246072
-0.227855 0.064221 -0.211719
-0.243235 -0.470426 0.166915
-0.243235 0.019258 0.035082
-0.243235 -0.827668 0.051744
-0.243235 -0.370097 -0.132378
-0.227855 0.346407 -0.095348
-0.243235 -0.865401 0.22491
-0.243235 -0.362648 0.100006
-0.227855 0.831833 0.211246
-0.243235 0.818502 -0.010999
-0.227855 -0.807918 0.023616
-0.227855 -0.182416 -0.121668
-0.243235 0.254532 -0.094936
-0.243235 -0.866517 -0.057733
-0.227855 -0.108178 0.139535
-0.227855 0.126146 -0.024654
-0.243235 0.684403 -0.234608
-0.243235 0.585062 0.214123
-0.243235 -0.174722 -0.05065
-0.243235 0.572866 -0.091252
-0.227855 0.221585 -0.209901
-0.227855 -0.061293 0.204803
-0.227855 -0.001995 0.21034
-0.243235 -0.572805 0.109918
-0.243235 0.463517 -0.021305
-0.243235 -0.317312 0.206971
-0.227855 -0.083086 -0.201715
-0.243235 0.108478 0.214613
-0.227855 -0.13302 -0.178788
-0.227855 -0.433768 -0.03669
-0.227855 0.706911 -0.143266
-0.243235 0.785077 0.016295
-0.227855 0.513213 -0.076235
-0.243235 0.44753 -0.172933
-0.243235 0.887724 -0.142475
-0.227855 0.074359 0.197719
-0.227855 0.764678 -0.14503
-0.243235 -0.764617 -0.155392
-0.243235 0.716307 -0.029769
-0.243235 0.399224 -0.077183
-0.227855 0.387541 0.189058
-0.227855 -0.847088 -0.238821
-0.227855 -0.750815 0.146109
-0.230543 -0.433899 -0.246072
-0.227855 -0.361894 -0.160292
-0.243235 -0.624171 0.018455
-0.243235 -0.253976 -0.220544
-0.243235 -0.180549 -0.001139
-0.227855 0.860227 0.160302
-0.243235 -0.691769 0.150734
-0.243235 -0.657964 -0.199264
-0.227855 -0.32277 0.156026
-0.232219 -0.594152 -0.246072
-0.227855 -0.240082 -0.152893
-0.227855 -0.809254 -0.18948
-0.243235 -0.104277 -0.12168
-0.227855 0.122134 -0.204291
-0.243235 0.39588 -0.129847
-0.243235 0.601672 0.095717
-0.227855 -0.053198 -0.117621
-0.227855 0.20695 0.013113
-0.227855 -0.115943 -0.07201
-0.227855 -0.739984 -0.048436
-0.227855 0.02934 -0.037925
-0.227855 0.684355 0.032223
-0.227855 -0.54668 -0.036197
-0.227855 -0.204863 0.175823
-0.238066 -0.898633 -0.096085
-0.243235 -0.145123 0.219709
-0.227855 0.718847 0.157496
-0.243235 0.922715 -0.008858
-0.243235 -0.688623 0.192413
-0.243235 0.125235 0.158547
-0.243235 -0.20258 -0.100561
-0.227855 0.407323 0.12807
-0.243235 0.538618 0.18021
-0.239786 -0.898633 0.139111
-0.243235 0.422584 -0.027982
-0.227855 -0.37073 0.157871
-0.243235 0.931152 0.203185
-0.243235 0.618906 -0.128672
-0.243235 -0.172257 0.033336
-0.227855 0.917126 -0.055608
-0.243235 0.76048 0.20503
-0.227855 0.814152 0.126343
-0.243235 -0.523582 -0.151875
-0.227855 -0.800164 0.099302
-0.227855 0.519885 0.006678
-0.227855 0.003776 -0.114057
-0.243235 0.656004 0.044376
-0.243235 -0.883424 -0.003779
-0.243235 0.636116 -0.093577
-0.227855 -0.455228 0.049291
-0.227855 -0.375984 -0.043366
-0.227855 0.043776 -0.187235
-0.243235 -0.331775 -0.103218
-0.243235 -0.693378 0.012451
-0.227855 0.074494 0.002994
-0.227855 0.469912 0.059493
-0.243235 0.10596 -0.242889
-0.243235 0.048784 -0.153663
-0.243235 -0.033419 -0.008476
-0.227855 0.435358 0.080995
-0.243235 0.310908 0.174854
-0.243109 0.961524 0.060262
-0.243235 0.931162 -0.080812
-0.227855 -0.767702 0.055306
-0.227855 0.623708 0.127257
-0.243235 0.571529 -0.14529
-0.243235 -0.552615 -0.215585
-0.243235 0.35251 0.126849
-0.243235 0.73512 -0.228599
-0.243235 -0.427252 -0.161994
-0.243235 0.714876 -0.1709
-0.243235 -0.615145 -0.161991
-0.243235 0.570518 0.171448
-0.227855 -0.202634 0.138648
-0.243235 0.124125 -0.051311
-0.227855 0.398064 -0.165085
-0.243235 0.474716 0.160898
-0.227855 0.317778 -0.105715
-0.227855 0.408195 0.024461
-0.227855 0.851738 -0.164687
-0.227855 -0.50386 0.193585
-0.227855 0.672369 -0.110088
-0.227855 0.926598 0.139353
-0.227855 0.763564 -0.029293
-0.243235 0.71269 0.035011
-0.227855 -0.378281 0.128856
-0.227855 -0.503508 -0.072016
-0.243235 -0.025624 -0.054555
-0.243235 -0.628081 -0.109009
-0.227855 -0.252192 0.189999
-0.227855 -0.539862 -0.171876
-0.227855 -0.652499 0.097005
-0.243235 -0.263277 -0.163744
-0.243235 -0.857973 0.149703
-0.243235 -0.582865 -0.157417
-0.243235 -0.28596 -0.071758
-0.243235 -0.004876 0.122148
-0.243235 0.803063 -0.189436
-0.243235 -0.667988 -0.140589
-0.243235 -0.621723 -0.038117
-0.227855 0.278138 -0.226558
-0.227855 -0.508485 0.039993
-0.243235 0.020987 0.2205
-0.243235 0.939549 0.082853
-0.243235 -0.849222 -0.118361
-0.243235 0.154632 0.053863
-0.227855 0.814335 0.078645
-0.243235 0.707713 0.133654
-0.243235 0.674156 0.123727
-0.227855 -0.274569 -0.120957
-0.227855 -0.409886 -0.08615
-0.227855 -0.831687 0.00665
-0.227855 -0.037112 -0.200775
-0.243235 -0.359408 -0.220178
-0.227855 0.341026 0.063663
-0.227855 0.006533 0.149906
-0.227855 0.826573 -0.071054
-0.227855 0.712295 0.084514
-0.227855 0.36559 -0.208956
-0.227855 0.177911 -0.168742
-0.227855 -0.076254 0.171654
-0.227855 -0.467179 0.022126
-0.227855 -0.138949 0.045493
-0.227855 0.458725 -0.200164
-0.227855 0.543026 -0.087867
-0.227855 -0.520131 0.069445
-0.227855 0.150089 -0.119876
-0.243235 -0.685929 -0.167623
-0.229168 0.827542 -0.246072
-0.243235 0.376534 0.045848
-0.243235 0.255144 -0.146658
-0.243235 0.398281 -0.010227
-0.227855 0.002736 -0.190243
-0.243235 0.770025 0.101174
-0.227855 -0.806386 -0.030451
-0.227855 0.082465 -0.120297
-0.243235 0.808032 0.197669
-0.227855 -0.458512 -0.0853
-0.227855 -0.460796 -0.046211
-0.243235 -0.337953 -0.16568
-0.227855 0.058077 0.174201
-0.243235 0.540794 -0.012705
-0.243235 -0.061608 0.051178
-0.243235 -0.783432 0.207424
-0.227855 0.884989 -0.078619
-0.227855 0.380521 0.143872
-0.243235 0.913023 0.040475
-0.227855 -0.246981 -0.106454
-0.243235 -0.830599 -0.096839
-0.227855 -0.124361 0.084774
-0.240152 0.918916 -0.246072
-0.243235 -0.014903 -0.148966
-0.243235 0.491883 -0.110595
-0.227855 -0.649604 0.040446
-0.227855 0.012253 -0.060539
-0.243235 -0.079297 -0.051492
-0.227855 -0.707576 -0.042833
-0.243235 -0.370384 0.046859
-0.227855 0.299152 0.135379
-0.243235 0.618323 -0.185274
-0.243235 0.665796 0.195706
-0.243235 -0.001498 0.091901
-0.227855 0.766004 -0.173206
-0.227855 -0.166371 -0.16312
-0.243235 0.562256 -0.04533
-0.243235 0.717254 -0.082386
-0.227855 0.80803 0.011036
-0.243235 0.329915 -0.23314
-0.227855 0.640683 -0.238053
-0.227855 0.759682 0.170091
-0.227855 0.597725 -0.084773
-0.243235 -0.73067 -0.23508
-0.227855 0.038261 -0.096931
-0.243235 0.548032 -0.11131
-0.227855 -0.767262 -0.206945
-0.227855 -0.440116 0.200478
-0.243235 -0.778923 0.155446
-0.227855 -0.157119 0.097796
-0.243235 0.699672 0.170518
-0.243235 0.267782 0.197931
-0.227855 -0.475027 0.144261
-0.227855 0.620417 -0.04152
-0.227855 -0.529222 0.223688
-0.243235 0.074306 0.122329
-0.227855 0.669398 -0.142554
-0.243235 -0.517024 -0.218497
-0.243235 -0.632061 0.158074
-0.243235 -0.614235 -0.064613
-0.243235 -0.817028 -0.214201
-0.243235 0.369219 -0.027484
-0.227855 -0.33369 0.039944
-0.243235 -0.59593 0.196838
-0.243235 0.4648 0.036558
-0.243235 0.117977 0.014729
-0.243235 -0.550159 0.176705
-0.243235 -0.006923 -0.001548
-0.243235 0.022546 -0.016307
-0.243235 -0.06052 -0.203596
-0.227855 -0.366249 0.205382
-0.227855 0.910502 0.08099
-0.227855 0.157794 0.00912
-0.227855 -0.134376 -0.129932
-0.243235 -0.410598 0.035741
-0.227855 0.582816 0.122506
-0.227855 0.72711 0.008502
-0.243235 -0.83202 -0.02197
-0.243235 0.777988 0.046717
-0.243235 0.462433 -0.058896
-0.241482 0.572348 -0.246072
-0.243235 0.290024 -0.012059
-0.227855 0.724275 -0.119055
-0.243235 0.847645 0.051046
-0.227855 -0.190787 -0.204718
-0.227855 -0.357012 -0.004984
-0.243235 -0.235354 -0.055971
-0.227855 -0.394119 -0.128592
-0.243235 0.622785 0.014201
-0.227855 0.339496 0.164717
-0.227855 0.842328 -0.011843
-0.243235 0.831864 0.094312
-0.243235 -0.223131 0.042114
-0.227855 0.654203 0.17675
-0.227855 0.912346 -0.18521
-0.227855 -0.096246 0.115305
-0.227855 0.069227 0.091434
-0.227855 0.30863 -0.038653
-0.227855 -0.684174 0.214001
-0.227855 0.958237 -0.021903
-0.227855 -0.673423 -0.011032
-0.243235 -0.389002 0.173842
-0.243235 0.864339 -0.229698
-0.227855 0.614837 0.219443
-0.227855 0.219047 0.11268
-0.243235 -0.158494 -0.241023
-0.227855 -0.260123 -0.199469
-0.243235 -0.633492 0.130334
-0.227855 -0.056573 0.109553
-0.243235 0.267465 0.086996
-0.227855 0.622252 -0.152972
-0.243235 0.433052 0.183512
-0.227855 -0.746256 -0.133392
-0.227855 -0.064266 0.146463
-0.227855 -0.480679 -0.10305
-0.243235 0.891544 0.092184
-0.243235 -0.24014 0.095084
-0.227855 0.250056 0.010405
-0.227855 0.878468 0.01134
-0.243235 0.119313 -0.151274
-0.227855 -0.107136 0.03797
-0.243235 0.498847 -0.057278
-0.243235 0.8466 -0.112689
-0.243235 -0.82327 -0.138078
-0.243235 0.70993 0.207019
-0.227855 0.042228 0.022845
-0.243235 0.5806 -0.065937
-0.227855 0.170644 -0.03651
-0.227855 0.251989 0.052511
-0.243235 0.049178 0.071669
-0.227855 -0.255177 -0.00481
-0.227855 0.431395 0.156723
-0.227855 0.31762 -0.011381
-0.243235 0.080613 0.026457
-0.243235 0.686008 -0.057989
-0.227855 -0.683379 0.043521
-0.243235 0.225096 -0.121585
-0.227855 0.736115 -0.173517
-0.227855 0.342723 0.012465
-0.227855 0.505428 -0.132304
-0.227855 0.56339 -0.165031
-0.227855 -0.864959 0.006882
-0.227855 0.26788 0.174471
-0.227855 -0.788589 -0.003345
-0.243235 -0.134473 0.195745
-0.243235 0.167388 -0.142417
-0.243235 -0.472532 -0.244991
-0.243235 -0.18531 0.056184
-0.243235 0.78585 -0.14428
-0.243235 0.079666 -0.036645
-0.227855 0.827279 -0.155504
-0.243235 0.31648 0.049271
-0.227855 0.461612 0.125999
-0.243235 -0.822455 0.089283
-0.241796 -0.260992 -0.246072
-0.227855 -0.751829 -0.17844
-0.243235 -0.702764 -0.218895
-0.227855 0.760258 0.121997
-0.243235 0.608369 -0.024258
-0.243235 0.134897 -0.00532
-0.243235 -0.799929 0.043078
-0.243235 -0.726029 0.101838
-0.227855 -0.472701 -0.128689
-0.227855 0.446845 -0.094795
-0.227855 0.114704 -0.070866
-0.227855 0.889461 -0.052749
-0.243235 0.958579 0.158372
-0.227855 -0.745462 -0.092944
-0.227855 0.754133 -0.21986
-0.243235 -0.244027 0.136286
-0.243235 -0.557888 0.208714
-0.243235 -0.260422 0.066025
-0.227855 -0.345858 -0.204382
-0.243235 0.390571 -0.188396
-0.243235 0.447003 0.011237
-0.227855 0.177276 -0.066909
-0.227855 -0.704969 -0.157967
-0.243235 -0.602823 0.050058
-0.227855 -0.702174 0.061621
-0.243235 -0.641873 -0.075307
-0.243235 -0.538293 0.093095
-0.227855 0.796275 0.154333
-0.243235 -0.651228 0.179026
-0.243235 0.271231 0.12745
-0.227855 -0.064092 -0.154103
-0.243235 0.528886 0.091288
-0.227855 -0.643691 -0.216085
-0.243235 0.739437 0.024973
-0.227855 0.314324 -0.136383
-0.227855 -0.738705 -0.022799
-0.227855 0.34669 -0.027572
-0.243235 0.101229 -0.112033
-0.227855 -0.331604 -0.029149
-0.227855 0.379739 -0.070878
-0.243235 -0.259511 0.167161
-0.243235 -0.525482 -0.123148
-0.243235 0.09911 0.162597
-0.227855 0.650781 0.209328
-0.243235 -0.407174 -0.106176
-0.227855 -0.406531 0.005231
-0.243235 0.312472 0.105906
-0.227855 -0.074244 0.035437
-0.227855 -0.110428 -0.047283
-0.227855 0.182951 0.220037
-0.227855 0.184047 -0.228458
-0.243235 0.032499 -0.05775
-0.227855 0.823815 0.04666
-0.227855 -0.53872 -0.073316
-0.227855 0.776547 -0.097265
-0.230115 0.432851 -0.246072
-0.243235 -0.842453 0.213859
-0.243235 0.157929 0.093501
-0.227855 0.632088 0.093096
-0.227855 0.41064 -0.214894
-0.243235 -0.358438 -0.054589
-0.243235 -0.643323 -0.15011
-0.227855 -0.217606 -0.184948
-0.243235 -0.791395 -0.198207
-0.227855 -0.2093 -0.158164
-0.243235 0.517766 -0.219906
-0.227855 -0.848811 -0.066633
-0.227855 0.797449 -0.071118
-0.243235 -0.084315 0.072827
-0.243235 -0.516636 0.143349
-0.243235 0.674768 0.085849
-0.233016 -0.371368 -0.246072
-0.227855 -0.186141 -0.088228
-0.243235 -0.799683 -0.172313
-0.227855 0.567465 0.205391
-0.227855 0.217273 0.063735
-0.227855 -0.165821 0.151372
-0.243235 0.537685 -0.176139
-0.243235 0.320202 -0.054426
-0.243235 0.205284 0.038232
-0.243235 -0.566877 0.151298
-0.227855 0.430669 0.105367
-0.243235 0.610364 -0.099593
-0.227855 -0.126771 -0.021981
-0.243235 -0.044017 -0.095565
-0.243235 -0.067622 0.223202
-0.227855 0.060246 -0.03288
-0.227855 0.751793 0.083077
-0.227855 0.862367 -0.032168
-0.243235 -0.445204 0.003976
-0.243235 -0.452838 -0.028482
-0.243235 -0.420693 0.200688
-0.227855 0.566893 0.078876
-0.243235 0.064251 -0.231098
-0.227855 0.358619 0.097039
-0.243235 0.744432 -0.043102
-0.227855 -0.547117 0.118405
-0.227855 -0.659618 -0.088381
-0.243235 -0.080317 0.104125
-0.243235 0.139567 -0.212355
-0.227855 -0.140719 -0.20856
-0.227855 -0.383534 -0.20417
-0.227855 -0.017328 0.17898
-0.227855 0.404973 -0.05806
-0.227855 -0.579813 -0.138542
-0.243235 0.369685 0.202388
-0.243235 0.069864 -0.068378
-0.227855 -0.654299 -0.026383
-0.227855 0.892518 -0.246045
-0.227855 -0.79322 0.184077
-0.227855 -0.303645 -0.051074
-0.243235 0.092353 -0.165962
-0.243235 -0.144451 -0.012262
-0.227855 0.519227 -0.052514
-0.243235 -0.324826 -0.074545
-0.243235 -0.597317 -0.00343
-0.227855 -0.487716 0.175233
-0.243235 0.895085 -0.119207
-0.227855 0.539245 0.129445
-0.243235 0.941268 0.107194
-0.243235 0.888804 0.187238
-0.243235 -0.198919 -0.053791
-0.243235 0.028272 0.087914
-0.243235 -0.359653 0.125928
-0.243235 0.472148 -0.213384
-0.243235 -0.513329 -0.174129
-0.243235 0.46343 -0.127221
-0.227855 0.375807 -0.129812
-0.22952 -0.012263 -0.246072
-0.227855 -0.594022 0.165832
-0.227855 0.500739 0.139923
-0.227855 0.614364 0.153192
-0.243235 -0.601495 0.100936
-0.227855 -0.002681 -0.16667
-0.243235 0.233374 -0.224337
-0.243235 0.479401 0.198912
-0.243235 -0.787696 -0.0345
-0.243235 -0.469234 -0.20569
-0.243235 -0.695723 0.087536
-0.243235 -0.308139 -0.108709
-0.243235 0.3609 0.008175
-0.227855 -0.490635 0.121543
-0.243235 -0.568432 -0.089526
-0.243235 -0.791659 -0.242335
-0.227855 -0.603467 -0.222422
-0.227855 -0.355033 -0.101546
-0.227855 0.658207 0.133106
-0.243235 0.913156 -0.149442
-0.243235 -0.246385 -0.130854
-0.243235 -0.775779 0.097411
-0.227855 0.145438 -0.075651
-0.243235 0.678992 -0.184155
-0.227855 -0.807976 -0.126433
-0.227855 0.923044 -0.027267
-0.243235 -0.386171 -0.005903
-0.227855 0.173934 0.14348
-0.243235 -0.077649 -0.076807
-0.243235 -0.218485 0.114134
-0.243235 0.221729 -0.095175
-0.227855 -0.73106 0.208282
-0.243235 0.870186 0.069185
-0.243235 -0.293863 0.053881
-0.227855 -0.710669 0.130319
-0.243235 0.359521 0.062725
-0.227855 0.206359 0.224881
-0.243235 -0.646563 0.05849
-0.227855 -0.434876 -0.211019
-0.227855 0.491643 0.109282
-0.227855 -0.1566 -0.048455
-0.243235 0.935901 0.026539
-0.243235 0.948984 -0.057204
-0.243235 -0.026437 0.156313
-0.227855 -0.205805 -0.007623
-0.243235 0.880241 0.126932
-0.243235 -0.044974 0.073451
-0.227855 0.611389 6.5e-05
-0.243235 -0.844745 0.124522
-0.243235 0.285879 0.172104
-0.243235 -0.786746 0.023272
-0.227855 0.874548 -0.210553
-0.243235 0.008211 -0.218222
-0.242876 -0.474662 0.225588
-0.243235 0.177535 -0.104093
-0.243235 0.280624 0.028371
-0.227855 0.744872 0.188962
-0.227855 0.095952 -0.14159
-0.243235 -0.451958 0.083165
-0.227855 -0.197043 0.01593
-0.243235 0.299257 -0.210108
-0.227855 -0.818325 0.178935
-0.243235 -0.045589 0.193092
-0.243235 -0.797487 -0.147655
-0.227855 -0.499238 -0.221028
-0.243235 0.526714 -0.144931
-0.227855 0.467758 -0.105785
-0.227855 -0.112001 -0.190139
-0.227855 -0.22392 -0.101372
-0.227855 0.576347 -0.20306
-0.243235 0.779496 -0.184938
-0.243235 0.350067 -0.174859
-0.235181 0.961524 0.038073
-0.227855 -0.425713 0.049633
-0.243235 0.834663 0.168096
-0.243235 -0.865977 -0.182194
-0.243235 0.530816 0.158036
-0.243235 -0.038761 0.038722
-0.243235 -0.458246 0.188692
-0.227855 0.361875 0.035813
-0.227855 0.207846 -0.18371
-0.243235 0.381337 0.167831
-0.227855 -0.887678 0.121788
-0.243235 0.371989 -0.230433
-0.243235 -0.317831 0.086405
-0.227855 0.856856 0.035974
-0.227855 -0.246185 -0.083051
-0.243235 -0.122168 -0.151025
-0.227855 -0.823 -0.046935
-0.227855 0.492496 -0.087085
-0.243235 -0.319086 -0.231844
-0.227855 0.85225 -0.061705
-0.243235 0.034663 0.052823
-0.243235 -0.306686 -0.016739
-0.227855 0.701379 -0.039034
-0.227855 -0.61033 -0.110656
-0.227855 0.784599 0.078503
-0.243235 0.616512 -0.208539
-0.243235 -0.388155 0.211383
-0.227855 0.626089 -0.068697
-0.243235 0.103501 0.116424
-0.227855 0.778503 0.200385
-0.243235 0.859104 0.100425
-0.243235 -0.093123 -0.216078
-0.243235 -0.724724 -0.033354
-0.243235 -0.0833 -0.11157
-0.227855 -0.879348 -0.069606
-0.243235 0.705678 -0.125854
-0.227855 0.827075 -0.12313
-0.227855 -0.612689 0.201582
-0.243235 -0.537516 0.069866
-0.243235 0.825543 -0.092284
-0.243235 0.203196 0.199047
-0.243235 0.868447 -0.160143
-0.227855 -0.083376 -0.23116
-0.243235 -0.779161 -0.104884
-0.227855 0.11115 0.090786
-0.227855 -0.030437 0.137909
-0.22968 -0.752084 -0.246072
-0.243235 0.621112 0.177302
-0.243235 0.294687 -0.178891
-0.227855 0.496469 -0.155964
-0.227855 0.501056 -0.195924
-0.227855 -0.645103 -0.106234
-0.227855 -0.63265 0.10862
-0.243235 -0.556809 0.034787
-0.243235 -0.191207 0.120031
-0.243235 0.185221 -0.019769
-0.227855 0.573093 -0.128323
-0.243235 0.061278 -0.172916
-0.243235 0.107201 0.052434
-0.243235 0.670132 0.022925
-0.243235 -0.136384 -0.07069
-0.243235 0.160946 -0.169081
-0.227855 0.663996 -0.175004
-0.227855 -0.373042 -0.066147
-0.243235 -0.825872 -0.186146
-0.227855 0.567334 0.053679
-0.227855 -0.376258 0.007795
-0.227855 0.431033 0.025296
-0.243235 -0.000701 0.069066
-0.243235 -0.266505 0.132216
-0.227855 -0.346245 0.104023
-0.227855 0.722492 -0.013867
-0.227855 -0.018555 -0.01647
-0.243235 -0.139804 -0.225394
-0.243235 -0.033581 -0.033177
-0.227855 0.096653 -0.183806
-0.227855 0.688955 -0.129209
-0.243235 -0.556105 -0.050119
-0.243235 0.489476 0.058633
-0.227855 0.679889 -0.073645
-0.227855 -0.089983 0.153201
-0.227855 -0.219597 -0.061696
-0.227855 -0.066845 -0.062711
-0.227855 -0.646671 0.214537
-0.227855 0.64457 0.056622
-0.227855 -0.761504 -0.055663
-0.243235 -0.763584 0.072096
-0.227855 -0.185706 -0.026693
-0.243235 0.665541 -0.216595
-0.243235 -0.334665 0.192379
-0.227855 -0.729493 0.008258
-0.227855 -0.159687 -0.130917
-0.227855 0.769958 -0.0756
-0.243235 -0.507512 0.00281
-0.227855 -0.175578 0.083108
-0.227855 0.627197 -0.111505
-0.243235 0.33048 -0.09068
-0.243235 -0.058946 -0.227709
-0.227855 -0.470493 -0.160234
-0.243235 0.825836 -0.205623
-0.232409 0.904614 0.225588
-0.243235 -0.527462 0.17715
-0.227855 0.385737 0.027025
-0.243235 0.202214 -0.128993
-0.243235 0.590233 -0.129291
-0.227855 0.572964 0.01933
-0.243235 -0.437455 -0.107285
-0.227855 0.385639 0.102699
-0.227855 -0.098936 0.207473
-0.227855 0.492761 -0.008036
-0.243235 0.444658 0.067489
-0.243235 -0.209973 -0.199455
-0.227855 -0.492447 -0.052472
-0.243235 0.438085 -0.080976
-0.243235 0.936108 -0.145048
-0.227855 -0.166163 0.006627
-0.243235 -0.746081 0.022056
-0.227855 0.940256 -0.211642
-0.243235 -0.320735 0.139862
-0.227855 0.493297 0.166192
-0.227855 -0.490877 -0.191189
-0.227855 -0.61331 0.07298
-0.243235 -0.545133 -0.002204
-0.243235 -0.137835 0.09898
-0.227855 0.045576 0.126095
-0.243235 -0.837142 -0.223918
-0.243235 -0.399304 -0.200469
-0.243235 0.092973 -0.060881
-0.227855 -0.582964 -0.077582
-0.227855 0.090042 0.213519
-0.227855 -0.323802 0.221692
-0.243235 0.042191 0.105275
-0.243235 -0.759518 0.112922
-0.243235 -0.565014 -0.130886
-0.243235 0.127639 0.128372
-0.227855 -0.367412 0.066473
-0.243235 0.322862 -0.189542
-0.227855 -0.135002 0.165537
-0.227855 0.006188 -0.146304
-0.227855 0.25053 0.145306
-0.243235 0.032566 -0.235022
-0.227855 0.351256 -0.153773
-0.243235 0.852283 0.217989
-0.243235 0.210961 -0.002345
-0.227855 -0.335451 0.176439
-0.227855 0.245757 0.194355
-0.243235 0.204282 -0.034052
-0.227855 0.109409 -0.096131
-0.243235 -0.189203 0.224223
-0.243235 -0.043583 -0.132061
-0.227855 -0.313504 -0.13046
-0.227855 0.346149 -0.073233
-0.243235 -0.512084 0.055764
-0.227855 0.200465 0.152168
-0.227855 0.032757 0.162103
-0.243235 -0.278319 0.188167
-0.227855 0.30451 -0.225151
-0.227855 0.514061 0.063771
-0.243235 0.279061 0.216859
-0.227855 0.083697 0.04735
-0.243235 0.952498 -0.116135
-0.227855 0.093592 0.013903
-0.227855 -0.248065 0.152122
-0.243235 0.730141 0.122108
-0.243235 0.796983 -0.121543
-0.227855 -0.545171 0.056046
-0.243235 -0.420554 -0.194822
-0.243235 -0.20803 0.058082
-0.243235 -0.884928 0.189801
-0.227855 0.304625 0.156648
-0.243235 0.81186 0.155971
-0.227855 -0.055118 -0.042337
-0.227855 -0.70888 0.202344
-0.227855 0.744797 -0.126804
-0.243235 -0.448527 0.131812
-0.227855 -0.797242 0.124348
-0.243235 0.029927 0.009546
-0.243235 0.546874 -0.218662
-0.243235 0.317776 0.195657
-0.243235 0.637895 -0.002318
-0.227855 -0.036085 -0.243138
-0.243235 0.398666 0.141015
-0.243235 -0.284425 -0.147851
-0.243235 0.483356 0.08628
-0.227855 -0.740225 0.168615
-0.228681 -0.898633 -0.185716
-0.243235 -0.578027 0.088716
-0.243235 0.22061 -0.174924
-0.243235 -0.700138 -0.062998
-0.239168 0.537058 -0.246072
-0.227855 -0.536213 0.015226
-0.243235 0.203464 -0.206608
-0.243235 0.785891 -0.239618
-0.243235 -0.684189 -0.126035
-0.227855 0.024886 0.191341
-0.227855 0.041449 -0.11846
-0.227855 0.274332 0.045496
-0.243235 0.882613 0.208094
-0.243235 -0.417935 0.111347
-0.243235 -0.636679 -0.18788
-0.227855 0.203196 -0.162464
-0.227855 0.156466 0.205664
-0.243235 0.097979 -0.222668
-0.243235 -0.873607 0.127905
-0.243235 0.420578 0.145871
-0.227855 -0.173459 0.112088
-0.227855 -0.209946 0.087663
-0.243235 0.731313 0.073364
-0.243235 -0.873041 0.021917
-0.227855 0.043457 0.08893
-0.243235 0.148887 -0.09354
-0.227855 0.052798 0.000788
-0.243235 0.243683 -0.040417
-0.227855 -0.57435 -0.169991
-0.227855 -0.853665 0.096406
-0.227855 0.713158 0.178323
-0.227855 0.851264 -0.24239
-0.227855 -0.517549 -0.027169
-0.243235 -0.302338 -0.218259
-0.243235 -0.659918 -0.004257
-0.227855 -0.892709 0.064881
-0.227855 0.801466 0.031544
-0.243235 0.203985 0.169282
-0.227855 0.64282 -0.216502
-0.227855 -0.223679 0.143072
-0.227855 0.115333 -0.006082
-0.243235 -0.377354 -0.025497
-0.243235 -0.155618 0.04693
-0.243235 0.260807 -0.119646
-0.243235 -0.104867 -0.061211
-0.227855 0.142941 0.093903
-0.243235 -0.891055 -0.145371
-0.227855 -0.366041 0.182743
-0.227855 0.158003 0.119546
-0.227855 -0.82169 -0.084829
-0.227855 0.578475 -0.005072
-0.243235 -0.256579 -0.185004
-0.243235 -0.062412 0.003336
-0.243235 -0.714727 0.006534
-0.227855 -0.180541 -0.142976
-0.243235 -0.665223 0.224061
-0.227855 0.469823 -0.172523
-0.243235 -0.715537 0.144705
-0.227855 -0.868444 0.210406
-0.243235 -0.213033 -0.243878
-0.227855 -0.028118 0.023024
-0.243235 -0.212011 0.162876
-0.227855 0.536648 0.104935
-0.227855 -0.029633 -0.089719
-0.243235 -0.821621 0.01813
-0.243235 0.893008 0.008842
