0.189256 0.027447 0.6922890311977101
-0.024104 0.209304 0.6922890311977101
-0.002425 0.104643 0.6600610311977101
0.569437 0.369671 0.71870103119771
0.550975 0.186307 0.7245160311977101
-0.352297 0.285464 0.6600610311977101
0.019198 0.302732 0.72184503119771
-0.338152 0.353111 0.7245160311977101
-0.191054 0.131534 0.6922890311977101
-0.298742 0.342127 0.6922890311977101
0.068386 0.20875 0.7245160311977101
0.568878 0.103288 0.7191520311977101
-0.194453 0.310233 0.6600610311977101
0.575287 0.221608 0.7073230311977101
-0.398062 0.130985 0.6922890311977101
0.266603 -0.055623 0.7245050311977101
0.014341 0.005701 0.6922890311977101
-0.114077 -0.006103 0.6922890311977101
-0.250193 0.049419 0.6922890311977101
-0.078068 0.07916 0.7156720311977101
0.153684 0.060767 0.6600610311977101
-0.527898 0.02787 0.7245160311977101
-0.303775 0.075453 0.6922890311977101
0.431936 0.000851 0.7245160311977101
0.272719 0.079717 0.6600610311977101
-0.132481 -0.0492 0.6922890311977101
0.132327 0.235374 0.7245160311977101
-0.078682 0.11859 0.7245160311977101
-0.55384 0.237655 0.7245160311977101
0.345162 0.330107 0.6922890311977101
-0.178459 0.308353 0.7245160311977101
-0.254391 -0.045675 0.7245160311977101
0.196824 0.214556 0.6922890311977101
-0.402849 0.310693 0.7245160311977101
-0.053296 0.087321 0.6922890311977101
-0.35586 -0.00963 0.6922890311977101
0.382621 0.364732 0.6922890311977101
-0.301173 -0.065544 0.7148800311977102
-0.421368 0.083506 0.6600610311977101
0.081595 0.361983 0.7245160311977101
0.224482 0.261444 0.6600610311977101
-0.141881 0.010857 0.6922890311977101
-0.335281 0.062894 0.6600610311977101
0.096662 0.044622 0.6600610311977101
-0.390238 0.320226 0.6922890311977101
0.453342 0.089718 0.7137580311977101
0.045012 0.056958 0.7139460311977102
0.500831 0.331463 0.7245160311977101
0.245473 0.133805 0.7245160311977101
0.446917 0.339937 0.6922890311977101
0.25854 -0.003893 0.7245160311977101
0.282649 0.370459 0.7245160311977101
0.157045 0.134597 0.6922890311977101
-0.333467 0.232618 0.7245160311977101
-0.288053 0.153701 0.6600610311977101
0.417175 0.192436 0.7245160311977101
-0.274408 0.209244 0.7245160311977101
-0.205349 0.32617 0.7245160311977101
-0.468172 0.180668 0.6922890311977101
0.074462 0.066255 0.6922890311977101
-0.189024 0.377729 0.6922890311977101
0.181361 0.129483 0.7245160311977101
0.292512 0.018767 0.6922890311977101
0.152214 0.207874 0.6600610311977101
0.408366 0.302941 0.7240620311977101
-0.305018 0.307192 0.6922890311977101
-0.518589 -0.049825 0.6922890311977101
0.354822 0.297231 0.6922890311977101
0.487202 0.384744 0.6922890311977101
0.489153 0.18241 0.7233930311977101
0.190425 0.080032 0.7161620311977102
-0.070821 0.334313 0.7245160311977101
-0.058605 0.180412 0.7245160311977101
-0.196933 0.249832 0.6922890311977101
0.431269 0.261308 0.6922890311977101
-0.567361 0.171979 0.71384503119771
0.089953 0.135898 0.7245160311977101
-0.123217 0.345371 0.6922890311977101
0.057594 0.299147 0.7201200311977101
0.061865 0.335006 0.6922890311977101
-0.152735 0.30943 0.6922890311977101
0.102603 0.095952 0.6922890311977101
0.234768 0.348928 0.7245160311977101
0.404324 -0.057714 0.7201600311977101
-0.094739 0.026241 0.7150850311977102
0.083798 0.178946 0.7245160311977101
0.106195 0.304922 0.6922890311977101
-0.012081 -0.024128 0.6922890311977101
-0.021356 0.111555 0.7245160311977101
-0.358986 0.289138 0.6922890311977101
0.39255 0.3445 0.7245160311977101
0.255779 0.017765 0.6600610311977101
-0.046725 0.284856 0.6922890311977101
-0.105 0.071532 0.6922890311977101
0.267372 0.124408 0.6922890311977101
0.531854 0.080821 0.7245160311977101
-0.327483 0.135526 0.6922890311977101
0.251056 0.235374 0.6922890311977101
0.191946 0.221162 0.6600610311977101
-0.479208 0.210804 0.7203370311977101
0.182018 -0.002411 0.6922890311977101
0.444077 0.023582 0.6922890311977101
-0.406486 0.266688 0.71379103119771
-0.226137 0.060836 0.6600610311977101
-0.030146 0.131227 0.6600610311977101
0.117487 -0.058187 0.7200310311977101
-0.141066 0.08324 0.6600610311977101
-0.045195 0.223823 0.6600610311977101
-0.107753 0.302444 0.7217650311977101
-0.255908 0.041109 0.6600610311977101
0.484785 -0.028466 0.6922890311977101
-0.447664 0.301938 0.6922890311977101
-0.353088 0.33729 0.6922890311977101
-0.087351 -0.066518 0.71281103119771
0.429624 0.359373 0.7245160311977101
-0.429286 -0.022296 0.7245160311977101
0.297317 0.05831 0.6922890311977101
-0.155599 0.023271 0.71959703119771
0.225004 0.018854 0.7218470311977101
-0.36323 0.0305 0.6600610311977101
0.21423 0.016616 0.6600610311977101
-0.168842 0.062127 0.6922890311977101
0.381279 -0.008891 0.7245160311977101
-0.448497 0.148333 0.6600610311977101
0.405587 0.041374 0.6922890311977101
-0.24986 0.285482 0.6922890311977101
-0.375376 0.221145 0.6922890311977101
0.4123 0.102669 0.6922890311977101
0.295541 0.038235 0.6600610311977101
0.556043 -0.048477 0.6922890311977101
-0.390836 0.09703 0.6600610311977101
0.500734 0.102463 0.6922890311977101
0.486996 0.139627 0.7211560311977101
0.34456 0.029005 0.6922890311977101
-0.302807 0.217237 0.7245160311977101
-0.158351 -0.04219 0.7245160311977101
0.247896 0.073568 0.71520003119771
0.171187 0.281922 0.6922890311977101
0.402438 0.181342 0.6922890311977101
-0.235966 0.24685 0.6922890311977101
-0.177206 0.094871 0.6600610311977101
-0.467033 0.212894 0.6922890311977101
0.20975 -0.024305 0.6600610311977101
0.049556 0.002438 0.7245160311977101
0.3375 0.126355 0.6600610311977101
0.354376 0.096745 0.6922890311977101
-0.327391 0.043851 0.71295703119771
0.41382 0.159801 0.7245160311977101
0.352805 0.365027 0.6922890311977101
-0.289534 -0.008575 0.6600610311977101
-0.366602 0.110904 0.6922890311977101
-0.398157 0.050955 0.7134930311977101
-0.351416 -0.047312 0.6922890311977101
-0.336726 0.264937 0.6922890311977101
0.518489 0.136125 0.6922890311977101
-0.204981 -0.058396 0.7199740311977101
-0.069997 0.278396 0.6600610311977101
-0.122945 0.171226 0.7245160311977101
-0.199689 0.112046 0.7245160311977101
0.176883 -0.026249 0.7245160311977101
0.096658 0.047631 0.6922890311977101
0.523225 0.383989 0.7180860311977101
0.018875 0.246597 0.6922890311977101
-0.056341 -0.049242 0.7245160311977101
0.380417 0.063614 0.6600610311977101
0.572438 0.168323 0.69251703119771
0.472638 0.111306 0.6922890311977101
0.17422 0.23318 0.6922890311977101
-0.08588 0.292102 0.6922890311977101
0.098654 0.097969 0.7245160311977101
-0.228764 0.0602 0.7141910311977101
0.078193 -0.067483 0.7081490311977101
0.130915 0.319248 0.6861340311977101
-0.057526 0.040451 0.6922890311977101
0.232811 0.046221 0.6922890311977101
-0.200561 0.375515 0.7245160311977101
-0.242518 0.172483 0.6922890311977101
0.163936 0.339306 0.6922890311977101
-0.324521 0.378236 0.7231130311977101
-0.118664 0.257261 0.6600610311977101
0.320253 0.319248 0.6676410311977101
-0.071569 0.18536 0.6922890311977101
0.242886 0.094932 0.6922890311977101
-0.234709 0.204877 0.7245160311977101
0.540115 0.212534 0.7245160311977101
0.561367 0.316405 0.7245160311977101
0.43148 0.062887 0.6600610311977101
-0.443422 0.242181 0.6922890311977101
0.020702 0.146154 0.6922890311977101
0.399951 -0.024513 0.6703340311977101
0.175988 0.075078 0.6922890311977101
0.458045 0.157402 0.7134030311977101
0.419256 0.249669 0.71507603119771
0.304865 0.013951 0.7245160311977101
-0.540234 0.053248 0.7245160311977101
0.546758 0.267228 0.6922890311977101
0.170723 0.16959 0.6600610311977101
0.026776 0.063478 0.6922890311977101
0.034884 0.32167 0.6922890311977101
-0.108421 0.389075 0.6971530311977101
-0.08815 -0.031821 0.7245160311977101
-0.016915 0.057295 0.6922890311977101
-0.23874 0.388415 0.6943810311977101
0.295453 0.274979 0.6922890311977101
0.31164 0.316833 0.7245160311977101
0.334761 0.247606 0.7152310311977101
0.218892 0.075757 0.6922890311977101
0.16305 0.358008 0.7245160311977101
0.142404 -0.036466 0.6922890311977101
0.46441 0.279712 0.6922890311977101
0.323844 0.273909 0.6922890311977101
-0.349513 0.199249 0.6922890311977101
0.295129 0.195986 0.6922890311977101
-0.327221 0.006806 0.6922890311977101
-0.306694 0.319248 0.6621570311977101
0.068329 0.30382 0.6922890311977101
-0.174132 0.354387 0.6922890311977101
-0.152541 0.111359 0.7245160311977101
-0.121696 0.279765 0.6922890311977101
0.38628 0.2772 0.7129980311977101
0.130759 -0.012528 0.7245160311977101
0.163736 0.386509 0.7157490311977102
0.348207 0.257504 0.6922890311977101
-0.39136 0.349724 0.7245160311977101
-0.199934 0.133624 0.6600610311977101
0.027047 0.202239 0.6600610311977101
0.440032 0.212492 0.6922890311977101
0.205235 0.337124 0.7245160311977101
-0.280696 0.032261 0.6922890311977101
0.079349 -0.012527 0.7245160311977101
-0.380401 -0.065805 0.69310003119771
0.256763 0.220662 0.6600610311977101
0.125776 0.119794 0.6922890311977101
0.299244 -0.046208 0.6922890311977101
-0.285454 -0.028397 0.6922890311977101
0.452508 0.180157 0.6600610311977101
0.030666 0.185176 0.6922890311977101
-0.209725 0.01492 0.6922890311977101
0.282001 0.205116 0.7245160311977101
0.393645 -0.000202 0.6600610311977101
0.403973 0.319248 0.6851220311977101
-0.192984 0.205005 0.7245160311977101
0.469746 -0.062281 0.7181790311977101
-0.413317 0.295597 0.6922890311977101
0.270467 0.051652 0.6922890311977101
0.088177 0.339765 0.6922890311977101
0.200411 0.319248 0.67438203119771
0.048126 0.10959 0.6922890311977101
0.037992 0.083079 0.72356703119771
-0.510119 0.137916 0.7245160311977101
-0.557334 -0.015996 0.72440103119771
0.31162 0.237971 0.7241760311977101
0.086379 -0.020561 0.6922890311977101
-0.037648 -0.017092 0.6922890311977101
0.419157 -0.031599 0.6922890311977101
-0.231336 0.03086 0.6922890311977101
0.326216 0.081719 0.6922890311977101
-0.175743 0.191882 0.6922890311977101
0.000928 0.238688 0.7232750311977101
-0.290583 0.248761 0.6600610311977101
-0.026281 0.187393 0.6600610311977101
0.552613 0.030363 0.7245160311977101
0.138858 0.362638 0.6922890311977101
-0.221104 0.182494 0.7245160311977101
-0.09214 0.152089 0.7245160311977101
0.429073 0.025559 0.71636603119771
0.047073 0.022942 0.6922890311977101
-0.365778 0.319248 0.67013603119771
0.064548 0.037587 0.7106350311977101
0.549599 0.354759 0.6922890311977101
-0.030673 0.303667 0.7245160311977101
0.375631 0.06554 0.6922890311977101
-0.164528 0.252294 0.6922890311977101
-0.000309 0.274328 0.6600610311977101
-0.44751 0.026744 0.7101320311977101
0.127943 0.254216 0.6922890311977101
0.388438 0.119554 0.6922890311977101
-0.107311 0.033925 0.6922890311977101
0.437481 0.225592 0.7149550311977101
-0.282551 0.085158 0.6600610311977101
-0.10355 0.372482 0.7245160311977101
-0.309085 0.222741 0.6922890311977101
0.506282 0.289067 0.7245160311977101
0.069702 0.275978 0.6922890311977101
-0.215293 0.295001 0.7138960311977101
0.052458 0.231136 0.7245160311977101
0.3154 0.132116 0.7245160311977101
-0.509096 0.378286 0.7204380311977101
0.345158 -0.012507 0.6922890311977101
-0.438562 0.383735 0.7182910311977101
0.383095 0.014155 0.6922890311977101
0.132526 0.081166 0.7170120311977101
-0.236299 0.14749 0.6922890311977101
-0.403562 0.369677 0.6922890311977101
0.45534 0.310716 0.7245160311977101
-0.065403 0.284223 0.7105460311977101
0.097053 0.17124 0.6600610311977101
-0.27786 0.29767 0.6922890311977101
-0.232518 0.08564 0.6600610311977101
-0.360901 0.173352 0.6922890311977101
-0.289381 0.200752 0.6600610311977101
-0.215597 -0.024513 0.6855440311977101
-0.174867 0.048895 0.7133380311977101
0.121041 0.15259 0.6922890311977101
-0.098823 0.10629 0.6600610311977101
-0.3013 0.389075 0.7106230311977101
-0.110427 0.216734 0.6922890311977101
-0.479465 -0.025009 0.6922890311977101
0.553208 0.351042 0.7245160311977101
-0.386584 0.239409 0.7190960311977102
0.179001 0.061289 0.6600610311977101
0.122357 0.180051 0.6922890311977101
0.496726 0.359481 0.6922890311977101
0.210578 0.094697 0.7245160311977101
-0.450626 0.303478 0.4509010311977101
-0.450626 0.191638 0.5818820311977101
-0.450626 0.260813 0.29103703119771007
-0.450626 0.152289 0.3977200311977101
-0.450626 0.162415 0.17003503119771007
-0.482853 0.053713 0.23587203119771008
-0.450626 0.303953 0.1858200311977101
-0.458086 0.319248 0.5832370311977101
-0.450626 0.10831 0.4988040311977101
-0.464859 -0.024513 0.6709100311977101
-0.482853 0.028861 0.4380180311977101
-0.460154 0.089433 0.09070703119771009
-0.482853 0.078988 0.6023410311977101
-0.482853 0.156413 0.3057210311977101
-0.482853 0.195691 0.66813603119771
-0.457633 0.319249 0.3617270311977101
-0.468927 -0.024513 0.2814410311977101
-0.450626 0.219487 0.4799950311977101
-0.450626 0.244954 0.3942510311977101
-0.450626 0.076917 0.34418203119771007
-0.450626 0.066046 0.1630640311977101
-0.482853 0.191433 0.2332140311977101
-0.450626 0.122265 0.24125603119771008
-0.482853 0.166518 0.10425803119771007
-0.482853 0.252804 0.6076870311977101
-0.482853 0.316291 0.51437703119771
-0.482853 0.235434 0.1487690311977101
-0.482853 0.011144 0.5208230311977101
-0.480856 0.319249 0.26677503119771007
-0.450626 0.254698 0.5398170311977101
-0.482853 0.158156 0.4630670311977101
-0.480686 -0.024513 0.37819603119771006
-0.482853 0.120631 0.6634870311977101
-0.482853 -0.024189 0.1535950311977101
-0.482853 0.15888 0.5323960311977101
-0.450626 0.197238 0.3459180311977101
-0.478175 0.027514 0.09070703119771009
-0.482853 0.30543 0.1288920311977101
-0.482853 0.045057 0.6626690311977101
-0.482853 0.087821 0.3999260311977101
-0.482853 0.077369 0.53990003119771
-0.450626 0.048926 0.48478003119771007
-0.482853 0.018792 0.6015160311977101
-0.482853 0.25136 0.3440530311977101
-0.482853 0.117101 0.14780803119771008
-0.450626 0.128543 0.60859403119771
-0.482853 0.014062 0.3333460311977101
-0.482853 0.31423 0.6489910311977101
-0.450626 0.056077 0.28497903119771006
-0.450626 0.248391 0.2352810311977101
-0.482853 0.203608 0.4167070311977101
-0.482853 0.257044 0.4507100311977101
-0.450626 0.110306 0.44406503119771007
-0.482853 0.09843 0.3055740311977101
-0.482853 0.218981 0.2849090311977101
-0.480472 -0.024513 0.0911570311977101
-0.450626 0.037349 0.56630503119771
-0.450626 0.132478 0.3505050311977101
-0.482853 0.25305 0.5017630311977102
-0.450626 0.273694 0.6483470311977101
-0.482853 -0.00532 0.2372520311977101
-0.482853 0.294757 0.3959340311977101
-0.482853 -0.011724 0.4776940311977101
-0.482853 0.133515 0.1936140311977101
-0.482853 0.027951 0.13886803119771007
-0.450626 0.194376 0.5259150311977101
-0.482853 0.081593 0.1953610311977101
-0.482853 0.011914 0.1852570311977101
-0.450626 0.110681 0.5642340311977101
-0.482853 0.156505 0.62978203119771
-0.450626 0.201639 0.19992803119771008
-0.467172 -0.024513 0.61214103119771
-0.450626 -0.021905 0.3247650311977101
-0.482853 0.314872 0.3225370311977101
-0.450626 0.071683 0.6353390311977101
-0.450626 0.269839 0.15465903119771007
-0.482853 0.273706 0.25644703119771006
-0.481167 -0.024513 0.4240300311977101
-0.450626 0.025429 0.3840850311977101
-0.482853 0.283946 0.5688130311977101
-0.458853 0.304295 0.09070703119771009
-0.450626 0.302198 0.54252603119771
-0.450626 0.06701 0.4377670311977101
-0.482853 0.184969 0.14377903119771007
-0.450626 0.015096 0.6804000311977101
-0.482853 0.104858 0.3512400311977101
-0.450626 0.177737 0.4436810311977101
-0.482853 0.209539 0.6282540311977101
-0.450626 0.019545 0.3057460311977101
-0.450626 0.022514 0.2441300311977101
-0.482853 0.029617 0.2801390311977101
-0.450626 0.288853 0.32885803119771007
-0.464217 0.21898 0.09070703119771009
-0.482853 0.172585 0.3554260311977101
-0.482853 0.073432 0.12124603119771007
-0.482853 0.293503 0.6102590311977101
-0.482853 0.146793 0.2662560311977101
-0.482853 0.092884 0.4615780311977101
-0.450626 0.065676 0.2140170311977101
-0.482853 0.263909 0.10856503119771008
-0.450626 0.250939 0.19523503119771007
-0.482853 0.287518 0.4812640311977101
-0.482853 0.214768 0.5769830311977101
-0.450626 0.264598 0.5822530311977101
-0.450626 0.174117 0.6452410311977101
-0.450626 0.29466 0.2481500311977101
-0.482853 0.183429 0.5017690311977101
-0.482853 0.173647 0.19824203119771008
-0.482853 0.130537 0.4970770311977101
-0.476222 0.319248 0.42578903119771006
-0.450626 0.015986 0.63750703119771
-0.450626 0.043841 0.6079810311977101
-0.482853 0.206947 0.3782380311977101
-0.450626 0.174022 0.2939640311977101
-0.450626 0.073418 0.3844960311977101
-0.482853 0.240082 0.6563510311977101
-0.482853 0.049812 0.3946040311977101
-0.450626 0.101172 0.28545803119771007
-0.450626 0.07662 0.51972703119771
-0.482853 0.226544 0.5286990311977101
-0.450626 0.213825 0.1572860311977101
-0.482853 0.063811 0.4962370311977101
-0.453617 0.319249 0.1522110311977101
-0.482853 0.00867 0.39451203119771006
-0.450626 0.123959 0.17825503119771008
-0.482853 0.17857 0.60047303119771
-0.482853 0.066045 0.3305410311977101
-0.450626 0.024784 0.4212740311977101
-0.469848 -0.024513 0.20836003119771007
-0.450626 0.237181 0.3346750311977101
-0.482853 0.135524 0.4345140311977101
-0.450626 0.090425 0.12571303119771007
-0.450626 0.077677 0.5859350311977101
-0.450626 0.21254 0.23975703119771008
-0.482853 0.166791 0.39089103119771007
-0.450626 -0.016701 0.4632290311977101
-0.450626 0.230231 0.4265980311977101
-0.482853 0.029697 0.5510540311977101
-0.482853 0.257626 0.18202503119771007
-0.450626 0.275776 0.4113550311977101
-0.450626 0.002638 0.5367190311977101
-0.482853 0.097545 0.5087250311977101
-0.451872 -0.024513 0.11441803119771007
-0.450626 0.149073 0.3197910311977101
-0.482853 0.256472 0.3037240311977101
-0.482853 0.282988 0.15807103119771007
-0.450626 0.020275 0.11809603119771009
-0.450626 0.147267 0.5360930311977101
-0.454004 -0.024513 0.39997503119771005
-0.482853 0.001551 0.5708430311977101
-0.482853 0.039959 0.6287580311977101
-0.451678 0.319248 0.6168660311977101
-0.450626 0.230784 0.5642110311977101
-0.450626 0.308644 0.6588120311977101
-0.482853 0.113302 0.2602080311977101
-0.450626 0.162253 0.6090950311977101
-0.450626 0.142486 0.0972880311977101
-0.482853 0.058481 0.4536710311977101
-0.482853 0.16942 0.4315270311977101
-0.482853 0.09399 0.6431920311977101
-0.450626 0.257008 0.45851803119771006
-0.468463 0.044713 0.6922890311977101
-0.482853 0.066678 0.15678003119771008
-0.482853 0.128737 0.11711003119771007
-0.450626 0.044355 0.6564940311977101
-0.482853 0.299907 0.3537130311977101
-0.482853 0.280607 0.4254660311977101
-0.450626 0.252076 0.12284003119771009
-0.450626 0.187124 0.4754840311977101
-0.482853 0.132996 0.3678440311977101
-0.450626 -0.006175 0.3673650311977101
-0.450626 0.250607 0.6116990311977101
-0.482853 0.111997 0.5629170311977101
-0.482853 0.082301 0.27779003119771006
-0.450626 -0.023002 0.2550830311977101
-0.450626 0.283792 0.61786803119771
-0.482853 0.085458 0.23159103119771007
-0.450626 0.098397 0.31734503119771007
-0.482853 -0.018749 0.6393870311977101
-0.475435 0.140996 0.6922890311977101
-0.450626 0.193351 0.61528503119771
-0.450626 0.301559 0.4824380311977101
-0.450626 0.079098 0.4669330311977101
-0.482853 0.283443 0.65104303119771
-0.451853 -0.024513 0.14523203119771008
-0.482853 0.067563 0.4229480311977101
-0.450626 0.291759 0.1293120311977101
-0.450626 0.128356 0.27124203119771007
-0.450626 0.302103 0.21851803119771007
-0.482853 0.187873 0.5630750311977101
-0.450626 0.290978 0.2910390311977101
-0.482853 -0.023952 0.12105403119771008
-0.482853 0.016122 0.4651060311977101
-0.450626 0.137624 0.5079950311977101
-0.450626 0.002667 0.4949600311977101
-0.450626 0.222964 0.36063903119771007
-0.482853 0.105783 0.1786270311977101
-0.450626 0.048289 0.3657840311977101
-0.450626 0.219593 0.5115940311977101
-0.482853 0.218247 0.44172303119771006
-0.482853 0.134256 0.33896203119771007
-0.482853 0.188889 0.5343550311977101
-0.450626 0.268507 0.37778503119771006
-0.482853 0.040061 0.5824140311977101
-0.450626 0.198447 0.3752920311977101
-0.482853 0.184801 0.3042250311977101
-0.45675 0.319249 0.3329070311977101
-0.482853 0.041741 0.2101040311977101
-0.450626 0.080841 0.1903670311977101
-0.482853 -0.006093 0.5429610311977101
-0.482853 0.25479 0.5797080311977101
-0.450626 0.107274 0.41622803119771007
-0.450626 0.008284 0.4507530311977101
-0.473017 0.319249 0.17228403119771007
-0.450626 0.270903 0.6760590311977102
-0.482853 0.144914 0.1479650311977101
-0.482853 0.090828 0.6805380311977101
-0.481936 0.319248 0.6216970311977101
-0.450626 0.04853 0.18449903119771008
-0.482853 0.161742 0.6755410311977101
-0.482853 0.240509 0.6904110311977101
-0.482853 0.209064 0.3506560311977101
-0.450626 0.20525 0.4545940311977101
-0.482853 -0.003785 0.6622540311977101
-0.450626 0.051077 0.3353960311977101
-0.482853 0.108782 0.4393880311977101
-0.450626 0.046788 0.5409000311977101
-0.482853 0.310502 0.54083903119771
-0.450626 0.184087 0.1433320311977101
-0.482853 0.019488 0.22715503119771008
-0.482853 0.144126 0.2396340311977101
-0.482853 0.027228 0.2534920311977101
-0.480892 0.072727 0.09070703119771009
-0.450626 -0.02193 0.6431420311977101
-0.482853 0.300155 0.6857480311977101
-0.450626 0.076067 0.6725940311977101
-0.450626 0.128454 0.6773430311977101
-0.482853 0.216472 0.5042820311977101
-0.450626 0.115446 0.5383440311977101
-0.458393 -0.010773 0.6922890311977101
-0.482853 0.301852 0.1971180311977101
-0.450626 0.252473 0.3570610311977101
-0.450626 0.175584 0.3606690311977101
-0.450626 0.226053 0.26207603119771006
-0.450626 0.128807 0.21600003119771008
-0.482853 0.21247 0.1365060311977101
-0.450626 0.135083 0.43620203119771006
-0.450626 0.248127 0.6528110311977101
-0.450626 0.139907 0.5608060311977101
-0.482853 0.024024 0.4984840311977101
-0.482853 0.089192 0.37418303119771007
-0.482853 0.103075 0.5869590311977101
-0.450626 -0.003985 0.4148200311977101
-0.450626 0.062502 0.09746203119771008
-0.450626 0.087639 0.5538760311977101
0.457119 0.210015 0.4699790311977101
0.457119 0.114972 0.2516760311977101
0.459119 -0.014943 0.09070703119771009
0.457119 0.149079 0.60908303119771
0.457119 -0.02238 0.3003290311977101
0.473721 0.319249 0.3127260311977101
0.457119 0.310399 0.5328760311977101
0.489346 0.019562 0.4940060311977101
0.457119 0.148338 0.3709960311977101
0.489346 0.218036 0.16143203119771007
0.457119 0.31744 0.2117900311977101
0.489346 0.11871 0.49658203119771005
0.489346 0.268037 0.64152303119771
0.489346 0.03293 0.6397430311977101
0.457119 0.231391 0.27787303119771006
0.457076 0.282757 0.4099780311977101
0.457119 0.050018 0.3639100311977101
0.489346 0.135458 0.6920290311977101
0.489346 0.058376 0.1413050311977101
0.489346 0.202657 0.54995403119771
0.487589 -0.024513 0.4206790311977101
0.478144 -0.024513 0.5679150311977101
0.489346 0.072798 0.5722710311977101
0.489346 0.097758 0.4229740311977101
0.457119 0.219614 0.3557420311977101
0.489346 0.178385 0.2360300311977101
0.457119 0.11049 0.1781320311977101
0.489346 0.046512 0.26467803119771005
0.489346 0.266465 0.4950900311977101
0.489346 0.181918 0.4193350311977101
0.489346 0.181889 0.3141000311977101
0.489346 0.256681 0.2118160311977101
0.489346 0.314291 0.5990700311977101
0.457119 0.043484 0.4478880311977101
0.457119 0.253098 0.5920600311977101
0.489346 -0.010406 0.14276203119771008
0.489346 0.318606 0.4460400311977101
0.457119 0.288324 0.16121003119771007
0.486144 -0.024513 0.23244403119771007
0.489346 0.188036 0.11189803119771008
0.457119 0.156154 0.5377680311977101
0.467287 0.251601 0.6922890311977101
0.457119 0.168037 0.18932203119771007
0.489346 0.260196 0.3317410311977101
0.489346 0.042822 0.20303803119771008
0.489346 -0.022956 0.6267010311977101
0.457119 -0.022209 0.5140250311977101
0.489346 0.29354 0.2532860311977101
0.457119 0.08134 0.6704560311977101
0.457119 0.318101 0.66690803119771
0.457119 0.138957 0.4382980311977101
0.457119 0.05973 0.5115040311977102
0.489346 0.011607 0.34287303119771007
0.457119 0.030832 0.5599580311977101
0.489346 0.300731 0.12054003119771009
0.489346 0.043216 0.09130603119771008
0.457119 0.303053 0.3632710311977101
0.489346 0.103381 0.6122400311977101
0.457119 0.027406 0.3074980311977101
0.489346 0.214104 0.5982860311977101
0.489346 0.243613 0.4514960311977101
0.488215 -0.024513 0.46982603119771005
0.457119 0.213129 0.2243630311977101
0.489346 0.147496 0.1390240311977101
0.489346 0.032082 0.4135650311977101
0.457119 0.161162 0.2677600311977101
0.457119 0.10638 0.1300860311977101
0.489346 0.172564 0.6353920311977101
0.461787 -0.024513 0.35686303119771007
0.457119 0.238217 0.5469330311977101
0.489346 0.261775 0.38241603119771006
0.489346 0.163295 0.57800303119771
0.489346 0.313225 0.4939850311977101
0.489346 0.176813 0.4754490311977101
0.457119 0.077358 0.2096620311977101
0.457076 0.28168 0.4556090311977101
0.457119 0.081482 0.2821370311977101
0.489346 -0.002926 0.27596403119771007
0.487262 0.319248 0.4016390311977101
0.489346 -0.003519 0.6729550311977102
0.457119 0.221237 0.3999150311977101
0.489346 0.089222 0.10034703119771007
0.458742 -0.024513 0.1713880311977101
0.457119 0.100322 0.5266510311977101
0.457781 0.319249 0.2677320311977101
0.457119 0.094934 0.3394050311977101
0.489346 0.283167 0.53992803119771
0.489346 0.081085 0.38367503119771007
0.489346 0.224679 0.5134100311977101
0.457119 0.054207 0.6217540311977101
0.489346 0.122255 0.36137403119771005
0.489346 0.260758 0.16301703119771008
0.489346 0.12505 0.5384860311977101
0.457119 0.189118 0.5847760311977102
0.484769 0.319249 0.1648870311977101
0.457119 0.256388 0.1345060311977101
0.489346 0.01943 0.5834110311977101
0.457119 0.259492 0.2374120311977101
0.457119 0.135133 0.65420603119771
0.457119 0.145316 0.2226230311977101
0.489346 0.233291 0.30210803119771007
0.489346 0.274284 0.5814570311977101
0.489346 0.074349 0.5297420311977101
0.489346 0.24641 0.2601180311977101
0.457119 0.115248 0.47412403119771007
0.457119 0.04548 0.24250003119771008
0.489346 0.157541 0.5156370311977101
0.457119 0.175649 0.33534803119771006
0.457119 0.239563 0.4955100311977101
0.457119 0.1828 0.4420580311977101
0.489346 0.260371 0.10237303119771007
0.489067 0.319248 0.6427090311977102
0.489346 0.179603 0.16678903119771007
0.457119 0.132355 0.5683850311977101
0.457119 0.246675 0.6485690311977101
0.489346 0.198361 0.2792270311977101
0.457119 0.277693 0.6216450311977101
0.457119 0.239367 0.1963090311977101
0.489346 0.122873 0.27084403119771006
0.489346 0.115585 0.2310110311977101
0.489346 0.282068 0.43499003119771007
0.489346 0.076443 0.18513703119771008
0.489346 -0.005536 0.52531103119771
0.489346 -0.019289 0.38310703119771006
0.489346 0.157751 0.3885390311977101
0.457119 0.174811 0.40094803119771005
0.489346 0.152706 0.3391020311977101
0.457119 0.230109 0.4373550311977101
0.457119 0.07885 0.42026803119771006
0.489346 0.303226 0.1982790311977101
0.457119 0.122412 0.3973320311977101
0.457119 0.194534 0.6375650311977101
0.457119 0.272172 0.3188750311977101
0.457119 0.016531 0.5106650311977101
0.457119 0.200017 0.5344620311977101
0.489346 0.308446 0.67926703119771
0.489346 0.207408 0.3936450311977101
0.489346 0.033628 0.4614180311977101
0.489346 0.013307 0.18347703119771008
0.460358 0.319248 0.4746570311977101
0.489346 0.218798 0.2121080311977101
0.489346 0.132808 0.6409190311977101
0.457119 0.158482 0.14661503119771008
0.457119 -0.016675 0.6921840311977101
0.489346 0.092969 0.14423403119771008
0.457119 0.129628 0.3384130311977101
0.457119 0.270464 0.5594040311977101
0.489346 0.246256 0.4133120311977101
0.457119 0.014672 0.1080540311977101
0.457119 0.305011 0.59152803119771
0.457119 0.014634 0.42951503119771006
0.457119 0.291004 0.11541803119771007
0.485379 0.316603 0.09070703119771009
0.457119 0.115149 0.6065840311977101
0.457119 0.280919 0.2633760311977101
0.489346 -0.008385 0.3158840311977101
0.457076 0.273361 0.50130003119771
0.489346 0.079687 0.6612380311977101
0.489346 0.304294 0.2850710311977101
0.489346 0.146412 0.2458330311977101
0.489346 0.021957 0.3817880311977101
0.489346 0.073556 0.2454330311977101
0.489346 0.317842 0.53551903119771
0.464728 0.319249 0.13265903119771008
0.457119 0.081546 0.24905603119771008
0.489346 0.073665 0.4456140311977101
0.457119 -0.017939 0.4012360311977101
0.457119 0.067078 0.5918450311977101
0.457119 0.043881 0.19898003119771007
0.463171 -0.024513 0.4491210311977101
0.457119 0.195044 0.2772120311977101
0.489346 0.109878 0.17481203119771008
0.457119 0.027995 0.27537503119771006
0.489346 0.219474 0.10530503119771009
0.489346 0.005139 0.24381203119771008
0.489346 0.166612 0.2863010311977101
0.489346 0.161262 0.67362303119771
0.457119 0.144984 0.11711203119771008
0.457119 0.092888 0.6411580311977101
0.457119 0.256068 0.3933130311977101
0.489346 -0.017148 0.09897103119771009
0.457119 0.23818 0.3084470311977101
0.489346 0.10408 0.46897703119771006
0.457119 0.306171 0.6344790311977101
0.457119 0.134666 0.6853550311977101
0.457119 0.086052 0.5539790311977101
0.489346 0.278056 0.6124580311977101
0.457119 0.163128 0.5685030311977101
0.489346 0.029672 0.2900650311977101
0.489346 0.226891 0.4830430311977101
0.489346 0.265846 0.13302103119771008
0.489346 0.041389 0.2333890311977101
0.457119 0.020352 0.14039903119771008
0.457119 0.031009 0.6024710311977101
0.457119 0.005363 0.6670250311977101
0.489346 0.204444 0.6607820311977101
0.457076 0.252202 0.4609550311977101
0.489346 -0.02395 0.5969940311977101
0.489346 0.101765 0.5656250311977101
0.457119 0.293094 0.19046703119771008
0.489346 0.276586 0.30712303119771006
0.457119 0.084295 0.1648340311977101
0.489346 0.125535 0.41341503119771006
0.483588 0.078741 0.6922890311977101
0.489346 0.194474 0.4987320311977101
0.489346 0.066552 0.5016380311977101
0.457119 0.204833 0.1964130311977101
0.489083 0.286874 0.09070703119771009
0.457119 0.270844 0.2109020311977101
0.489346 0.003659 0.4094910311977101
0.476789 0.319249 0.24625303119771008
0.457119 0.289849 0.6623990311977102
0.489346 0.005283 0.6324980311977101
0.489346 0.061304 0.6368060311977101
0.457119 0.132229 0.5222770311977101
0.489346 0.268683 0.68649503119771
0.457119 0.173927 0.21711203119771008
0.457119 0.097939 0.4983690311977101
0.457119 0.172766 0.51495503119771
0.457119 0.125202 0.1540650311977101
0.457119 0.019648 0.3638900311977101
0.457119 0.26426 0.43354803119771007
0.489346 -0.009373 0.4933220311977101
0.489346 0.187679 0.4467050311977101
0.457119 -0.023053 0.13914503119771007
0.489346 0.273403 0.2337740311977101
0.489346 0.129317 0.2975970311977101
0.471242 0.053246 0.6922890311977101
0.457119 0.310469 0.5645950311977102
0.489346 0.23327 0.6179080311977101
0.489346 0.158672 0.09262303119771009
0.457119 0.099953 0.10349403119771008
0.489346 -0.00327 0.4527080311977101
0.457076 0.257324 0.52300603119771
0.457119 0.264053 0.1728050311977101
0.489346 0.237595 0.1796890311977101
0.457119 0.171494 0.4662380311977101
0.489346 0.109811 0.1236530311977101
0.489346 0.023625 0.6860510311977102
0.457119 0.138672 0.1970520311977101
0.489346 0.048039 0.6613740311977101
0.489346 0.240965 0.23443003119771008
0.457119 -0.015744 0.6466520311977101
0.489346 0.048043 0.38363203119771006
0.489346 0.263953 0.5210530311977101
0.463297 0.042979 0.09070703119771009
0.489346 0.032993 0.13659203119771007
0.489346 -0.011275 0.2107720311977101
0.489346 0.12599 0.15500403119771008
0.467631 0.273181 0.09070703119771009
0.489346 0.273267 0.18514403119771008
0.457119 0.200983 0.4936280311977101
-0.035036 -0.024513 0.09452303119771008
0.223151 0.319248 0.11656303119771008
-0.425434 -0.003244 0.1229340311977101
-0.344494 0.264305 0.1229340311977101
-0.015223 0.215719 0.1229340311977101
0.440143 0.319248 0.10230503119771009
-0.186531 0.189664 0.09070703119771009
0.267656 0.15573 0.09070703119771009
-0.319567 0.110003 0.1229340311977101
0.094642 0.091628 0.09070703119771009
-0.163698 0.04024 0.09070703119771009
0.086032 0.318193 0.09070703119771009
-0.138123 0.315841 0.09070703119771009
-0.285351 -0.016463 0.09070703119771009
0.151646 0.219195 0.1229340311977101
-0.031981 0.099033 0.09070703119771009
0.190828 0.008544 0.09070703119771009
0.384265 0.212207 0.09070703119771009
0.079797 -0.024513 0.11525403119771008
0.331142 0.319248 0.12144103119771008
-0.240862 0.284381 0.09070703119771009
-0.447313 0.257232 0.09070703119771009
0.393519 0.086376 0.1229340311977101
-0.038358 0.308625 0.09070703119771009
-0.388467 0.172168 0.09070703119771009
0.186522 0.10782 0.09070703119771009
-0.273056 0.194706 0.1229340311977101
0.068134 0.198002 0.09070703119771009
-0.09187 0.168015 0.1229340311977101
-0.23453 0.093929 0.1229340311977101
0.246075 0.240946 0.09070703119771009
0.027594 0.050406 0.1229340311977101
-0.345131 0.030991 0.1229340311977101
0.27705 0.049842 0.09070703119771009
-0.210894 -0.024513 0.11399003119771009
-0.101817 -0.001551 0.1229340311977101
-0.116422 0.243 0.09070703119771009
-0.129023 0.110296 0.09070703119771009
-0.407819 0.319248 0.1086120311977101
0.454864 0.246811 0.09070703119771009
0.256491 -0.024513 0.09403103119771009
-0.395389 0.092911 0.1229340311977101
0.387406 -0.024513 0.09264103119771008
0.026279 0.296238 0.1229340311977101
-0.180075 0.265676 0.1229340311977101
-0.300278 0.319248 0.11456703119771008
0.134739 0.035748 0.1229340311977101
0.044307 0.128127 0.1229340311977101
0.315419 0.203587 0.09070703119771009
0.347442 0.135359 0.1229340311977101
-0.048345 0.039138 0.1229340311977101
0.219634 0.05818 0.1229340311977101
-0.363397 -0.024513 0.09287003119771009
0.119782 0.162053 0.1229340311977101
0.417315 0.166057 0.1229340311977101
-0.280065 0.061021 0.09070703119771009
-0.327047 0.205054 0.09070703119771009
0.149308 0.317714 0.09070703119771009
0.353791 0.049876 0.09070703119771009
0.360791 0.273669 0.09070703119771009
-0.06688 0.262693 0.1229340311977101
0.178005 0.172998 0.09070703119771009
0.413293 0.032324 0.09070703119771009
-0.030835 0.155955 0.1229340311977101
0.018535 -0.023106 0.1229340311977101
0.278986 0.319248 0.0917940311977101
0.108476 0.273263 0.1229340311977101
0.222402 0.196967 0.1229340311977101
0.143001 -0.024513 0.10123303119771007
-0.270094 0.127979 0.09070703119771009
-0.436624 0.209218 0.1229340311977101
-0.29591 0.259983 0.09070703119771009
-0.111492 0.055967 0.1229340311977101
-0.212997 0.149454 0.1229340311977101
0.197566 0.274203 0.09070703119771009
-0.201592 0.319248 0.1129390311977101
0.045067 0.253236 0.09070703119771009
-0.223893 0.230935 0.09070703119771009
0.293855 0.091764 0.1229340311977101
-0.429654 0.136401 0.1229340311977101
-0.09133 0.319248 0.1194350311977101
0.307092 0.263014 0.09070703119771009
-0.377722 0.214015 0.1229340311977101
-0.383597 0.049789 0.09070703119771009
-0.155595 -0.011196 0.1229340311977101
-0.077201 0.128307 0.09070703119771009
0.043308 0.011534 0.09070703119771009
-0.145045 0.194082 0.1229340311977101
-0.008845 0.256841 0.09070703119771009
-0.345006 0.143473 0.09070703119771009
0.237519 0.09737 0.09070703119771009
-0.196047 0.08313 0.09070703119771009
0.111639 0.224289 0.09070703119771009
0.133413 0.090183 0.1229340311977101
-0.069045 0.08761 0.1229340311977101
0.411157 0.28473 0.1229340311977101
0.315367 -0.006334 0.09070703119771009
0.228836 0.010113 0.1229340311977101
-0.328008 0.070082 0.09070703119771009
0.429359 0.078997 0.09070703119771009
-0.001902 0.178173 0.09070703119771009
0.446479 0.21142 0.1229340311977101
-0.431777 0.046627 0.09070703119771009
-0.167488 0.13418 0.1229340311977101
-0.077735 0.200243 0.09070703119771009
0.310671 0.121566 0.09070703119771009
0.015506 0.109833 0.09070703119771009
0.273548 0.261932 0.1229340311977101
0.242484 0.133751 0.1229340311977101
-0.327284 -0.024513 0.1217690311977101
0.36766 0.241381 0.1229340311977101
0.347436 0.08438 0.1229340311977101
-0.254201 0.017502 0.09070703119771009
-0.246535 0.175822 0.09070703119771009
-0.29319 0.150235 0.1229340311977101
0.082599 0.04816 0.09070703119771009
0.392568 0.310117 0.09070703119771009
0.340267 0.179625 0.1229340311977101
0.375814 0.147991 0.09070703119771009
0.167746 0.132512 0.1229340311977101
0.449564 0.160457 0.09070703119771009
-0.406107 0.225783 0.09070703119771009
0.181528 0.226229 0.09070703119771009
-0.440934 0.178906 0.09070703119771009
-0.327548 0.293524 0.09070703119771009
-0.254151 -0.021736 0.1229340311977101
-0.419566 0.269405 0.1229340311977101
0.037755 0.158654 0.09070703119771009
0.149075 0.062217 0.09070703119771009
0.118109 0.128037 0.09070703119771009
0.175861 0.255445 0.1229340311977101
-0.0163 0.002245 0.1229340311977101
0.272462 0.19854 0.09070703119771009
-0.220283 0.118379 0.09070703119771009
0.298941 0.22617 0.1229340311977101
-0.271542 0.247116 0.1229340311977101
-0.406631 -0.02316 0.09070703119771009
0.215805 0.13977 0.09070703119771009
0.056941 0.222938 0.1229340311977101
-0.208132 0.206336 0.1229340311977101
0.204892 -0.024513 0.11204803119771009
-0.008267 0.07166 0.1229340311977101
-0.154827 0.162812 0.09070703119771009
0.178809 0.082841 0.1229340311977101
0.123499 0.315764 0.1229340311977101
-0.174737 0.068755 0.1229340311977101
-0.208621 0.01566 0.1229340311977101
0.388133 0.037365 0.1229340311977101
0.246373 0.282089 0.09070703119771009
0.004341 0.308926 0.09070703119771009
-0.182022 0.240687 0.09070703119771009
-0.181756 0.291536 0.09070703119771009
0.392908 0.130001 0.1229340311977101
0.085518 0.007627 0.09070703119771009
-0.314306 0.03198 0.09070703119771009
-0.120781 0.191316 0.09070703119771009
-0.037729 0.205588 0.09070703119771009
0.314711 0.063895 0.09070703119771009
0.361466 -0.019711 0.1229340311977101
0.289697 0.133094 0.1229340311977101
0.12907 0.260158 0.09070703119771009
-0.314374 0.238506 0.1229340311977101
-0.357247 0.122176 0.1229340311977101
-0.418624 0.116314 0.09070703119771009
-0.064765 0.239898 0.09070703119771009
0.052481 0.291934 0.09070703119771009
-0.231533 0.252254 0.1229340311977101
-0.333263 0.183323 0.1229340311977101
0.132918 0.012049 0.09070703119771009
0.082549 0.173891 0.1229340311977101
-0.136537 -0.000682 0.09070703119771009
0.024275 0.248432 0.1229340311977101
0.421192 0.26568 0.09070703119771009
0.016766 0.161408 0.1229340311977101
0.007944 0.057676 0.09070703119771009
-0.015948 0.276474 0.1229340311977101
0.291196 0.188699 0.1229340311977101
-0.108882 0.11242 0.1229340311977101
-0.285374 0.223466 0.09070703119771009
-0.119784 0.223266 0.1229340311977101
0.032202 0.210127 0.09070703119771009
0.05155 0.098729 0.09070703119771009
0.184569 0.319248 0.10383203119771009
0.069625 0.307783 0.1229340311977101
0.338024 0.282299 0.1229340311977101
-0.025002 0.116853 0.1229340311977101
0.002475 0.005918 0.09070703119771009
-0.29095 0.169223 0.09070703119771009
-0.261437 0.283073 0.1229340311977101
0.444472 0.123486 0.09070703119771009
-0.279401 0.111715 0.1229340311977101
-0.107651 0.28595 0.1229340311977101
0.385195 0.19357 0.1229340311977101
-0.335008 0.241316 0.09070703119771009
-0.094502 0.049572 0.09070703119771009
-0.271028 0.045645 0.1229340311977101
0.258274 0.082273 0.1229340311977101
-0.18644 -0.010226 0.09070703119771009
0.376416 0.296219 0.1229340311977101
0.212422 0.254397 0.1229340311977101
0.416669 0.228983 0.09070703119771009
-0.346506 0.085482 0.1229340311977101
-0.260038 0.315347 0.09070703119771009
-0.391514 0.134142 0.1229340311977101
0.402009 0.173077 0.09070703119771009
-0.244953 0.132301 0.1229340311977101
0.170862 0.032842 0.1229340311977101
-0.319966 -0.005804 0.09070703119771009
0.356409 0.181384 0.09070703119771009
-0.03809 0.026601 0.09070703119771009
-0.144179 0.26236 0.1229340311977101
-0.062285 0.224376 0.1229340311977101
0.091078 0.212019 0.1229340311977101
-0.309877 0.046901 0.1229340311977101
0.306134 -0.024513 0.1200730311977101
0.280459 0.102493 0.09070703119771009
-0.182825 0.168563 0.1229340311977101
0.103579 0.123698 0.1229340311977101
-0.22503 0.294425 0.1229340311977101
-0.244577 0.060361 0.09070703119771009
-0.077019 0.16372 0.09070703119771009
-0.06651 -0.009306 0.09070703119771009
0.149055 0.192939 0.09070703119771009
0.079401 0.2605 0.09070703119771009
0.323423 0.029945 0.09070703119771009
-0.426802 0.29024 0.09070703119771009
-0.258215 0.250047 0.09070703119771009
-0.374039 0.059494 0.1229340311977101
-0.415462 0.015741 0.09070703119771009
0.078269 0.12238 0.09070703119771009
0.021524 0.089586 0.1229340311977101
0.412282 0.11065 0.09070703119771009
-0.154104 0.227837 0.1229340311977101
-0.148259 0.212378 0.09070703119771009
-0.045764 0.142557 0.09070703119771009
-0.203154 0.156644 0.09070703119771009
0.151128 0.137619 0.09070703119771009
-0.166489 0.100682 0.09070703119771009
0.321614 0.054139 0.1229340311977101
0.279178 0.006067 0.09070703119771009
0.423212 0.23822 0.1229340311977101
0.197416 0.294101 0.1229340311977101
0.072111 0.155895 0.09070703119771009
-0.1461 0.050311 0.1229340311977101
0.093466 0.047338 0.1229340311977101
-0.442457 0.168448 0.1229340311977101
0.275184 0.29569 0.1229340311977101
-0.439492 0.319248 0.12175903119771009
0.179869 0.048927 0.09070703119771009
-0.063361 0.148184 0.1229340311977101
0.305147 0.025122 0.1229340311977101
0.25199 0.034036 0.1229340311977101
0.227251 0.065704 0.09070703119771009
0.290244 0.234401 0.09070703119771009
0.311605 0.31474 0.09070703119771009
0.193759 0.213125 0.1229340311977101
-0.32047 0.007636 0.1229340311977101
0.133633 0.096269 0.09070703119771009
-0.068768 0.09305 0.09070703119771009
-0.392263 0.175336 0.1229340311977101
-0.101996 -0.005549 0.09070703119771009
0.181171 0.170823 0.1229340311977101
0.347678 0.212587 0.09070703119771009
-0.068915 -0.011557 0.1229340311977101
-0.35143 0.183736 0.09070703119771009
-0.039385 0.311476 0.1229340311977101
-0.434124 0.047923 0.1229340311977101
-0.319641 0.123471 0.09070703119771009
-0.217319 0.199349 0.09070703119771009
-0.346977 0.044039 0.09070703119771009
-0.243448 -0.024513 0.09282403119771007
0.08415 0.098216 0.1229340311977101
-0.134808 0.302776 0.1229340311977101
0.050509 -0.024513 0.10307003119771008
-0.040415 0.19645 0.1229340311977101
-0.012794 0.033521 0.1229340311977101
-0.004071 0.134391 0.09070703119771009
0.381064 0.006971 0.1229340311977101
0.299889 0.150824 0.09070703119771009
0.259082 0.234313 0.1229340311977101
0.418603 0.067873 0.1229340311977101
0.214029 0.1211 0.1229340311977101
0.261128 0.076557 0.09070703119771009
0.35432 0.125539 0.09070703119771009
0.161554 0.311528 0.1229340311977101
0.368297 0.077071 0.09070703119771009
-0.426162 0.076913 0.09070703119771009
0.120607 0.203588 0.1229340311977101
0.171966 -0.024513 0.09113903119771008
-0.141193 0.118658 0.1229340311977101
0.45617 0.182536 0.1229340311977101
0.096297 0.186474 0.09070703119771009
0.145606 0.178103 0.1229340311977101
0.054344 0.036036 0.1229340311977101
-0.255353 0.101438 0.09070703119771009
0.242759 0.174503 0.1229340311977101
0.34522 0.009107 0.09070703119771009
-0.379412 0.319248 0.11867003119771008
0.383796 0.005287 0.09070703119771009
0.022829 0.020771 0.1229340311977101
-0.260291 0.073374 0.1229340311977101
0.163141 0.088265 0.09070703119771009
-0.289951 0.290778 0.1229340311977101
0.431493 -0.004585 0.09070703119771009
-0.235211 0.319248 0.11073303119771008
0.150667 0.06052 0.1229340311977101
-0.275865 0.290527 0.09070703119771009
0.326521 0.216073 0.1229340311977101
0.224913 0.220614 0.09070703119771009
0.39728 0.220235 0.1229340311977101
-0.380998 0.078876 0.09070703119771009
-0.046324 0.177701 0.09070703119771009
0.120186 -0.024513 0.11939903119771009
0.392092 0.267019 0.09070703119771009
0.050287 0.319248 0.0995360311977101
0.003594 0.114246 0.1229340311977101
-0.40462 0.201199 0.1229340311977101
-0.084767 0.129227 0.1229340311977101
-0.319155 0.277502 0.1229340311977101
0.293251 0.293103 0.09070703119771009
0.429907 0.10287 0.1229340311977101
0.076262 0.131079 0.1229340311977101
-0.235911 0.211522 0.1229340311977101
-0.116785 0.255563 0.1229340311977101
0.355033 -0.024513 0.09590703119771007
0.158263 -0.015048 0.1229340311977101
-0.01263 0.076715 0.09070703119771009
0.224781 0.299923 0.09070703119771009
-0.123387 0.081306 0.1229340311977101
-0.047524 0.01126 0.1229340311977101
0.258292 0.024471 0.09070703119771009
-0.038801 0.239307 0.1229340311977101
0.099615 -0.016214 0.09070703119771009
-0.247929 0.183145 0.1229340311977101
-0.175864 0.292982 0.1229340311977101
-0.297551 0.181932 0.1229340311977101
0.216993 0.25472 0.09070703119771009
-0.004427 0.178888 0.1229340311977101
0.366255 0.300499 0.09070703119771009
0.30089 0.305008 0.1229340311977101
0.218131 0.008272 0.09070703119771009
-0.433676 -0.024513 0.09378603119771009
0.231495 0.087041 0.1229340311977101
-0.356435 0.239873 0.1229340311977101
0.059086 0.03366 0.09070703119771009
0.080157 0.287656 0.09070703119771009
-0.137392 0.142016 0.09070703119771009
0.152623 0.011443 0.1229340311977101
-0.362391 0.191694 0.1229340311977101
-0.4286 0.10588 0.1229340311977101
-0.203843 0.05726 0.09070703119771009
-0.177994 0.017366 0.09070703119771009
-0.316815 0.180157 0.09070703119771009
-0.275117 -0.001674 0.1229340311977101
0.180115 0.294399 0.09070703119771009
-0.102839 0.11471 0.09070703119771009
-0.420903 0.256484 0.09070703119771009
-0.337418 0.056176 0.1229340311977101
-0.397487 0.147556 0.09070703119771009
-0.384681 -0.00887 0.09070703119771009
0.050074 0.197803 0.1229340311977101
-0.324517 0.319248 0.10519003119771009
-0.071354 0.319248 0.1028140311977101
-0.306936 0.213649 0.1229340311977101
0.354239 0.059366 0.1229340311977101
-0.087885 0.228175 0.09070703119771009
-0.013281 0.243463 0.1229340311977101
0.048506 0.257453 0.1229340311977101
0.240836 0.216011 0.1229340311977101
0.270181 -0.020246 0.1229340311977101
0.282208 -0.024513 0.09205603119771008
0.335124 0.032208 0.1229340311977101
0.110663 0.078212 0.1229340311977101
0.176098 0.13157 0.09070703119771009
-0.171233 0.268174 0.09070703119771009
0.009395 -0.024513 0.0990640311977101
0.428027 0.299923 0.09070703119771009
0.110346 0.319248 0.10134703119771007
-0.409025 -0.022708 0.1229340311977101
0.247728 0.209637 0.09070703119771009
-0.125685 0.085228 0.09070703119771009
-0.205346 0.265524 0.1229340311977101
0.397945 0.245487 0.1229340311977101
0.172436 -0.003028 0.4133550311977101
-0.224188 0.005029 0.4247880311977101
0.328566 0.005029 0.13690003119771008
0.405313 -0.003028 0.41556003119771007
-0.022334 0.005029 0.3109460311977101
-0.423108 0.005029 0.3539850311977101
-0.004229 -0.003028 0.5188840311977101
-0.239461 -0.003028 0.2108200311977101
-0.206395 0.005029 0.6354860311977101
-0.416583 -0.003028 0.5434780311977101
0.155409 -0.003028 0.20619003119771007
0.159423 0.005029 0.60214903119771
0.408389 0.005029 0.58981403119771
0.290322 0.005029 0.2908930311977101
0.281947 0.005029 0.50809103119771
-0.15066 0.005029 0.3151780311977101
-0.086187 -0.003028 0.42552503119771007
-0.084001 0.005029 0.6163510311977101
-0.368038 -0.003028 0.2453310311977101
-0.084235 -0.003028 0.20841403119771007
-0.273729 0.005029 0.5369490311977101
0.045469 -0.003028 0.4119860311977101
-0.349847 -0.003028 0.4499850311977101
-0.162001 -0.003028 0.5249390311977101
0.050404 -0.003028 0.6459700311977101
-0.266163 -0.003028 0.3232870311977101
0.296205 -0.003028 0.3984920311977101
0.0225 0.005029 0.20889503119771008
0.103832 0.005029 0.51164303119771
0.446803 0.005029 0.20110003119771008
0.257461 -0.003028 0.60407603119771
0.25012 -0.003028 0.19027503119771008
-0.342063 0.005029 0.6002950311977101
0.195472 -0.003028 0.5182130311977101
0.378239 0.005029 0.2823220311977101
0.39405 -0.003028 0.4979890311977101
-0.159111 0.005029 0.17384103119771008
0.228089 0.005029 0.3527210311977101
-0.335489 -0.003028 0.3698040311977101
0.060278 -0.003028 0.27956603119771006
-0.316715 -0.003028 0.18685903119771008
0.333706 0.005029 0.6127840311977101
0.21885 -0.003028 0.2638850311977101
-0.084297 0.005029 0.54134403119771
-0.440605 -0.003028 0.2123070311977101
0.051997 0.005029 0.5667480311977101
-0.419216 0.005029 0.6169610311977101
0.3507 0.005029 0.2146810311977101
-0.153762 -0.003028 0.4520220311977101
-0.087757 0.005029 0.3503510311977101
0.235975 0.005029 0.44592603119771007
0.355599 -0.003028 0.3498540311977101
-0.210522 0.005029 0.27690403119771007
-0.018362 0.005029 0.6500850311977101
0.107403 -0.003028 0.4434830311977101
0.394554 -0.003028 0.15671303119771007
-0.173409 -0.003028 0.3808960311977101
-0.424063 -0.003028 0.4415560311977101
0.082251 -0.003028 0.3465230311977101
-0.146096 -0.003028 0.58919603119771
-0.217466 -0.003028 0.5700760311977101
-0.280501 0.005029 0.62818403119771
-0.288635 -0.003028 0.4729590311977101
0.343548 -0.003028 0.5489350311977101
-0.018217 0.005029 0.4174140311977101
0.419758 -0.003028 0.3497430311977101
0.087173 0.005029 0.17162203119771008
-0.353182 -0.003028 0.53493203119771
-0.323503 -0.003028 0.29536103119771007
-0.155055 0.005029 0.24564303119771008
0.290597 0.005029 0.6581020311977102
