-0.569038 0.249514 -0.260817
0.348107 -0.422955 -0.260817
-0.167103 -0.100825 -0.260817
-0.072262 -0.48088 -0.278879
0.029117 0.508767 -0.260817
0.598083 -0.318112 -0.260817
0.530234 0.034402 -0.278879
0.026056 -0.289908 -0.278879
0.424742 -0.378895 -0.260817
0.258334 0.123701 -0.278879
0.44574 0.27892 -0.260817
-0.222717 0.320902 -0.278879
0.213262 0.116924 -0.278879
-0.721315 -0.371262 -0.278879
0.613648 -0.333312 -0.278879
-0.052868 -0.280968 -0.278879
0.173808 0.068538 -0.278879
0.170277 0.267847 -0.260817
0.204125 -0.4688 -0.260817
0.620044 -0.425209 -0.278879
0.730697 0.532127 -0.278879
0.704597 -0.214713 -0.260817
-0.711532 -0.012442 -0.260817
0.321484 0.327878 -0.278879
0.629681 0.426267 -0.260817
0.184958 0.471918 -0.278879
0.375346 -0.484652 -0.278879
0.437133 0.106371 -0.278879
-0.415128 -0.298516 -0.260817
-0.371038 0.134485 -0.260817
0.283454 0.327065 -0.260817
-0.171754 -0.052484 -0.260817
0.638561 0.270869 -0.278879
-0.301427 -0.302049 -0.278879
0.401244 0.065676 -0.278879
0.573269 0.273394 -0.260817
-0.184921 0.510605 -0.278879
-0.016832 0.299882 -0.260817
0.574896 -0.388301 -0.260817
-0.456481 -0.067307 -0.278879
-0.653007 0.494136 -0.278879
0.06045 0.081344 -0.260817
-0.1614 0.432019 -0.260817
0.02292 -0.490321 -0.260817
0.156705 -0.051419 -0.260817
0.276308 -0.348051 -0.278879
-0.231141 0.108606 -0.278879
-0.443787 -0.116542 -0.278879
-0.631923 -0.235486 -0.260817
-0.555393 -0.474118 -0.260817
0.268175 0.406492 -0.260817
-0.61271 -0.267389 -0.260817
-0.418888 -0.23385 -0.260817
-0.586497 0.513328 -0.278879
-0.244676 -0.292014 -0.260817
0.312657 -0.117029 -0.260817
0.488063 -0.341371 -0.278879
0.244413 -0.349425 -0.278879
0.554461 -0.472173 -0.260817
-0.311293 -0.143512 -0.278879
0.310996 -0.199513 -0.278879
0.705761 0.287335 -0.278879
-0.571437 -0.215395 -0.278879
0.5035 -0.386186 -0.278879
-0.603525 0.213304 -0.278879
-0.675415 -0.323517 -0.260817
0.43446 0.453315 -0.278879
-0.144405 0.491669 -0.278879
-0.262479 -0.308861 -0.278879
-0.22133 -0.241811 -0.260817
-0.393327 0.157946 -0.278879
0.544457 0.059221 -0.278879
-0.121798 -0.089604 -0.278879
0.214561 -0.487586 -0.278879
0.103177 -0.18953 -0.260817
0.225636 0.372499 -0.278879
0.241439 0.497265 -0.260817
-0.106051 -0.329684 -0.278879
-0.438204 0.015889 -0.260817
-0.240655 0.375351 -0.260817
-0.322449 0.389538 -0.260817
-0.534658 0.5106 -0.260817
0.167672 0.244124 -0.260817
-0.709451 0.328377 -0.278879
-0.204951 -0.375279 -0.260817
-0.291364 0.105193 -0.278879
0.262044 0.284106 -0.278879
0.214644 0.285844 -0.260817
-0.360763 0.354551 -0.278879
-0.43196 -0.198198 -0.278879
-0.491844 0.183411 -0.260817
-0.250962 0.182943 -0.278879
-0.08457 0.225065 -0.260817
-0.247254 0.428826 -0.260817
-0.451639 0.158117 -0.278879
0.713227 -0.353193 -0.260817
-0.722402 -0.277131 -0.260817
0.343141 -0.195406 -0.260817
0.150477 -0.091522 -0.278879
-0.292616 0.367444 -0.260817
-0.682484 0.129708 -0.278879
-0.249918 -0.130305 -0.260817
-0.169473 0.489545 -0.278879
0.646866 -0.266505 -0.260817
0.168795 -0.35174 -0.260817
-0.643374 -0.43674 -0.278879
-0.376296 0.191919 -0.278879
0.71543 0.146473 -0.260817
0.140626 -0.169659 -0.260817
0.720497 -0.118009 -0.278879
-0.574377 -0.311716 -0.278879
-0.166863 0.195286 -0.260817
-0.475457 0.340512 -0.260817
-0.249159 0.361364 -0.278879
0.404905 -0.366608 -0.260817
0.484269 -0.067335 -0.260817
-0.008812 0.325827 -0.260817
-0.115621 0.385243 -0.278879
-0.684997 0.377014 -0.278879
0.613566 -0.280064 -0.278879
-0.345877 0.013679 -0.278879
-0.616092 -0.195001 -0.260817
0.474578 -0.18789 -0.278879
0.339434 0.301622 -0.278879
0.147165 0.19973 -0.260817
-0.084482 0.504786 -0.278879
-0.416943 0.478694 -0.260817
-0.639604 0.316727 -0.278879
0.445601 0.408496 -0.260817
0.483176 0.378699 -0.278879
0.063691 0.269143 -0.278879
0.044001 -0.377377 -0.260817
-0.107704 -0.246765 -0.260817
-0.471986 0.21945 -0.260817
-0.490177 0.237966 -0.260817
0.472077 -0.430316 -0.278879
-0.280212 -0.157697 -0.260817
-0.464632 0.296046 -0.278879
-0.582825 0.066263 -0.278879
0.013252 -0.181501 -0.278879
-0.547335 0.422697 -0.278879
0.405665 0.298436 -0.278879
-0.650233 -0.066028 -0.278879
-0.666458 -0.160277 -0.260817
0.517799 -0.464229 -0.278879
-0.100412 -0.23089 -0.278879
-0.686065 0.092977 -0.278879
0.021313 -0.348665 -0.260817
-0.746089 -0.347897 -0.260817
0.752624 -0.131682 -0.278879
0.198326 0.41445 -0.278879
-0.369754 0.463199 -0.260817
0.627086 0.19935 -0.260817
-0.221904 0.072616 -0.260817
0.436132 -0.30675 -0.260817
-0.277239 -0.448215 -0.278879
-0.065728 0.244135 -0.260817
0.131907 -0.01565 -0.260817
0.241144 0.412182 -0.278879
-0.617998 -0.321451 -0.260817
0.338995 0.402896 -0.278879
-0.436709 -0.242753 -0.278879
0.072631 0.501451 -0.278879
0.22426 -0.411569 -0.260817
0.262711 -0.300789 -0.278879
0.713917 0.201671 -0.260817
0.107098 -0.287173 -0.260817
0.106371 0.258669 -0.260817
0.309825 0.404952 -0.278879
-0.669916 -0.178034 -0.278879
0.018655 0.096387 -0.260817
0.527711 0.267295 -0.278879
0.042494 0.27832 -0.278879
0.390678 -0.154798 -0.278879
-0.023305 -0.469292 -0.278879
0.247919 -0.420222 -0.260817
0.461357 0.36664 -0.260817
0.586558 0.006329 -0.278879
-0.715071 0.019734 -0.260817
0.27567 -0.388568 -0.260817
0.137441 0.169076 -0.260817
-0.641736 -0.138542 -0.260817
0.582193 -0.468572 -0.278879
0.052486 0.303191 -0.278879
-0.484449 -0.383985 -0.260817
0.202385 -0.305439 -0.260817
-0.405693 0.207822 -0.260817
0.07539 0.345724 -0.260817
-0.631519 -0.024455 -0.278879
-0.270702 0.456466 -0.260817
-0.499874 -0.040402 -0.278879
-0.536289 0.362153 -0.278879
0.031528 -0.325145 -0.260817
-0.717848 0.259509 -0.278879
-0.137439 0.134809 -0.260817
-0.099477 -0.165101 -0.260817
0.450212 -0.2362 -0.278879
-0.621168 0.41727 -0.278879
-0.6756 -0.288919 -0.260817
0.328995 0.109576 -0.278879
-0.209449 -0.35706 -0.278879
0.07792 0.18471 -0.260817
-0.360467 -0.353788 -0.260817
-0.71147 0.073192 -0.278879
-0.320152 -0.445396 -0.260817
-0.24525 0.046038 -0.260817
0.06094 0.487949 -0.260817
0.522314 0.442625 -0.260817
0.316236 0.365532 -0.260817
-0.553185 0.329189 -0.260817
-0.121962 -0.133941 -0.278879
0.367761 -0.527462 0.189558
0.043868 -0.527462 -0.131409
-0.42376 -0.527462 0.09038
0.574448 -0.527462 -0.004092
0.308721 -0.527462 -0.077599
0.086362 -0.527462 0.144798
-0.227228 -0.527462 -0.080554
-0.667489 -0.527462 0.014834
-0.139362 -0.527462 0.10999
-0.487417 -0.527462 -0.102746
0.476576 -0.503379 -0.138301
0.236106 -0.503379 0.069888
0.629545 -0.503379 0.146892
-0.250493 -0.527462 -0.245828
-0.006523 -0.503379 0.015826
0.419812 -0.503379 0.045393
0.360809 -0.527462 -0.246085
0.624046 -0.527462 -0.145143
-0.093436 -0.503379 -0.18346
-0.579438 -0.503379 0.129992
-0.28688 -0.503379 0.134464
-0.624134 -0.503379 -0.142729
0.182788 -0.503379 -0.166248
0.137254 -0.503379 -0.025408
-0.356821 -0.527462 -0.037474
-0.038579 -0.527462 0.200587
0.496518 -0.527462 0.205537
-0.374487 -0.503379 -0.170278
-0.675288 -0.503379 0.210644
-0.543598 -0.527462 0.01792
0.728156 -0.503379 -0.096909
-0.140002 -0.503379 -0.003346
0.528306 -0.503379 0.099208
0.684582 -0.527462 0.052547
-0.458141 -0.527462 0.193765
-0.241419 -0.527462 0.039494
-0.053178 -0.527462 -0.077912
0.279052 -0.527462 -0.185711
0.426034 -0.527462 -0.055307
0.274123 -0.503379 0.166129
-0.689638 -0.503379 -0.224272
0.326125 -0.503379 0.023288
0.706181 -0.503379 -0.208603
-0.019314 -0.527462 0.107216
-0.535312 -0.527462 -0.19188
-0.276552 -0.503379 -0.158281
0.177575 -0.503379 0.166001
0.454364 -0.527462 -0.224708
-0.696148 -0.503379 -0.074811
-0.369927 -0.527462 0.164789
0.229302 -0.527462 -0.018167
0.390069 -0.527462 -0.155595
0.138459 -0.503379 0.06601
-0.687169 -0.527462 0.103863
-0.457041 -0.527462 -0.016865
-0.007423 -0.527462 -0.214342
-0.198147 -0.503379 0.179322
0.650978 -0.527462 -0.049529
-0.14578 -0.527462 -0.115608
0.541609 -0.503379 -0.205735
-0.188477 -0.503379 -0.190554
-0.329098 -0.527462 0.044266
-0.587096 -0.527462 -0.070086
-0.445256 -0.503379 -0.216967
0.436578 -0.503379 0.128179
0.359598 -0.527462 0.099508
0.497693 -0.503379 -0.022748
0.10476 -0.503379 -0.190304
0.615878 -0.527462 -0.226521
0.1206 -0.503379 -0.104035
0.727239 -0.503379 0.189043
0.062714 -0.527462 -0.036873
-0.509383 -0.503379 0.084804
0.235105 -0.527462 -0.11255
-0.40837 -0.503379 -0.099277
0.60547 -0.527462 0.076642
-0.550568 -0.527462 0.196901
-0.083155 -0.503379 0.063992
0.062707 -0.503379 0.055926
0.547798 -0.503379 -0.111932
-0.330102 -0.503379 -0.103183
-0.321061 -0.527462 0.221453
0.217506 -0.527462 -0.228005
-0.3326 -0.527462 -0.226595
-0.217031 -0.503379 0.105255
-0.693398 -0.527462 -0.153467
-0.615367 -0.503379 0.060799
0.566723 -0.503379 0.220233
-0.032654 -0.503379 -0.141876
-0.083031 -0.503379 0.146484
0.058316 -0.503379 0.205538
-0.068176 -0.527462 -0.010903
-0.619824 -0.527462 -0.211916
0.705 -0.503379 -0.015573
0.35822 -0.527462 -0.0307
-0.138747 -0.527462 -0.228872
-0.600593 -0.503379 -0.007369
-0.293809 -0.527462 -0.015615
-0.176753 -0.527462 0.055124
-0.39226 -0.527462 0.024215
0.633491 -0.503379 0.013931
-0.401007 -0.503379 0.217459
-0.198792 -0.527462 -0.018887
-0.258497 -0.527462 0.196157
0.435769 -0.503379 0.205984
0.295811 -0.527462 0.077229
-0.364289 -0.503379 0.098336
-0.560102 -0.503379 -0.123584
0.320171 -0.503379 -0.135907
0.487742 -0.503379 0.040189
-0.641622 -0.503379 0.143466
0.693068 -0.527462 -0.151223
0.061669 -0.527462 -0.244469
0.184519 -0.503379 -0.083466
0.540755 -0.527462 0.156158
0.66922 -0.527462 0.192082
-0.521424 -0.503379 -0.056035
0.381808 -0.503379 -0.098513
-0.501536 -0.527462 0.141617
-0.717882 -0.503379 0.055845
0.7062 -0.503379 0.131167
-0.47907 -0.503379 -0.158209
-0.391676 -0.503379 -0.246069
-0.105334 -0.503379 0.203299
0.579096 -0.503379 -0.060174
0.477866 -0.503379 -0.278419
-0.158484 -0.503379 -0.060679
0.186265 -0.527462 0.023867
-0.621531 -0.527462 0.199894
-0.006959 -0.503379 -0.048521
-0.723126 -0.527462 -0.018053
-0.479591 -0.527462 0.039508
-0.000839 -0.503379 0.157801
-0.564497 -0.527462 0.077573
-0.224332 -0.527462 -0.146555
0.482574 -0.503379 -0.07924
0.279252 -0.503379 -0.248025
0.544681 -0.527462 0.048676
-0.554902 -0.503379 -0.242166
0.19394 -0.503379 0.109079
0.322632 -0.527462 0.147565
0.039098 -0.503379 0.108032
0.123062 -0.503379 0.200518
-0.730669 -0.503379 0.136614
0.656955 -0.503379 -0.100278
0.228963 -0.527462 0.192251
0.407045 -0.503379 -0.207185
-0.093291 -0.503379 -0.108286
-0.066235 -0.527462 -0.22578
0.140351 -0.527462 -0.240043
-0.274345 -0.503379 0.077312
0.050876 -0.527462 -0.19019
-0.648134 -0.527462 -0.06152
0.749234 -0.503379 -0.173974
-0.41964 -0.503379 0.163742
0.38263 -0.503379 0.14309
-0.179606 -0.527462 0.224444
0.514508 -0.527462 -0.246059
-0.410986 -0.527462 -0.04524
0.292098 -0.503379 -0.032293
0.731389 -0.503379 0.064175
0.247609 -0.527462 0.116682
0.186056 -0.503379 -0.263678
-0.292729 -0.503379 -0.065448
0.524821 -0.527462 -0.161525
0.095295 -0.503379 0.098475
0.59372 -0.503379 -0.181077
0.307725 -0.503379 0.206783
-0.436954 -0.527462 -0.138087
-0.327152 -0.527462 -0.149757
-0.245345 -0.503379 -0.016006
0.491562 -0.503379 0.13666
-0.194783 -0.503379 -0.253213
-0.124376 -0.527462 0.042397
0.444289 -0.527462 -0.171806
0.408247 -0.503379 -0.012357
0.238595 -0.503379 -0.066623
-0.725789 -0.503379 -0.186192
-0.138868 -0.527462 -0.176076
0.234212 -0.503379 -0.175557
-0.477422 -0.503379 -0.261386
0.00715 -0.527462 -0.091977
0.068249 -0.503379 -0.092886
0.011508 -0.527462 0.065971
0.170954 -0.527462 0.212347
-0.582918 -0.527462 -0.162616
0.13561 -0.527462 0.131006
0.58075 -0.503379 0.131676
0.667514 -0.527462 0.10007
0.753442 -0.527462 -0.026578
-0.284879 -0.503379 -0.207982
0.00682 -0.527462 -0.166064
-0.438275 -0.503379 0.024297
-0.498694 -0.503379 -0.003765
0.133871 -0.527462 0.022795
0.400936 -0.527462 0.232252
-0.331277 -0.527462 0.133759
-0.241622 -0.527462 0.140766
0.074972 -0.527462 0.014648
0.125352 -0.527462 -0.146519
0.34522 -0.527462 -0.175377
0.764014 -0.503379 0.221379
-0.723153 -0.527462 -0.257623
-0.749164 -0.503379 -0.112021
-0.705953 -0.527462 0.181361
0.042432 -0.527462 0.165824
-0.455809 -0.503379 -0.074919
0.433715 -0.503379 -0.11664
0.459366 -0.527462 0.171893
-0.183711 -0.527462 0.140474
-0.501775 -0.527462 -0.227967
-0.400463 -0.527462 -0.202371
-0.664829 -0.527462 -0.257234
0.470293 -0.503379 0.084631
0.658325 -0.503379 -0.225263
0.764297 -0.503379 -0.265064
0.40966 -0.527462 -0.253801
0.370729 -0.503379 0.039607
-0.622836 -0.527462 -0.101883
0.272822 -0.503379 -0.13763
0.119118 -0.527462 -0.061764
0.584315 -0.527462 0.183802
-0.178674 -0.503379 -0.144514
-0.431954 -0.527462 -0.261124
0.175095 -0.527462 -0.039373
0.262661 -0.527462 0.01462
-0.043408 -0.527462 0.061859
0.310987 -0.527462 -0.224007
-0.608575 -0.527462 -0.269578
-0.462429 -0.527462 0.116082
-0.683972 -0.503379 -0.024488
0.693651 -0.527462 -0.067617
-0.380996 -0.527462 -0.131414
0.404338 -0.503379 0.095126
-0.648836 -0.503379 0.092594
-0.519153 -0.527462 -0.148759
0.193459 -0.527462 0.070007
-0.157093 -0.527462 0.177741
0.541354 -0.527462 -0.050552
-0.551484 -0.527462 -0.031444
0.023154 -0.503379 -0.240813
0.515445 -0.527462 0.011563
-0.743413 -0.527462 0.027465
-0.092481 -0.527462 -0.269563
-0.294068 -0.527462 -0.115097
0.618269 -0.503379 -0.030395
-0.351445 -0.503379 -2.2e-05
0.682387 -0.527462 -0.259209
-0.331635 -0.503379 -0.188955
-0.098373 -0.503379 -0.033312
0.284559 -0.503379 0.122179
-0.299505 -0.527462 0.169591
-0.512546 -0.503379 0.177217
-0.311035 -0.527462 0.094291
0.102185 -0.503379 -0.250714
0.608138 -0.503379 -0.111762
-0.056274 -0.503379 0.10781
0.479032 -0.503379 -0.184181
0.743564 -0.527462 0.110235
-0.294696 -0.503379 0.021028
0.628051 -0.503379 0.190683
-0.029255 -0.503379 -0.243673
0.141074 -0.527462 -0.193283
-0.35662 -0.503379 0.213511
-0.59002 -0.503379 0.181726
0.720908 -0.527462 0.237059
-0.187782 -0.527462 -0.104874
0.413795 -0.527462 0.177448
-0.741088 -0.527462 -0.073807
-0.119027 -0.527462 0.157575
0.193766 -0.527462 -0.124469
-0.360627 -0.527462 -0.263423
-0.545107 -0.527462 -0.082384
0.450773 -0.503379 -0.007242
0.076387 -0.503379 -0.145232
0.73131 -0.503379 -0.053877
0.276873 -0.503379 -0.092217
0.669093 -0.527462 0.142554
-0.666141 -0.527462 -0.185811
0.350773 -0.527462 -0.072274
-0.336121 -0.503379 0.172181
0.007679 -0.527462 -0.015712
-0.576303 -0.527462 -0.214997
0.668876 -0.503379 -0.175937
-0.123286 -0.503379 -0.141832
-0.64962 -0.527462 0.052858
-0.178877 -0.503379 0.012405
0.336954 -0.527462 0.055667
0.558686 -0.503379 -0.157947
-0.241144 -0.503379 -0.111588
0.087853 -0.527462 0.186333
0.6338 -0.503379 0.102765
-0.435841 -0.527462 -0.181043
-0.224796 -0.527462 -0.213485
0.577729 -0.503379 0.029272
-0.092037 -0.527462 0.114249
0.468829 -0.527462 -0.048742
-0.487187 -0.503379 0.210107
0.249898 -0.503379 -0.213557
0.212372 -0.503379 0.23888
-0.075553 -0.503379 0.021345
-0.475798 -0.527462 -0.191075
-0.060515 -0.527462 -0.185292
0.273316 -0.503379 0.053156
0.733742 -0.527462 -0.252941
0.745517 -0.503379 0.152692
0.178673 -0.527462 -0.208778
0.70456 -0.503379 0.026578
-0.391746 -0.527462 0.065317
0.218124 -0.503379 0.016498
-0.542573 -0.503379 0.146721
-0.699435 -0.503379 -0.121576
-0.145307 -0.503379 0.209263
-0.733093 -0.527462 0.084477
-0.128354 -0.503379 0.079584
-0.34993 -0.527462 -0.077759
-0.290586 -0.527462 -0.245424
0.506104 -0.503379 0.173971
-0.005032 -0.527462 0.223946
-0.243154 -0.527462 0.082727
0.354556 -0.527462 -0.136883
0.447003 -0.527462 0.02964
-0.411011 -0.503379 0.125115
-0.458722 -0.503379 0.157753
-0.053057 -0.503379 0.172797
-0.007108 -0.527462 -0.265828
0.645125 -0.527462 0.054119
0.300529 -0.527462 -0.00226
-0.683143 -0.503379 0.160227
0.756001 -0.527462 -0.209668
0.377183 -0.527462 -0.19902
0.576469 -0.527462 -0.090955
0.485931 -0.503379 -0.222622
0.130061 -0.503379 0.161245
-0.038204 -0.527462 -0.041857
0.330258 -0.503379 0.09073
-0.607407 -0.503379 -0.184002
0.498215 -0.527462 0.068887
-0.060387 -0.527462 -0.129265
-0.107928 -0.503379 -0.243315
0.585901 -0.503379 -0.221704
-0.297882 -0.527462 -0.179869
0.669047 -0.503379 0.231572
0.098977 -0.527462 -0.220727
-0.743781 -0.503379 -0.040017
0.039869 -0.503379 -0.017272
-0.41776 -0.503379 -0.008284
0.704607 -0.527462 0.090116
-0.679814 -0.503379 0.050841
-0.59337 -0.503379 0.222164
0.467126 -0.527462 0.114241
0.475822 -0.527462 0.237735
-0.529581 -0.503379 0.052335
0.512205 -0.527462 -0.079814
0.755218 -0.503379 0.004673
0.667115 -0.503379 -0.019387
-0.741993 -0.503379 -0.149376
0.151074 -0.527462 -0.08233
0.560975 -0.503379 0.073134
-0.320785 -0.527462 -0.049219
0.721948 -0.503379 -0.146693
-0.717137 -0.503379 0.211351
-0.586223 -0.527462 -0.110791
0.685031 -0.527462 -0.107293
-0.16197 -0.527462 -0.026522
-0.607438 -0.527462 0.123146
-0.243717 -0.503379 -0.176468
0.750939 -0.527462 -0.074843
0.106077 -0.503379 0.047286
0.330558 -0.527462 0.185703
0.261403 -0.527462 0.211947
-0.462843 -0.503379 0.087644
-0.215807 -0.503379 0.051494
0.543471 -0.503379 0.184273
-0.483793 -0.503379 -0.050562
-0.515563 -0.503379 -0.10407
-0.465627 -0.503379 -0.123671
-0.249975 -0.503379 -0.064218
-0.195077 -0.503379 -0.065604
-0.230551 -0.527462 0.220259
-0.155859 -0.503379 0.142672
-0.645108 -0.503379 -0.001787
0.607067 -0.527462 0.212772
0.043187 -0.527462 0.033094
-0.64563 -0.503379 0.232252
-0.629875 -0.503379 -0.237679
0.263207 -0.527462 -0.054171
0.64677 -0.527462 -0.267488
-0.434934 -0.527462 0.051604
0.034474 -0.527462 0.219231
-0.647397 -0.503379 -0.114687
-0.655311 -0.527462 0.186244
-0.357763 -0.503379 -0.214341
-0.112676 -0.527462 -0.089022
0.306286 -0.503379 -0.187304
-0.264458 -0.527462 -0.037069
0.290831 -0.527462 -0.117245
0.605549 -0.527462 -0.066419
0.375613 -0.527462 0.001172
0.212381 -0.527462 -0.059993
-0.578477 -0.503379 -0.036035
0.045298 -0.503379 -0.057499
-0.012305 -0.527462 -0.122436
-0.074432 -0.503379 -0.061378
-0.383834 -0.527462 -0.010847
-0.430529 -0.527462 -0.083373
0.087999 -0.503379 -0.028734
0.463108 -0.527462 -0.115415
-0.01816 -0.503379 -0.084347
-0.113638 -0.527462 -0.00193
-0.721962 -0.527462 -0.212296
0.230587 -0.503379 -0.138375
0.453955 -0.527462 -0.08105
0.018004 -0.503379 -0.115701
-0.210181 -0.527462 0.022728
0.244248 -0.527462 0.160282
-0.030585 -0.527462 0.006085
0.633041 -0.527462 -0.088673
0.615734 -0.503379 0.044519
0.019321 -0.527462 -0.058777
-0.152658 -0.527462 0.021213
0.291341 -0.527462 0.185355
0.342751 -0.503379 0.21064
0.31062 -0.503379 0.05631
-0.587858 -0.503379 0.038958
0.152028 -0.503379 0.235813
-0.385033 -0.527462 -0.078511
-0.723648 -0.527462 -0.112461
0.171104 -0.503379 0.044087
-0.152164 -0.503379 0.049562
0.505963 -0.527462 0.110855
-0.420565 -0.527462 0.188884
0.165148 -0.503379 -0.136231
-0.387243 -0.503379 0.182946
-0.068679 -0.503379 -0.26179
0.374361 -0.503379 -0.064071
0.013927 -0.503379 0.205094
0.268728 -0.503379 0.087514
0.02892 -0.503379 -0.15453
-0.669301 -0.503379 -0.159482
0.558148 -0.527462 0.121411
-0.38876 -0.527462 0.114359
0.398826 -0.503379 -0.132506
0.607435 -0.527462 0.136018
-0.649074 -0.527462 -0.026013
-0.069264 -0.503379 -0.159011
0.288437 -0.503379 0.237091
-0.356951 -0.503379 -0.127514
-0.268962 -0.527462 -0.091794
0.420184 -0.503379 -0.175293
-0.41259 -0.503379 -0.173875
0.097621 -0.527462 -0.096297
-0.488495 -0.527462 0.072562
0.03415 -0.527462 0.131726
-0.459714 -0.503379 0.053702
-0.744052 -0.503379 0.1746
-0.557916 -0.527462 0.233555
-0.098869 -0.527462 -0.206879
0.134694 -0.527462 0.089724
0.693418 -0.503379 0.186294
0.081383 -0.527462 -0.175435
-0.007129 -0.503379 0.080805
0.159414 -0.503379 0.130487
-0.358066 -0.527462 0.062156
0.33488 -0.503379 0.127211
-0.297503 -0.503379 0.193185
0.699275 -0.503379 -0.242641
-0.603689 -0.503379 -0.086939
-0.69599 -0.527462 -0.051183
-0.099679 -0.527462 -0.142214
0.360082 -0.503379 -0.270189
0.537361 -0.503379 -0.251848
-0.480307 -0.503379 -0.218241
0.334225 -0.503379 -0.227673
0.355281 -0.503379 0.162638
0.392705 -0.527462 -0.029865
-0.513057 -0.503379 -0.184811
0.082768 -0.527462 -0.063725
0.590246 -0.527462 -0.126534
-0.133532 -0.503379 0.178029
-0.229246 -0.503379 0.191443
0.148555 -0.503379 -0.215129
-0.18559 -0.503379 0.11601
0.034186 -0.527462 -0.218898
0.505321 -0.527462 -0.047348
0.41001 -0.527462 0.144531
0.091061 -0.503379 0.210582
0.063721 -0.503379 0.14362
0.597677 -0.503379 -0.14827
0.251844 -0.503379 -0.019855
0.67872 -0.527462 -0.215539
-0.514196 -0.527462 -0.020154
0.592187 -0.527462 -0.258913
0.215576 -0.503379 -0.035943
-0.536329 -0.503379 0.103732
0.52689 -0.503379 0.13198
0.304601 -0.527462 -0.266331
0.357895 -0.503379 0.069742
-0.5841 -0.503379 0.087868
0.130005 -0.503379 -0.169505
-0.316798 -0.527462 -0.264988
-0.379674 -0.527462 0.22718
-0.64694 -0.527462 0.114574
-0.165558 -0.527462 -0.210268
-0.023921 -0.503379 0.051622
0.389021 -0.503379 0.184104
0.284016 -0.503379 0.019666
-0.256857 -0.527462 -0.207743
0.421113 -0.503379 -0.076666
0.177577 -0.503379 0.003797
-0.123223 -0.527462 -0.258899
0.394262 -0.527462 0.075769
0.545054 -0.527462 -0.136107
0.4803 -0.527462 -0.244271
0.090468 -0.527462 0.062407
0.355914 -0.503379 -0.007961
-0.668673 -0.503379 -0.054495
-0.045497 -0.503379 0.138372
-0.501649 -0.527462 -0.265172
-0.001601 -0.527462 0.179418
-0.136897 -0.527462 -0.046904
0.665598 -0.503379 0.017548
-0.229146 -0.503379 -0.243466
0.161636 -0.527462 -0.1626
0.746928 -0.503379 -0.126283
0.352334 -0.527462 -0.104733
-0.441818 -0.503379 -0.158883
-0.274253 -0.503379 -0.123063
-0.15732 -0.503379 -0.239342
0.226758 -0.503379 0.112237
0.307325 -0.503379 -0.10257
-0.204778 -0.503379 -0.125726
0.046004 -0.503379 0.237144
-0.612253 -0.527462 0.169116
-0.464312 -0.527462 0.227137
0.021911 -0.503379 0.033403
-0.56932 -0.503379 -0.000116
0.629243 -0.503379 0.222716
0.074823 -0.527462 -0.123094
-0.343229 -0.527462 0.10016
-0.216433 -0.527462 -0.050398
0.207822 -0.527462 -0.258533
-0.566153 -0.527462 -0.260003
-0.566735 -0.527462 0.113201
-0.252382 -0.503379 0.122774
-0.316051 -0.503379 -0.00259
0.104467 -0.527462 0.117173
-0.384382 -0.503379 0.045878
-0.422515 -0.527462 0.143197
0.343301 -0.527462 -0.207098
0.587074 -0.527462 -0.200716
0.746004 -0.527462 0.211194
-0.437266 -0.503379 0.106355
0.573671 -0.527462 -0.040322
0.442782 -0.503379 -0.207736
0.15952 -0.503379 0.089641
-0.326373 -0.503379 0.080639
-0.699628 -0.503379 0.130525
0.225082 -0.503379 0.172143
0.554404 -0.503379 -0.008234
-0.168099 -0.527462 -0.164101
-0.098564 -0.527462 0.234649
-0.266427 -0.503379 0.035072
-0.442496 -0.503379 0.206859
-0.540472 -0.503379 0.214611
-0.532813 -0.527462 0.170819
0.470835 -0.527462 -0.010522
0.510961 -0.503379 -0.146675
-0.52149 -0.503379 -0.255269
0.340216 -0.503379 -0.039814
0.222777 -0.527462 0.054785
0.394846 -0.503379 -0.240174
-0.048982 -0.503379 -0.024862
0.707561 -0.527462 -0.188635
0.259926 -0.527462 -0.242918
-0.422307 -0.527462 -0.231408
0.631773 -0.503379 0.0716
0.050477 -0.527462 0.091764
-0.620032 -0.527462 -0.011291
0.567304 -0.503379 0.159818
-0.697986 -0.527462 0.008342
-0.130176 -0.503379 -0.193768
-0.721327 -0.503379 0.100274
-0.411346 -0.503379 0.064301
-0.014228 -0.527462 0.034629
-0.088781 -0.527462 0.035737
-0.301496 -0.503379 -0.035701
-0.348275 -0.503379 0.041327
-0.019622 -0.503379 0.204684
-0.245393 -0.503379 0.060446
0.383965 -0.527462 0.162341
0.714215 -0.527462 -0.032479
0.642337 -0.527462 0.177008
-0.129554 -0.527462 0.198233
0.096978 -0.503379 0.000736
0.215198 -0.527462 -0.173295
-0.277299 -0.527462 0.096177
-0.485519 -0.527462 0.179816
-0.262404 -0.527462 -0.171049
-0.465194 -0.527462 -0.046935
0.617797 -0.527462 0.003332
0.36404 -0.503379 -0.177207
-0.158584 -0.503379 0.238901
-0.573795 -0.503379 -0.178938
0.464393 -0.527462 0.066935
0.207602 -0.503379 -0.190343
-0.499162 -0.503379 0.052024
0.210634 -0.503379 -0.099059
0.014194 -0.503379 -0.183103
-0.272365 -0.503379 -0.264045
-0.219006 -0.503379 0.157275
0.241317 -0.503379 0.205962
-0.397474 -0.503379 -0.030784
-0.528898 -0.503379 -0.225896
-0.581358 -0.503379 -0.277225
-0.65978 -0.527462 0.142465
0.248468 -0.503379 0.134779
0.497706 -0.503379 -0.252714
-0.401063 -0.527462 -0.153822
-0.061756 -0.527462 0.145978
0.367261 -0.527462 0.133876
0.651323 -0.527462 -0.172339
-0.039521 -0.527462 -0.158425
0.1168 -0.503379 -0.222536
-0.378464 -0.503379 -0.096791
0.106362 -0.503379 -0.14628
0.6835 -0.503379 -0.2781
0.713627 -0.527462 0.147282
0.572511 -0.527462 0.086594
0.574275 -0.527462 0.052754
-0.560165 -0.527462 0.145099
0.48665 -0.527462 -0.200108
-0.307671 -0.503379 -0.241
-0.697385 -0.503379 0.025979
-0.176113 -0.527462 -0.061442
0.736407 -0.527462 -0.161895
-0.277118 -0.527462 -0.140434
0.476683 -0.503379 0.168745
0.701226 -0.503379 -0.125272
-0.052204 -0.503379 0.078286
0.056908 -0.527462 -0.158205
0.547563 -0.527462 -0.180771
0.525048 -0.503379 -0.091723
0.741848 -0.527462 -0.109542
-0.141728 -0.527462 -0.146449
0.604068 -0.503379 0.102871
-0.448895 -0.503379 -0.274507
-0.583339 -0.527462 0.19777
0.730176 -0.527462 0.171888
-0.140324 -0.527462 -0.078329
-0.694262 -0.527462 -0.195076
-0.226743 -0.527462 -0.179348
0.677142 -0.503379 -0.072419
-0.595689 -0.503379 -0.134716
0.25317 -0.503379 -0.109785
-0.712502 -0.503379 -0.046979
0.061552 -0.503379 0.02645
-0.214803 -0.527462 0.074645
-0.390417 -0.503379 -0.216049
0.249662 -0.527462 -0.183757
-0.740144 -0.503379 -0.010799
-0.490358 -0.503379 -0.08613
-0.535499 -0.527462 -0.124346
-0.500601 -0.527462 -0.050623
0.080856 -0.503379 0.167465
0.43515 -0.503379 0.098861
-0.336337 -0.527462 0.007261
-0.63941 -0.503379 0.191409
0.114659 -0.527462 0.15245
0.416235 -0.527462 -0.142433
-0.419206 -0.527462 -0.114796
0.756404 -0.503379 0.19161
0.311889 -0.527462 -0.171687
0.692589 -0.527462 -0.004611
0.575173 -0.527462 -0.1572
0.720797 -0.503379 0.093298
0.056413 -0.503379 -0.228948
-0.176574 -0.503379 -0.0339
-0.69907 -0.527462 -0.237625
-0.612362 -0.503379 0.138715
0.320869 -0.527462 0.104067
0.492733 -0.527462 -0.136363
0.341946 -0.527462 0.019585
0.27813 -0.503379 -0.060496
0.690224 -0.503379 0.082729
-0.692306 -0.527462 0.146909
-0.437735 -0.503379 -0.097841
-0.103789 -0.503379 0.041696
-0.521804 -0.527462 0.216332
-0.188972 -0.503379 0.065421
0.727408 -0.503379 -0.228211
-0.03661 -0.503379 0.020854
-0.185284 -0.527462 -0.240494
0.168487 -0.527462 0.153026
-0.610486 -0.527462 -0.150726
-0.05524 -0.503379 0.216008
-0.595831 -0.527462 0.007697
0.427004 -0.527462 -0.20838
-0.319766 -0.503379 -0.075309
0.308308 -0.503379 0.154114
-0.373328 -0.527462 -0.185963
0.691466 -0.503379 0.157645
0.724582 -0.503379 0.005415
0.599373 -0.503379 0.191096
-0.162074 -0.503379 -0.121133
0.712244 -0.527462 -0.222933
0.544674 -0.527462 0.093352
-0.299864 -0.527462 0.067931
-0.329404 -0.503379 0.204722
0.027086 -0.503379 0.166085
-0.679874 -0.503379 0.238826
0.50082 -0.503379 0.006984
0.475785 -0.527462 0.030631
-0.266861 -0.527462 -0.006271
-0.054781 -0.503379 -0.215753
-0.639152 -0.527462 -0.127459
0.401092 -0.527462 0.109974
0.264114 -0.503379 -0.179135
0.182283 -0.527462 0.186243
-0.346118 -0.503379 0.145541
-0.45907 -0.527462 -0.105146
-0.291737 -0.503379 -0.100142
-0.08075 -0.503379 0.092298
-0.559342 -0.503379 -0.087267
0.019428 -0.527462 -0.275914
0.533066 -0.503379 0.058195
0.019501 -0.503379 -0.212669
-0.628311 -0.503379 -0.072883
-0.420505 -0.503379 -0.246239
0.101519 -0.503379 -0.081876
0.726171 -0.503379 0.223082
0.517367 -0.503379 -0.191075
0.148655 -0.527462 -0.049332
0.444645 -0.503379 0.072255
-0.308005 -0.527462 -0.090555
0.627572 -0.527462 0.029804
-0.323174 -0.503379 0.235991
0.378326 -0.503379 -0.036152
-0.049425 -0.527462 0.027973
0.158102 -0.503379 -0.266959
-0.291761 -0.503379 0.099419
0.319819 -0.527462 -0.121458
-0.278268 -0.527462 -0.061512
-0.624371 -0.527462 0.097921
0.634822 -0.527462 -0.026674
0.212534 -0.527462 0.113036
0.158399 -0.503379 -0.179911
-0.492359 -0.527462 -0.140804
0.391187 -0.503379 -0.169721
-0.019196 -0.503379 0.121378
-0.029416 -0.527462 0.237547
0.622195 -0.503379 -0.079656
0.604368 -0.527462 -0.032221
-0.182311 -0.527462 0.189594
0.662754 -0.527462 0.03123
-0.365393 -0.527462 -0.101717
-0.12948 -0.503379 0.133799
-0.58796 -0.527462 0.062622
0.180809 -0.527462 -0.276566
0.116014 -0.503379 0.124882
0.633184 -0.503379 -0.265161
0.570736 -0.503379 0.189353
-0.503015 -0.527462 -0.17131
0.250847 -0.527462 -0.135375
-0.23841 -0.503379 -0.214868
0.663295 -0.503379 0.130192
-0.675239 -0.503379 -0.195983
-0.229808 -0.527462 0.115758
0.08699 -0.503379 -0.227608
-0.613313 -0.503379 -0.11286
0.364535 -0.527462 0.053824
-0.514531 -0.503379 -0.136059
-0.449412 -0.503379 -0.189676
-0.232915 -0.527462 0.007084
-0.587954 -0.503379 -0.208294
-0.392165 -0.527462 -0.232649
0.29769 -0.503379 -0.224789
-0.347034 -0.527462 -0.203191
0.622551 -0.503379 -0.237905
-0.190787 -0.503379 -0.226085
0.445195 -0.503379 -0.063586
-0.321259 -0.503379 -0.21432
-0.562339 -0.527462 -0.187409
0.166102 -0.527462 0.071132
-0.131457 -0.503379 -0.069036
-0.553635 -0.527462 0.043251
-0.331862 -0.527462 -0.115792
-0.486373 -0.527462 -0.074043
-0.724828 -0.527462 0.201338
0.329547 -0.527462 -0.033211
0.190669 -0.527462 -0.0975
0.050813 -0.503379 0.179268
-0.492412 -0.503379 0.159015
0.10356 -0.527462 0.210325
0.074811 -0.527462 -0.012591
-0.039617 -0.527462 -0.230997
0.485289 -0.527462 0.179811
-0.416938 -0.503379 -0.200628
0.724662 -0.527462 -0.064383
-0.292647 -0.527462 0.033264
-0.544627 -0.527462 -0.157976
-0.509581 -0.527462 0.115754
0.443397 -0.503379 -0.141906
-0.666846 -0.503379 -0.095885
0.440327 -0.503379 0.179343
-0.537447 -0.527462 -0.054532
-0.435608 -0.527462 0.119118
-0.437891 -0.527462 -0.043096
-0.696837 -0.527462 0.215596
-0.751379 -0.527462 -0.123964
-0.749833 -0.527462 -0.253699
-0.066732 -0.503379 -0.103951
0.171954 -0.527462 -0.234807
-0.713802 -0.503379 -0.236047
0.50838 -0.503379 0.204223
0.458096 -0.503379 0.033898
0.381463 -0.503379 -0.215181
0.009363 -0.527462 0.151954
-0.003401 -0.503379 -0.021999
-0.152877 -0.503379 -0.151338
-0.45528 -0.503379 -0.028203
-0.744523 -0.503379 0.056799
0.314671 -0.503379 -0.253471
-0.04494 -0.503379 -0.16984
0.26331 -0.527462 -0.104679
0.587534 -0.503379 -0.093299
0.630228 -0.527462 0.086374
-0.669836 -0.527462 0.083684
0.581181 -0.503379 -0.031891
0.11523 -0.527462 -0.274482
0.531807 -0.527462 -0.100593
-0.446275 -0.527462 0.007355
-0.025823 -0.503379 0.166606
-0.351759 -0.503379 -0.04727
-0.153445 -0.527462 0.220401
0.195386 -0.527462 0.237267
-0.59283 -0.527462 0.10121
-0.700272 -0.503379 -0.179749
0.541734 -0.527462 0.012611
0.737888 -0.527462 -0.135663
0.476873 -0.503379 -0.042001
0.446137 -0.527462 0.207221
-0.066968 -0.527462 0.171702
0.142724 -0.527462 -0.016558
-0.553887 -0.527462 -0.231836
-0.105046 -0.527462 0.060101
0.387036 -0.527462 -0.23349
0.381695 -0.527462 -0.071197
0.172657 -0.503379 -0.049294
0.255854 -0.527462 0.186393
0.485127 -0.527462 -0.089038
0.292556 -0.527462 0.115984
-0.734955 -0.527462 0.170251
0.418011 -0.527462 0.055243
-0.327202 -0.503379 0.124631
-0.544411 -0.503379 0.073782
-0.331358 -0.527462 -0.025431
-0.459252 -0.503379 0.008882
-0.630577 -0.503379 -0.195868
0.253795 -0.503379 0.010343
-0.488337 -0.527462 -0.017372
0.288941 -0.503379 -0.005823
-0.161829 -0.503379 0.186128
-0.162402 -0.503379 -0.201177
0.749819 -0.503379 0.12714
0.180474 -0.503379 0.211651
-0.383565 -0.503379 0.122329
-0.22974 -0.527462 0.163758
-0.194157 -0.503379 0.090773
0.194916 -0.503379 0.033975
0.146804 -0.503379 -0.090739
-0.122961 -0.503379 0.016073
-0.218738 -0.503379 -0.075931
0.599478 -0.503379 -0.249448
0.503519 -0.503379 0.092184
-0.673299 -0.503379 -0.254202
-0.667287 -0.503379 0.023776
0.467734 -0.527462 -0.182737
0.550639 -0.503379 0.116636
0.745106 -0.503379 0.101505
0.317456 -0.503379 -0.078812
-0.539903 -0.527462 0.084842
-0.669858 -0.527462 -0.010699
-0.029088 -0.503379 -0.107543
0.74791 -0.503379 -0.033332
-0.521744 -0.503379 -0.024523
0.412398 -0.503379 0.195684
-0.075347 -0.527462 0.067284
-0.045577 -0.527462 -0.256685
0.347039 -0.527462 0.160721
-0.382711 -0.503379 -0.123144
0.643602 -0.503379 -0.033427
0.39671 -0.503379 0.010394
-0.205731 -0.527462 0.107402
-0.388994 -0.527462 0.147909
-0.183409 -0.527462 0.019304
0.567115 -0.527462 0.212002
-0.201953 -0.503379 -0.041101
0.008576 -0.527462 -0.136987
-0.103439 -0.527462 -0.236446
0.670588 -0.503379 -0.256184
0.671686 -0.527462 -0.137485
0.289881 -0.527462 -0.158986
-0.015409 -0.503379 -0.215482
0.366343 -0.503379 0.095266
0.053448 -0.503379 -0.197725
-0.105187 -0.503379 -0.275874
0.567137 -0.503379 -0.134043
0.658162 -0.527462 -0.085257
0.69433 -0.527462 0.178465
0.205162 -0.527462 -0.197817
-0.357693 -0.503379 -0.076996
0.251017 -0.503379 -0.238841
0.584783 -0.503379 0.081646
-0.108137 -0.503379 0.149422
-0.226468 -0.503379 0.002927
-0.093801 -0.527462 0.156276
-0.287166 -0.503379 0.159698
-0.523282 -0.527462 -0.10227
0.249728 -0.503379 -0.155668
0.23756 -0.503379 0.237722
0.735021 -0.527462 0.086516
-0.614224 -0.503379 0.190636
0.125928 -0.503379 -0.058918
-0.465644 -0.527462 0.141043
-0.504163 -0.527462 0.034079
-0.473197 -0.527462 -0.218984
-0.080669 -0.503379 0.198717
0.3091 -0.503379 0.127322
0.007595 -0.503379 0.060285
-0.26193 -0.527462 0.171352
-0.29798 -0.503379 0.061484
0.400168 -0.527462 -0.053725
0.466046 -0.503379 0.120814
0.550886 -0.527462 -0.027463
0.025871 -0.527462 -0.246554
-0.621636 -0.527462 0.06165
0.387363 -0.503379 0.113341
-0.579715 -0.503379 0.15906
0.75549 -0.503379 -0.215911
-0.135574 -0.503379 -0.169216
0.375663 -0.527462 -0.096158
-0.363833 -0.527462 0.140713
-0.265833 -0.503379 -0.192065
-0.620909 -0.503379 0.230126
0.072918 -0.527462 0.206136
-0.571006 -0.503379 0.057152
0.167757 -0.503379 -0.111569
0.459544 -0.503379 -0.120081
0.517695 -0.527462 0.053625
-0.098966 -0.527462 -0.109607
-0.282776 -0.527462 -0.199431
0.528807 -0.503379 0.164223
-0.305261 -0.527462 -0.137093
0.444346 -0.503379 -0.236522
0.061003 -0.503379 -0.125955
0.764429 -0.503379 -0.154554
0.123453 -0.527462 0.195278
0.747534 -0.527462 0.236608
-0.407653 -0.503379 0.037846
-0.412251 -0.527462 -0.020671
-0.489362 -0.527462 0.205631
0.287732 -0.527462 -0.052476
-0.525427 -0.527462 0.147387
0.39981 -0.527462 0.006747
0.273671 -0.503379 -0.207413
-0.608821 -0.503379 -0.221223
-0.580973 -0.503379 -0.09885
0.121019 -0.503379 -0.007035
0.61513 -0.527462 0.112746
-0.360273 -0.503379 -0.258911
-0.182102 -0.527462 -0.192207
-0.300259 -0.527462 0.196441
0.544713 -0.503379 -0.048029
-0.561825 -0.527462 -0.112248
-0.136134 -0.527462 -0.204586
0.750559 -0.527462 -0.181787
0.445721 -0.527462 -0.145062
0.069429 -0.503379 -0.061063
-0.366245 -0.503379 0.165903
-0.168022 -0.503379 -0.262926
0.1643 -0.527462 -0.132566
-0.457393 -0.527462 0.029038
0.207324 -0.503379 -0.074901
0.671168 -0.503379 -0.151712
0.351444 -0.503379 -0.137926
-0.526362 -0.527462 -0.255531
0.122975 -0.503379 0.02983
-0.388358 -0.527462 0.090076
0.62333 -0.527462 0.161895
0.271053 -0.527462 0.165903
0.215329 -0.503379 -0.230119
-0.505197 -0.503379 0.138389
0.324137 -0.503379 0.22621
-0.446218 -0.527462 -0.219741
-0.635217 -0.527462 0.007629
-0.257512 -0.503379 -0.093682
0.030754 -0.527462 -0.176654
0.74821 -0.503379 -0.074701
-0.557187 -0.503379 0.236181
-0.32148 -0.527462 -0.185344
-0.267585 -0.527462 0.037356
0.518966 -0.527462 -0.22226
0.046621 -0.503379 -0.256633
-0.334803 -0.527462 0.068752
0.323229 -0.527462 0.080012
0.088042 -0.527462 -0.040173
-0.639059 -0.503379 0.056206
0.683741 -0.503379 -0.107236
-0.139779 -0.527462 -0.004552
0.361123 -0.503379 -0.245137
-0.461885 -0.527462 0.087536
0.684809 -0.503379 0.053472
-0.224481 -0.503379 0.215058
-0.317307 -0.527462 0.153394
-0.024559 -0.503379 0.097397
-0.523812 -0.503379 -0.079955
-0.351818 -0.503379 -0.162358
0.385547 -0.503379 -0.26231
-0.562762 -0.503379 0.205735
0.289858 -0.503379 0.098815
0.110898 -0.527462 0.092427
-0.250228 -0.527462 -0.150457
0.555966 -0.527462 -0.06948
0.659832 -0.527462 0.235633
0.081235 -0.503379 -0.186168
-0.634343 -0.527462 -0.151542
0.080952 -0.527462 0.113248
-0.443312 -0.503379 0.07399
-0.411663 -0.527462 0.046561
-0.649496 -0.503379 -0.254761
-0.256367 -0.503379 -0.041304
0.60205 -0.527462 0.053104
-0.3873 -0.503379 0.092459
0.724779 -0.527462 -0.274931
0.215897 -0.527462 -0.14958
0.237889 -0.527462 -0.276294
0.521104 -0.503379 -0.234584
0.016195 -0.503379 -0.043485
0.496723 -0.527462 -0.002882
0.203212 -0.503379 0.181091
0.4074 -0.527462 -0.171643
-0.522077 -0.503379 -0.00044
0.749612 -0.527462 -0.05127
-0.358961 -0.527462 -0.139677
-0.292113 -0.503379 -0.138381
0.029997 -0.527462 -0.153154
0.080356 -0.527462 -0.151957
0.064482 -0.527462 0.183965
-0.380064 -0.527462 0.185938
0.224809 -0.527462 0.215326
0.032431 -0.527462 0.108345
0.379131 -0.503379 0.217209
-0.663617 -0.503379 0.173144
0.060558 -0.503379 0.098751
-0.075008 -0.503379 -0.032439
-0.251002 -0.503379 0.099437
-0.187256 -0.527462 -0.040894
-0.208304 -0.503379 -0.202935
-0.508357 -0.503379 -0.207708
-0.709796 -0.527462 0.083314
-0.36952 -0.527462 -0.238059
-0.160988 -0.527462 0.135402
0.26297 -0.527462 0.134161
0.184695 -0.527462 -0.060567
0.107476 -0.503379 0.078663
0.705777 -0.527462 0.043005
-0.017126 -0.527462 -0.051633
0.690567 -0.527462 -0.044593
-0.455486 -0.503379 0.134754
-0.014964 -0.527462 -0.158031
-0.201129 -0.527462 -0.145993
0.367644 -0.527462 0.077743
-0.074936 -0.503379 0.124767
0.703058 -0.527462 -0.121848
0.466623 -0.503379 -0.209819
0.236651 -0.527462 -0.040128
-0.073958 -0.503379 -0.23925
-0.71124 -0.527462 -0.168208
0.371272 -0.503379 0.009328
-0.008629 -0.503379 0.182063
-0.072237 -0.527462 -0.109428
-0.680355 -0.503379 0.073936
0.051733 -0.503379 -0.151182
-0.6818 -0.527462 -0.214477
-0.642594 -0.527462 -0.215549
-0.379324 -0.527462 -0.042479
-0.3593 -0.527462 0.005247
-0.54145 -0.503379 -0.044623
-0.412405 -0.503379 -0.223217
-0.442411 -0.503379 -0.135861
0.256324 -0.503379 -0.266265
-0.518558 -0.503379 -0.158718
-0.498329 -0.503379 -0.026764
-0.638792 -0.503379 -0.093342
0.678503 -0.527462 0.120249
-0.51625 -0.527462 0.186741
0.160055 -0.503379 -0.02267
0.002492 -0.527462 -0.18861
0.168499 -0.527462 -0.184474
-0.419034 -0.503379 -0.079002
-0.308813 -0.503379 -0.19015
-0.571261 -0.527462 0.178391
0.442956 -0.503379 -0.164732
-0.301267 -0.527462 -0.037422
0.37783 0.556292 0.109815
-0.069026 0.556292 0.104738
-0.472129 0.556292 -0.052787
0.318943 0.556292 -0.179149
-0.179518 0.532209 -0.142329
0.625241 0.556292 0.082358
0.152175 0.556292 0.004656
-0.298022 0.532209 0.110845
-0.677482 0.556292 -0.110597
0.497073 0.532209 -0.071139
-0.567115 0.532209 0.124869
0.004679 0.556292 -0.124253
0.675354 0.556292 -0.1327
0.095739 0.556292 0.159176
0.158215 0.532209 -0.177278
-0.331611 0.556292 -0.116841
0.302586 0.556292 -0.021393
0.270696 0.556292 0.215341
-0.186127 0.532209 0.014534
-0.557208 0.532209 -0.175278
-0.437064 0.556292 0.083439
0.701164 0.532209 0.190387
-0.600685 0.532209 -0.006095
0.501539 0.532209 0.115006
-0.421832 0.532209 -0.202129
-0.069365 0.556292 -0.024528
0.459501 0.556292 -0.184735
-0.347862 0.532209 0.237012
0.036661 0.532209 0.031847
0.240762 0.532209 0.082473
-0.119433 0.532209 0.211977
-0.023572 0.532209 -0.237447
-0.342868 0.532209 0.001907
0.633529 0.532209 -0.029099
-0.673017 0.556292 0.150342
0.434436 0.556292 0.015482
0.454691 0.532209 0.213089
0.564025 0.532209 -0.169606
0.223146 0.556292 -0.098368
0.38674 0.556292 -0.083246
-0.217456 0.556292 0.172769
-0.271001 0.556292 -0.200159
-0.476158 0.532209 0.174648
0.109381 0.532209 -0.088004
-0.255699 0.532209 -0.059848
0.534549 0.532209 0.022877
-0.679577 0.556292 -0.209705
-0.084253 0.532209 -0.152238
0.710288 0.532209 0.049338
-0.55962 0.556292 -0.085697
0.675172 0.532209 -0.222559
0.581702 0.532209 0.160843
-0.690227 0.556292 0.046201
-0.518384 0.556292 0.0262
0.071465 0.556292 -0.187055
-0.415695 0.532209 -0.114877
0.00799 0.556292 0.144453
-0.38236 0.556292 0.161421
0.143533 0.532209 0.087
0.195227 0.532209 0.174056
0.394928 0.532209 -0.234177
-0.128328 0.556292 -0.219678
-0.146799 0.556292 -0.054633
-0.174622 0.532209 0.095896
0.240651 0.532209 -0.183354
0.303295 0.532209 0.134037
-0.698801 0.532209 -0.036228
0.027912 0.556292 -0.047989
0.227316 0.532209 -0.020359
-0.431606 0.532209 0.011413
-0.276135 0.532209 0.037342
-0.346332 0.532209 -0.203106
-0.487588 0.532209 -0.146293
0.717103 0.556292 -0.02166
0.708508 0.556292 0.120104
-0.62002 0.556292 0.071307
-0.112495 0.556292 0.044261
-0.037113 0.532209 0.041389
-0.588059 0.556292 -0.238873
0.390755 0.556292 -0.157351
0.388626 0.532209 0.179824
0.567471 0.532209 -0.093021
0.364798 0.532209 0.041657
-0.630205 0.532209 -0.16102
-0.298952 0.556292 0.188501
-0.257021 0.532209 -0.132113
0.318275 0.532209 -0.111542
-0.36992 0.556292 0.063342
0.064968 0.532209 0.095903
0.633689 0.532209 0.209134
-0.383641 0.556292 -0.058217
0.607082 0.532209 -0.234178
-0.741629 0.532209 -0.141993
-0.052926 0.556292 0.176114
0.732243 0.556292 -0.17108
-0.413367 0.556292 0.224554
0.557573 0.556292 0.084277
-0.502286 0.532209 0.08732
-0.749724 0.532209 0.02538
0.517819 0.556292 0.175617
0.520982 0.556292 -0.217668
-0.087567 0.532209 -0.084476
0.441385 0.556292 0.132255
0.166233 0.556292 -0.060636
-0.116443 0.556292 0.150749
-0.598771 0.532209 0.184602
0.090942 0.556292 -0.018714
0.150439 0.556292 -0.237258
-0.709954 0.556292 0.208742
-0.240696 0.556292 0.092437
-0.627499 0.556292 -0.069954
0.376796 0.556292 -0.016273
0.444657 0.556292 -0.108306
0.642568 0.532209 0.145527
-0.185664 0.532209 -0.211858
-0.524039 0.556292 -0.222355
0.50327 0.532209 -0.14765
0.264365 0.556292 0.030456
0.675297 0.532209 -0.075592
0.061462 0.532209 -0.128247
0.031373 0.532209 0.202027
0.572415 0.556292 -0.036823
0.456451 0.556292 0.072615
-0.198901 0.532209 -0.079901
0.621804 0.532209 -0.145328
0.197241 0.556292 0.049004
0.00924 0.556292 -0.183862
0.482646 0.532209 -0.010279
-0.329095 0.532209 -0.057264
-0.033011 0.556292 -0.071497
-0.568433 0.532209 0.04657
0.002804 0.556292 0.085738
0.27545 0.532209 -0.071464
-0.5203 0.532209 -0.029656
0.326765 0.556292 0.181964
0.666426 0.556292 0.012745
0.273118 0.532209 -0.231518
0.641093 0.556292 -0.276356
-0.204267 0.532209 0.223484
0.087152 0.556292 0.048713
0.248389 0.532209 0.150841
-0.015681 0.532209 -0.020784
0.609929 0.556292 0.017201
0.264425 0.532209 -0.132109
-0.425958 0.532209 0.133175
0.144903 0.556292 -0.124378
-0.653105 0.532209 0.198106
0.625441 0.556292 -0.083814
-0.697686 0.532209 0.106353
-0.063009 0.556292 -0.206222
-0.220999 0.556292 -0.023538
0.092683 0.556292 -0.245533
-0.307875 0.556292 -0.241812
-0.541151 0.556292 0.189791
-0.616614 0.556292 0.132164
-0.50995 0.532209 -0.0913
0.146885 0.556292 0.136784
0.337064 0.532209 -0.05547
-0.35187 0.532209 0.112373
-0.643229 0.556292 0.016411
-0.289409 0.532209 -0.018122
0.205941 0.556292 -0.216338
0.347926 0.556292 -0.223902
-0.313192 0.556292 -0.16794
-0.583094 0.532209 -0.126521
0.544041 0.532209 -0.25869
-0.477303 0.556292 -0.192206
0.317959 0.556292 0.038116
-0.366123 0.556292 -0.160571
-0.158708 0.556292 0.182274
-0.03096 0.532209 -0.160045
0.747141 0.532209 0.165542
0.507506 0.556292 0.062291
0.739298 0.532209 -0.122117
0.196136 0.556292 -0.142692
-0.31819 0.556292 0.055826
0.434967 0.556292 -0.036184
0.670793 0.532209 0.083124
-0.142305 0.556292 0.00248
-0.471011 0.556292 0.128678
-0.381214 0.532209 -0.240581
0.295471 0.532209 0.08353
-0.133803 0.556292 -0.104062
0.501184 0.556292 0.223674
-0.693698 0.532209 -0.158796
0.112935 0.532209 -0.20347
-0.425918 0.556292 -0.15817
0.719089 0.556292 -0.226077
0.316356 0.532209 0.224708
-0.516581 0.532209 0.135331
-0.540042 0.556292 -0.134273
0.447751 0.556292 -0.233198
-0.737226 0.532209 -0.068189
-0.123895 0.556292 -0.170131
-0.567466 0.556292 -0.034077
0.610609 0.556292 -0.190924
-0.621814 0.532209 -0.211895
0.095614 0.556292 0.208555
0.18424 0.532209 0.114404
-0.207934 0.532209 0.05837
0.067095 0.556292 -0.083032
0.191356 0.556292 -0.263919
0.591307 0.532209 0.055065
-0.110886 0.532209 0.104449
-0.213425 0.532209 0.124635
-0.23299 0.532209 -0.22139
-0.26518 0.556292 0.23202
0.660228 0.556292 -0.178356
-0.466807 0.556292 0.03347
0.409546 0.556292 0.056486
0.579845 0.556292 0.202043
-0.01166 0.532209 0.18132
-0.425078 0.532209 -0.259282
-0.733868 0.556292 -0.203066
-0.20456 0.556292 -0.175734
-0.331834 0.556292 0.154559
-0.053551 0.556292 0.236595
0.352005 0.532209 0.151014
0.667654 0.556292 0.229995
-0.658992 0.556292 -0.03516
-0.430773 0.532209 0.184828
0.161912 0.532209 0.217889
-0.103203 0.532209 -0.004219
0.285923 0.532209 0.179004
-0.051604 0.532209 -0.113366
0.105089 0.556292 0.095227
-0.170291 0.532209 0.144954
-0.182836 0.532209 -0.031915
0.540255 0.556292 0.126677
0.010846 0.532209 -0.085805
0.158898 0.532209 0.043304
-0.351942 0.532209 0.191561
-0.235108 0.556292 0.030748
-0.074974 0.532209 0.142988
-0.483795 0.556292 -0.008783
-0.434224 0.532209 -0.060038
-0.262929 0.532209 0.174758
0.533883 0.556292 -0.124376
0.250738 0.556292 -0.262761
0.230519 0.556292 0.194382
0.227369 0.532209 0.237523
0.480441 0.532209 0.035562
0.130119 0.532209 0.175447
-0.705392 0.532209 0.171445
-0.66607 0.532209 -0.258359
-0.65361 0.532209 0.113103
0.596191 0.532209 0.106039
0.06227 0.532209 0.142463
0.467105 0.532209 0.17054
0.362458 0.532209 -0.181464
-0.719657 0.556292 -0.005633
-0.469121 0.556292 -0.096806
-0.751314 0.532209 0.204001
-0.623917 0.532209 -0.106668
0.335703 0.532209 0.101201
-0.385216 0.556292 -0.199823
-0.369847 0.532209 -0.091812
0.437768 0.532209 -0.072782
0.334297 0.532209 0.005858
-0.148582 0.532209 0.045237
0.260366 0.556292 0.112769
0.040016 0.532209 -0.225888
0.705207 0.556292 -0.095621
-0.269777 0.532209 -0.244176
0.572784 0.532209 -0.000957
-0.567509 0.556292 0.00904
-0.304559 0.532209 -0.092618
-0.46069 0.556292 0.232485
0.065317 0.532209 -0.043379
0.531177 0.556292 -0.061148
0.419667 0.556292 0.218974
-0.665231 0.532209 0.071943
-0.486041 0.556292 -0.24593
0.036106 0.556292 -0.003202
-0.210237 0.556292 -0.112967
0.494214 0.556292 -0.10584
-0.37284 0.556292 -0.017376
0.198719 0.556292 -0.000759
0.405578 0.556292 -0.268763
-0.156481 0.556292 -0.265768
0.172192 0.532209 -0.026777
0.4916 0.532209 -0.235471
0.22289 0.532209 -0.061926
0.358891 0.532209 0.209202
0.284871 0.532209 -0.180885
-0.138626 0.556292 0.084592
0.530266 0.532209 -0.01855
0.107769 0.532209 -0.129601
0.189292 0.532209 -0.095874
0.577289 0.556292 -0.215716
-0.544133 0.556292 0.100206
0.347818 0.532209 -0.140572
-0.066903 0.532209 0.071179
0.113449 0.532209 0.027916
-0.626167 0.556292 -0.25467
0.573312 0.556292 -0.136438
-0.669737 0.532209 -0.078221
0.640038 0.556292 -0.229593
-0.422878 0.556292 -0.020688
-0.523212 0.532209 -0.25965
-0.726593 0.556292 -0.102325
-0.603942 0.556292 0.226913
0.699382 0.532209 -0.174467
0.055467 0.556292 -0.273266
0.684871 0.532209 -0.03593
-0.099076 0.556292 -0.05237
0.403121 0.532209 0.005642
-0.517682 0.532209 -0.185011
-0.305887 0.532209 -0.206191
0.521324 0.556292 -0.177277
-0.604612 0.532209 0.102057
0.416436 0.556292 0.096273
0.745622 0.532209 -0.048105
-0.561319 0.532209 -0.220992
-0.599377 0.532209 -0.27236
0.307097 0.556292 -0.24026
-0.138192 0.532209 -0.135775
0.69815 0.532209 0.009368
-0.729534 0.556292 0.107219
-0.382621 0.556292 0.121486
-0.518023 0.532209 0.224173
-0.309271 0.532209 0.218625
0.046155 0.532209 -0.168026
0.40756 0.556292 0.153082
-0.09659 0.556292 0.233797
-0.096744 0.556292 -0.12326
-0.405798 0.532209 0.079732
-0.041767 0.532209 0.120443
0.458915 0.532209 -0.13634
0.651353 0.556292 0.183126
-0.369837 0.532209 0.030895
0.691539 0.556292 -0.254496
0.217535 0.532209 0.025223
-0.584583 0.556292 0.155165
0.38709 0.532209 0.078163
0.6612 0.556292 0.053567
0.533478 0.532209 0.202437
-0.276486 0.556292 0.076619
0.491376 0.556292 0.146838
0.433642 0.532209 -0.201307
-0.077936 0.532209 0.193881
0.27615 0.532209 0.002158
-0.377254 0.556292 0.210001
-0.018414 0.532209 0.219551
-0.301588 0.532209 0.149394
0.353591 0.532209 -0.095721
0.427308 0.532209 0.17882
-0.263876 0.532209 -0.170753
0.403562 0.532209 -0.130101
-0.14592 0.532209 -0.190598
-0.536329 0.532209 0.069308
0.403588 0.556292 -0.205484
0.16001 0.556292 0.175967
0.316095 0.532209 -0.208888
-0.450135 0.556292 -0.219297
-0.027651 0.532209 -0.19936
-0.2951 0.532209 -0.13498
-0.133605 0.532209 -0.027301
-0.044264 0.556292 -0.258338
0.219146 0.556292 0.148311
0.007916 0.532209 -0.154581
