-0.07392770512219815 0.26143000000000005 0.6054436976361344
-0.10650990121005677 0.606661 0.6172406285121008
-0.08838184680031436 -0.20294999999999996 0.6074079678184015
0.17935253333575438 0.227452 0.5783928664717739
0.06517965990309996 -0.3632500000000001 0.5865394655248192
0.19854054993239206 0.071488 0.5544156437784101
-0.2540255488729753 0.128112 0.6512890443282543
0.30744160618204874 -0.138401 0.574987509753793
-0.051014003573491506 -0.023459000000000008 0.6096989190565545
0.32211572588529286 -0.5529549999999999 0.5729933452834294
-0.011942704895651857 0.715146 0.6183907842549479
-0.16507260960234765 -0.30283400000000005 0.6251991074345777
0.2545616634388973 0.11677599999999999 0.582173719567111
0.10257096971483065 0.0019660000000000233 0.581458109843195
-0.168025782600703 0.18230199999999996 0.6182313160167907
-0.13328733983786828 0.764291 0.6348811199319503
0.06956534791758834 0.470983 0.5859434649882651
-0.08590628374840803 0.12303600000000003 0.6144406648526862
0.18225652297943265 0.310653 0.5706291059686794
0.2889971423994714 0.711819 0.5774940515494138
0.2961067925359274 0.254737 0.5765278735444939
-0.22856358791041448 0.683865 0.6478288478105648
0.19246766509179208 0.534793 0.5692414454333903
-0.24966463315861392 -0.47844 0.650696410265585
0.25342907387708974 0.418488 0.5823276347531212
-0.04635316240480469 0.499061 0.6016964082255544
-0.236830599908805 0.423606 0.6489523074753797
0.03120426965609746 0.07265100000000002 0.5985257268920633
-0.23899272626389184 -0.20351200000000003 0.6492461333160396
-0.2793745912542039 0.534963 0.6193627352344259
-0.27280295236925983 0.0006270000000000442 0.653840831532886
0.1629497340011406 -0.5493619999999999 0.594623478628695
0.1683678883776763 0.722583 0.5585160089700215
-0.040297506538540806 0.19337000000000004 0.6082425824540166
0.06513804243888655 0.25384399999999996 0.5865451212009455
-0.29287153125541193 -0.517547 0.6211969248657867
0.1314871802071037 -0.10987000000000002 0.5775284922070176
-0.12434255770800234 -0.473681 0.6336655535416489
-0.1685199228880243 0.04116399999999998 0.6256675859403779
0.04617763874487607 -0.195326 0.596490895417172
-0.048120913741869165 -0.322141 0.6019366398019693
-0.10860198905599677 0.454491 0.6101558184620803
0.1800233672231942 -0.3552409999999999 0.5783017023589752
0.0008146027522689669 0.353558 0.6026555823949049
-0.07329916476776271 -0.11048999999999998 0.6127273989632651
-0.19940971746983976 -0.41236300000000004 0.6285827244779509
0.1409204720954746 -0.04385899999999998 0.5762465389517093
-0.21920263113841448 0.556662 0.6465567246589998
-0.1662933885526074 -0.195322 0.6253650072676176
-0.3300329110147167 -0.02864 0.6616181941603639
0.09379042650651381 -0.4747300000000001 0.6040220004201076
0.004305723718078913 -0.593286 0.6126313307579142
0.0425925914704931 -0.11318399999999995 0.5969780915177714
0.027501306233109812 0.16406200000000004 0.5990289474083539
0.19247232729327612 -0.10851900000000003 0.5552402952212157
-0.32933235036712444 0.522661 0.6615229902789035
0.22269453344824594 -0.18872 0.5511331970818348
-0.26069028849914994 0.762439 0.6521947604622043
0.13206320328526983 0.476518 0.5848193304587841
0.1040097449062082 0.635508 0.5812625850399694
0.14178187207110401 0.352029 0.5834985954243235
-0.2689791001216523 -0.34282199999999996 0.6533211826240377
-0.1742155701332298 0.478357 0.626441605615957
0.3225527092595336 0.174219 0.5729339606841026
0.14639911399156733 -0.27020100000000014 0.5755020095873605
0.006689601450394045 0.58376 0.6018571894484004
0.21520537167384393 -0.011929999999999996 0.552150949466669
0.1908373985921396 -0.47504900000000005 0.5908336369882119
-0.13653052937049837 -0.5318230000000002 0.6353218586929402
-0.23260448861438182 -0.28964199999999996 0.6130068325400398
-0.2104848063849591 -0.16501999999999994 0.6100008406788793
-0.27127896046544525 0.35877 0.6536337260594969
0.0471411695840645 -0.5093730000000001 0.5749903202313326
-0.12589967596548135 0.244433 0.6198756349511632
-0.313504832369966 -0.108688 0.6593720827844665
0.1936798408372202 0.61763 0.5764458326357966
0.20061552089827872 -0.413181 0.589504822416428
-0.21951476212001503 0.307001 0.6465991422299475
0.08492089311375436 -0.593286 0.5884586112521042
0.1539289023381777 0.09887699999999999 0.5744787361853555
-0.3348128440488713 -0.42787700000000006 0.6299574894115907
0.2443257059191637 -0.07816400000000001 0.5481935920856813
0.2673738970645943 0.765733 0.5804325792739242
-0.23199905359927725 0.16266400000000003 0.6129245559182968
-0.2863781728388692 0.466709 0.6556856592217226
0.13234430179149875 0.18469199999999997 0.5774120122106057
-0.08719698911353174 0.689064 0.6286175932809615
-0.09494353365796054 0.400507 0.608299679420991
-0.06389987803077862 -0.377788 0.6040809490075922
0.224946830975795 0.159431 0.5508271172762345
0.23567323693079656 -0.27441800000000005 0.5493694340841427
-0.23221106138111752 -0.08420399999999995 0.6483245274253537
-0.0037054196574136666 -0.46026900000000004 0.6172713643587946
0.27373740552122433 0.534003 0.5795677994624127
0.071277360151074 0.689427 0.6070814518865578
-0.3109999004883683 0.11853099999999994 0.6236605104546382
0.08883691426586693 0.761396 0.5693240060474963
0.2707696839660068 0.620248 0.5799711030338043
0.305279479826962 0.424775 0.5752813355944529
0.26563686337968734 -0.3322449999999999 0.5806686364227222
-0.0037103741174390747 0.767581 0.6172720376535716
0.32628539944267365 0.373359 0.5724267003991502
0.09341215491186716 -0.40617499999999995 0.5827027625678605
0.24523439699507005 -0.5093510000000001 0.5834412643141926
0.10833771203310766 -0.5494599999999998 0.6020450722960338
-0.28967586143177865 -0.44421200000000005 0.6561338042252589
0.24217943383615828 0.322542 0.548485263383055
-0.026722850043439716 -0.5360369999999999 0.6203993572335381
-0.3126140204573982 -0.21902599999999994 0.6592510243835713
0.09910910787229174 0.145509 0.5892976833381738
-0.2476135298153433 0.387295 0.615046511737325
-0.015556238886887896 0.305802 0.5975112078920477
-0.2789643619641004 -0.21583600000000003 0.6193069864268945
0.06637201780842644 0.580269 0.5937465459063332
-0.20443937426196007 0.07633100000000004 0.6091792863920477
-0.3088159314019229 0.24068 0.6587348766075632
0.26395230386380264 0.471305 0.5455264021562808
0.25270869538939583 -0.41485400000000006 0.5824255318136894
-0.2996492325701658 0.614852 0.6221179921206511
0.2884025640891757 -0.3544559999999999 0.542203692432044
-0.12204906963373663 0.08519299999999996 0.6193523502505195
-0.1646227446320408 0.579974 0.6251379722688308
-0.0857007852931066 -0.48721900000000007 0.5930431037677197
0.10441830723551562 0.317692 0.5885761806551967
-0.22880041109962884 0.24304599999999998 0.6478610313009029
-0.2927565446755754 -0.5570759999999999 0.6565524589175651
-0.09903591763894504 0.307632 0.6088558209067498
-0.003285032295965107 0.462693 0.5958435913885036
0.1674846197908995 -0.14309899999999998 0.5800056767804743
-0.20818391204191394 -0.572452 0.6450593170750683
-0.19659220821518247 0.427332 0.6221133990417156
-0.25714194733620205 0.03132299999999999 0.6163413922523509
0.2544348292622469 -0.0044640000000000235 0.5821909559134008
0.32745589712495254 -0.09608300000000003 0.5579593135177614
0.2374499062959068 0.525434 0.5491279905771292
0.19685801530776453 -0.31508800000000003 0.5546442946846616
-0.29427756390337473 0.691166 0.656759160414088
-0.31472759310423587 -0.26666999999999996 0.6595382519354172
0.31379417171937574 0.281074 0.5387530567001871
0.031128354781955914 0.722539 0.5771664089504274
-0.29343138523828266 -0.027043999999999957 0.6212730071755818
-0.2938614323684878 -0.14939199999999997 0.6213314491622208
0.27476569357660185 -0.593286 0.5705592817333316
0.10413392123005738 0.04875499999999999 0.5886148277753935
0.2007205554508173 0.737415 0.5894905485671567
0.23507176548371242 0.698116 0.5494511720700641
0.19496185623851844 -0.236483 0.5807332475341747
0.12311934924179374 -0.458931 0.5709443270408027
-0.14016553810895482 0.639273 0.6149154840156158
-0.2006299969235797 0.656355 0.6196032611279071
0.03780626826273792 0.216163 0.5902594191674551
-0.1577643972546257 -0.4632290000000001 0.602836310957379
0.10829764943540765 0.519657 0.5880489908448466
-0.2634489318412954 0.575332 0.6525696509940088
0.12608118825059594 -0.3692169999999999 0.5856322665724707
0.16406009702133964 0.410877 0.5804710581303006
0.21464655169022537 0.26055800000000007 0.5875980516081122
-0.13668652633279288 -0.2668539999999999 0.6213415323395337
-0.023029231565994568 -0.41515000000000013 0.6058958808384433
-0.23518179871959738 -0.368158 0.613357080483008
0.23673349137623323 0.20638100000000004 0.5492253490018759
0.29336994881789374 -0.27215600000000006 0.5768998015792798
0.19602983641371285 0.10922799999999999 0.5885920120264718
0.12694920964704687 -0.17243699999999995 0.5855143053275494
0.0355968939146214 -0.40042500000000003 0.5979287837428214
0.02352231085820139 -0.5142470000000001 0.613571205582601
0.2292126210576686 0.442312 0.5502474104732825
0.19408293723669096 0.66878 0.5742656954170111
-0.3125516373683252 0.031891 0.6238713863787783
-0.16994315863053466 -0.37934500000000004 0.6184918810954695
0.1731297315438458 0.495039 0.5792385247116202
0.28596600375592873 0.299781 0.5779059732939504
-0.11507350474118061 0.355284 0.6110352760997294
0.14466933137391 0.616388 0.5831061992283184
-0.06233451781404492 -0.567301 0.6252388654312826
0.24882737140549366 0.373898 0.5829529909419502
-0.26398306573928104 0.333637 0.6172710776803602
-0.025419263082249954 0.01313299999999995 0.6062206782388428
-0.20345046404088934 -0.32331900000000013 0.609044896754569
-0.20606736671906106 0.11514000000000002 0.6447716855463562
-0.23122516694330914 0.518731 0.6128193872741375
-0.18097674110711132 0.354129 0.619991308563732
-0.0021266795420254447 -0.286481 0.5956861750696533
0.045497886829390544 0.29627 0.5965832714605692
0.14531086541869415 0.72921 0.5970205426935841
0.18499208354691984 -0.502418 0.5562568356754513
-0.1463546596263679 -0.09200200000000003 0.6226553997672694
0.03988646540461699 -0.05146099999999998 0.5973458451249402
0.06525992215551149 0.421203 0.5865285581494326
-0.31104746330461225 -0.3899219999999999 0.6236669740844969
-0.19821652936280448 -0.2735479999999999 0.643704782642805
0.05816187052723476 0.639273 0.5769309594871465
-0.2234050041319629 0.010400999999999994 0.6471278132888069
-0.04936374146753497 -0.47295599999999993 0.6234761797052336
0.32522910856525733 -0.3305150000000001 0.5725702468455954
-0.21116455830044462 0.705842 0.6100932167222765
0.2961246285920189 -0.43659800000000004 0.5765254496832969
-0.0332592006264506 0.615666 0.6072860998938848
-0.15097154030125426 0.280386 0.6159137007355815
-0.11672065951216654 -0.522186 0.5972586023661891
0.09102342911083097 0.367466 0.5903965004141525
0.1562347587706364 0.773628 0.581324583913204
-0.20417377209735138 -0.5168919999999999 0.6445143522826068
-0.05624127372350779 -0.07152700000000001 0.6030401699413865
-0.21847139594591175 0.332253 0.6110861918593189
-0.12673202524974936 0.13685499999999995 0.6199887484736905
-0.25982528288596124 -0.5680559999999999 0.6167060487035457
-0.2349181783389987 -0.42938199999999993 0.648692415691478
-0.09718889494147409 -0.021579000000000015 0.6086048166139036
-0.25049999822614416 0.10400200000000004 0.6154387732743748
-0.12552939717879513 -0.3148679999999999 0.6124561973969997
-0.2795638516271744 -0.46463699999999997 0.6193884550949053
0.2389749321989735 0.29863 0.5842919049353883
-0.15942409825588927 0.730134 0.63843301919826
0.21821272890926469 -0.42287600000000003 0.5517422595370617
-0.013391815924577055 0.546112 0.6045861878383246
-0.3208245947187462 0.551167 0.6249956539973255
-0.22171953993856724 0.221715 0.6115276039150858
0.21173035651927205 0.20132799999999995 0.5879943529138235
-0.24973304781421152 -0.11925799999999998 0.6153345472429033
-0.07126745234709703 0.701724 0.5910816614235157
0.26232327740744943 -0.16044400000000003 0.5457477814789412
0.017393600699528444 -0.47693200000000013 0.5790329167310817
-0.03355707530973029 -0.46130000000000004 0.5859569455582563
0.17424094839903834 -0.5901079999999999 0.5930890398320312
-0.11411995180907869 -0.41497000000000006 0.6182748092894924
-0.15951865991386877 -0.03229099999999996 0.6244443439896193
-0.16044641731915588 0.773628 0.6040646567447929
0.017960998008190177 0.498763 0.6003254438308444
0.10204313909933652 -0.2899860000000001 0.5888989581712654
-0.17342118956836888 -0.147663 0.6189645340288867
0.07288850744408856 -0.553933 0.5714913419344909
0.31150719297164886 0.593399 0.5390638495692263
-0.03911933594449951 0.377946 0.6080824729560586
0.16934520015322752 0.270933 0.5723837121574051
0.27967577820042755 -0.23711400000000005 0.5433896338521597
-0.19969398252466702 -0.06924299999999994 0.6264909514552249
0.03322965291448299 -0.15355799999999997 0.598250483987247
0.05282720016776049 0.10647899999999999 0.5882181240627051
0.3157538680654685 -0.593286 0.5644613167391536
-0.23798205952595625 -0.501428 0.6137376266909388
0.2168265141014035 0.05059999999999998 0.5873018019062551
0.3089616345178429 0.06260299999999996 0.5747809429162255
-0.20201509893871644 0.388114 0.6094109459636441
-0.12533982198261057 -0.189307 0.6197995526413681
0.26699141275063304 -0.09005600000000002 0.5804845576307046
0.23946740552549875 0.724735 0.5842249794345598
-0.2720528471214135 -0.4050720000000001 0.6537388947036561
0.32627846319863807 -0.04246799999999995 0.572427643011838
0.19762100215167688 -0.15417100000000006 0.5545406072890117
-0.33137553955359805 0.013699000000000017 0.6552509987332876
-0.06708658671911905 0.463995 0.6045140122081251
0.24737864418681818 -0.31652000000000013 0.5477787078441262
0.08428139990826 -0.3264070000000001 0.5913127199466228
0.32501614617120494 -0.14900099999999994 0.5400063321697043
0.053155185421442264 -0.26000899999999993 0.5881735519484711
0.2815168986531151 0.486838 0.5785105920036494
0.2946016275802094 -0.0014129999999999976 0.5767324204977307
0.011389402230493118 -0.21523099999999995 0.6012185020229878
-0.25129667539822936 -0.25397500000000006 0.615547039074508
-0.25715775850103634 0.722275 0.6517147012862406
0.2539274925556455 0.656779 0.5822599012985602
-0.2019663523968655 0.13466500000000003 0.6097696488694834
0.003298769009006941 0.19608400000000004 0.6023179923937433
0.12809337508970134 0.22472800000000004 0.5779896991292268
0.20687494258712816 0.499988 0.5532830273046287
0.15138825523715005 -0.22917300000000007 0.5748240017469742
-0.2398211550873866 -0.018677999999999972 0.6139875537121418
0.22741018850042632 0.382888 0.550492355113136
0.024948161346265874 -0.562173 0.5780062768551919
0.21646285673553878 -0.3266009999999999 0.5873512217428831
0.20004179442733683 0.341393 0.5895827899515985
-0.0643216832017291 -0.23412999999999995 0.6115073888274359
0.26061795226670514 0.02242999999999995 0.5459795295411666
-0.2587164747322757 -0.16680499999999998 0.6165553653324648
0.3291956908285853 0.21309 0.5707616382234078
0.023028419722174287 0.386075 0.5996367979329823
0.07621493190514542 -0.462059 0.5710392918212482
0.20614668007064074 0.447977 0.5887531561274436
-0.003915915679987614 0.05552500000000005 0.6032984442479346
-0.07460943882169385 0.63448 0.6055363429974424
-0.30442330714339877 0.307986 0.6581379334583214
0.03294371204251134 0.682891 0.6122908682347573
0.28338175740667754 0.15056800000000004 0.5782571638496063
-0.32357427692559887 -0.592384 0.6607404870891349
-0.32033009650096383 0.10825700000000005 0.6602996136691897
-0.3330729156862831 0.624345 0.6427608050092419
-0.0919556794394274 0.060462000000000016 0.6152627577753393
0.2182484010214476 0.02708900000000003 0.5517374118146677
-0.04935977789951462 0.697382 0.623475641069412
-0.27172486186773165 -0.18269800000000003 0.6536943225894222
-0.036796999907803773 0.273227 0.6003977572597777
-0.228068141907874 -0.16618599999999994 0.64776151833287
-0.3138387629756783 0.20212200000000002 0.6594174628524327
-0.09652103373004944 0.500126 0.6085140564779712
-0.0572282021605684 -0.27419499999999997 0.6031742902609545
-0.18933124386049044 -0.494054 0.6071261412992235
0.20872101749984112 -0.16911200000000004 0.5884033121613416
0.145480307951563 0.658194 0.5969975160122125
0.14023310786716248 0.03350299999999995 0.5837090673715973
0.3275474652146174 -0.5033460000000001 0.5586331200812165
-0.07530373929404155 0.02546499999999996 0.6129998140300181
0.2076686901904451 -0.022603999999999957 0.5885463199719653
-0.1844825170210878 0.21828400000000003 0.6204677319479002
0.0036317087227141776 -0.129305 0.6022727469847324
-0.27492147947612294 0.17007799999999995 0.6541287323795089
-0.13614946286603896 0.554638 0.6212685471857126
-0.27597583167677614 -0.3145929999999999 0.6189008550174397
0.287034185337406 -0.520373 0.5777608109400405
0.1505245122319335 0.536179 0.5823104994609216
-0.015333964254535704 -0.03912099999999996 0.6048501193908882
0.011068038397632818 0.10547799999999996 0.5938930564196863
-0.3311524096645176 -0.5194299999999998 0.6568929067857069
-0.08825965226047539 -0.16595700000000002 0.6147604798717363
-0.05709312602466332 0.534113 0.6105250517478693
-0.017681994496327957 -0.571142 0.5837995744339605
0.12441885527631971 0.741884 0.5644885376184136
0.09696747542609768 -0.19497999999999993 0.5822196062359228
0.19719590948149715 0.19211699999999998 0.5545983759808737
0.2253323310730186 -0.4411640000000001 0.5861458894331915
-0.09408807903436162 -0.3442700000000001 0.6155525438473376
-0.012824641887421051 0.702681 0.583139476234641
-0.055033376369314047 0.14053899999999997 0.6028760206747668
0.2431485262171275 0.055267999999999984 0.5483535669246841
-0.10593079336159267 -0.5833439999999999 0.631163455491556
-0.14115803814147365 0.682452 0.6005795615240058
0.11517907958748097 -0.07644899999999999 0.5797447092948186
-0.09983624355583642 0.561607 0.6163337004475523
0.13920753464190366 0.14308299999999996 0.5838484393904255
0.32708100659314804 -0.4387859999999999 0.555200670175616
0.21578112303604308 -0.206507 0.5874438671041912
-0.249286112412673 0.535348 0.6506449705446261
0.0847019650359111 0.753169 0.6052570923589403
-0.14625122304758986 -0.5776699999999999 0.601271708554708
0.2323963570699938 -0.12562099999999998 0.5498147512496159
0.30316392539611414 -0.19720399999999993 0.5755688324642096
0.17487271058078327 0.057366999999999946 0.57900165960909
-0.17390343915162926 0.544112 0.6263991880450093
0.218410950417528 0.159787 0.5870864822365873
-0.3190062373951575 0.773628 0.6467973657797463
0.05053204513269871 -0.5888339999999999 0.6099006717765931
0.27820831024814974 0.08889499999999995 0.5789602182556951
-0.08567497899372734 -0.4740929999999999 0.6284107571254831
-0.18491751861131844 0.317692 0.6205268472293162
0.3271709587753483 0.2510490000000001 0.55586258603501
-0.19000574905740925 0.011816000000000049 0.6212183209652414
0.08349902214174279 -0.5098289999999999 0.6054205683307833
-0.10107120981738132 -0.24714400000000003 0.6091324104011199
0.020965809485092524 0.730476 0.613918625687506
0.1581880709992298 -0.45827299999999993 0.581269047099939
-0.2651027305977755 -0.2287490000000001 0.6527943967905538
0.28251472690223167 -0.5585070000000001 0.5783749904355722
-0.23973292259168727 -0.3719649999999999 0.6493467235557157
-0.19681342628360982 0.708111 0.6435141055619733
-0.22536597941001818 0.769944 0.6473943033615228
0.19515495718054704 -0.537766 0.5821541866694607
-0.2888594095268389 0.570073 0.6206516907554145
-0.25306339273604167 0.326715 0.651158290482571
-0.051595273370224404 -0.5101740000000001 0.5884082771821674
0.035703910251170146 0.466513 0.5979142405756394
-0.23602802049193655 -0.44476700000000013 0.6134720792309106
-0.06438014583002888 0.297833 0.6115153337058039
0.20967817606950223 0.295264 0.5529020771198317
0.1511131020829516 -0.07842400000000005 0.5822305120414203
-0.11459985836275188 -0.11409800000000003 0.6109709091190532
0.29215507211241737 -0.47346299999999997 0.5416937389679839
-0.14786905743334572 0.21205600000000002 0.6154920835462568
0.03479197478328161 -0.34432600000000013 0.59066905170975
0.06729521433394783 -0.222599 0.5862519686550625
-0.26296339475880576 0.06345400000000001 0.6525036681058679
0.2487123848256572 -0.02410100000000004 0.5475974568901718
0.27282479398454473 -0.38086200000000003 0.5796918203603264
-0.07519703778070685 0.590727 0.6056161957579883
-0.16909990953421072 0.616504 0.618377286324433
-0.23959424081822295 -0.07688399999999995 0.6139567168113576
-0.220995154775606 0.16717300000000002 0.6468003227092995
0.057651853340499715 0.504749 0.5875624696089135
0.25730837296973463 -0.495792 0.5464292904521676
0.09763806016224322 0.665418 0.60349911969633
-0.2480931215458026 0.301592 0.6151116866717337
0.28121166080830307 0.503597 0.5431809124713058
0.3186634581395908 0.600259 0.5734624970840065
0.3265877508395562 0.083368 0.5515710327610044
0.04033831215893385 0.61195 0.5972844406412825
-0.18437351890052894 -0.44752599999999987 0.6204529194628073
0.307531734247264 -0.3884810000000001 0.5396041012982491
-0.3218640404320762 0.15275899999999998 0.6251369112415291
0.2043243865660497 0.259027 0.5536296394558015
-0.024057350549771872 -0.573223 0.6200371246435403
-0.30194314756192814 -0.5603470000000002 0.6224297276023779
0.022457351104033574 0.322916 0.5923452863864389
0.202023710672165 0.773628 0.5680013434755514
0.1294456935253426 -0.51267 0.5991765672283259
0.11856191779917291 0.773628 0.5842451700082919
0.19422719703427455 -0.07315700000000003 0.5550018142112207
-0.00844956142644715 0.16323100000000001 0.596545433863994
-0.015536670198080582 -0.49883999999999995 0.6188791922861456
-0.040229449813404206 -0.210553 0.600864215881247
-0.33211670244406205 0.708112 0.649797129137322
-0.3211089807242045 -0.12413399999999997 0.6250343011175222
-0.2534776287014126 0.06641699999999995 0.6158434234353204
-0.23088722966232939 -0.291261 0.6481446230609533
-0.0932671935366578 0.654394 0.6294425140416777
0.20318589475945875 0.586243 0.5891555170861476
-0.179007775066029 -0.593286 0.6160482563539502
0.16285956282867825 -0.4959279999999999 0.5946357325936354
-0.21203352748165355 -0.22570899999999994 0.6455824671167566
0.09859328005514131 0.71408 0.6033693084633345
-0.2877604671859571 -0.5181900000000002 0.655873508464491
0.19302623592411638 -0.26033400000000007 0.5551650208651528
-0.30177267102980715 0.382912 0.6577777207526544
0.23839426948399606 -0.042251999999999956 0.5843708150832466
-0.1642190246684761 0.646937 0.63908463388339
0.07655541494464363 -0.10672199999999998 0.592362655821795
-0.2875117532926818 0.11992800000000003 0.6558397090666882
-0.20357432554152438 0.592373 0.6090617291239926
-0.1552561573312244 -0.3349009999999999 0.6164959660586858
-0.20120822247802245 -0.197963 0.6153483708580894
-0.19805410576593335 0.191766 0.638558034293101
0.07947458279161218 0.291456 0.5919659505392174
-0.31891019136492976 -0.221325 0.6247354928955129
-0.1605630600872241 0.14258000000000004 0.6245862745285999
0.21232786439833587 0.513558 0.5879131535637236
0.30141004654712084 -0.08209299999999997 0.5758071788152491
-0.2994124093809514 0.21887599999999996 0.622085808630313
0.30491776113786034 -0.12096099999999999 0.5399593316225666
-0.1053234196697252 0.702971 0.5957097550612986
0.0879262845131975 -0.5230890000000001 0.5694477576274993
-0.03733374855134358 -0.12734999999999996 0.6078398175184466
-0.12161566601726659 0.769179 0.5979238176058134
-0.28730073640284665 0.50168 0.6204398722185868
-0.17011091163793468 0.65218 0.6045141615415326
0.26741056006878233 0.21859499999999998 0.5804275968925748
-0.09982888039430399 0.769414 0.6303342256442672
-0.2901336966453732 0.360197 0.6208248621720455
0.1374146961814981 0.318869 0.5767229623358775
0.03761081338644273 -0.475479 0.6116566245548726
-0.3225913551638057 0.589904 0.625235750914785
0.22902637646796048 -0.47493300000000005 0.5856438808474992
0.09469635095045206 0.237591 0.5825282445616757
-0.29592442641581934 0.734344 0.6569829635979454
0.016058485358434682 -0.25829100000000005 0.6005839890251923
0.17404036129651523 -0.3219289999999999 0.5791147731316172
0.22278866818872864 -0.04553399999999996 0.5511204044810728
-0.04821968811916316 0.108066 0.609319180802356
-0.3176329315703805 0.295355 0.6245619175020158
0.01706424074359192 -0.02681100000000003 0.6004473101854719
-0.12539389412539326 0.663522 0.6338084266933173
-0.26010966889141957 -0.344125 0.6167446958237426
0.09207643248901798 -0.030556999999999945 0.5828842828397256
-0.19930254700037325 -0.14931899999999998 0.6438523688579119
-0.2187567728433752 -0.131498 0.6111249736384711
-0.1992559750761344 0.278751 0.6438460398870085
0.15602463892892396 -0.387413 0.5741939324947066
-0.30964336933341247 -0.44900699999999993 0.6234761623447099
0.23006605809590658 -0.593286 0.5719218986615136
-0.13011227270229464 -0.01034999999999997 0.6130789950656763
-0.2925851203586964 -0.378841 0.6565291629182827
-0.23949411761846268 0.603226 0.6493142707474667
-0.01809218067918439 0.673902 0.6192264777320953
0.006093760532126347 -0.318697 0.5945690443757417
0.2921976804686358 0.327096 0.5416879486329021
0.15458656237101007 0.680093 0.5603888457215791
0.16219789612057842 0.19959400000000005 0.5733550072026298
0.21881023678832853 0.126965 0.5516610601869618
0.19483002512119207 0.70517 0.5797631642612003
0.3206660508818594 0.31569 0.5731903513351643
-0.102388781360925 0.15874100000000002 0.6166805819166357
-0.30394177673617656 0.698765 0.6227013347153986
0.2710253341033177 -0.4698389999999999 0.5799363610233138
-0.3241341309084696 -0.07772400000000002 0.6608165693989301
-0.08321038142579673 0.09131100000000003 0.6067051827302236
-0.1975647551220478 -0.30625100000000005 0.6421589358395653
-0.3056411565248905 -0.17990300000000004 0.6229322748238917
-0.23633614479826964 0.274888 0.6488851126566403
0.27154055483871276 -0.388547 0.5444951838759077
0.088050438272374 0.55815 0.5834314021754733
-0.19810177503614118 0.047441999999999984 0.6382072585233024
-0.20154675509187164 -0.36119900000000005 0.6128572683573157
-0.14633445797601663 -0.493614 0.6012830199069608
0.15916551743373636 0.687573 0.5951377411793276
0.2572796802088344 0.271972 0.5818043500524774
-0.28055370963300325 0.20435599999999998 0.654894133881943
-0.22077521985772502 0.013726000000000016 0.6113992739305996
-0.33126283000793694 0.2638229999999999 0.6560803753415404
0.29718087636218804 -0.07872699999999999 0.5410107487462481
-0.21305216446287684 0.516805 0.645720896522897
0.2172218800114308 0.392848 0.5872480729830547
-0.050310470249884054 -0.17227400000000004 0.609603311198228
0.3286722714689862 0.527431 0.566910040999658
0.2201460023184248 0.632771 0.5868506944057003
-0.2539641566759074 0.681415 0.6159095409824167
-0.14302161374448957 0.370831 0.6148333319364913
-0.20543121405179904 0.448489 0.6446852344969961
-0.28671809190385894 -0.2501899999999999 0.6203606927528177
-0.14509919945593036 -0.23582900000000007 0.6224847868707908
0.1980907280693324 -0.37920200000000004 0.5898479334347605
0.3158958967693996 0.729052 0.5738385995464095
-0.265205783366304 0.495146 0.6528084013219144
0.005304019604076837 0.623022 0.5946763675631872
0.3260277042440911 0.626512 0.5474499129118726
0.19040596393878406 -0.458931 0.5630708703908447
-0.1438294398799248 -0.49903999999999993 0.6363137565583395
-0.2820618472647363 -0.10397299999999998 0.6550990848120457
0.26427339598069594 0.448625 0.5808539271453381
0.06036126690560517 0.375806 0.5945633871297262
0.21360314240887507 0.549939 0.5877398474881373
-0.17940023192702748 -0.2636510000000001 0.6197770661657072
-0.008618689136101976 -0.18680399999999997 0.6039375356502132
0.060577708280209586 0.641561 0.608535499286854
-0.27052394386482054 -0.2833269999999999 0.6181599614448865
-0.04494776271838585 0.24374600000000002 0.6088745369316597
0.18762121229494105 -0.038614999999999955 0.5699000623842005
0.05867222295443891 0.733029 0.6087944484580681
-0.014734474591461766 0.090615 0.6047686507228774
-0.2046385004477343 0.22226599999999996 0.6445775073326845
-0.12559776872714568 0.42787 0.6124654888649217
0.017121105398131164 -0.5184690000000001 0.5790699479438138
0.2557734812538642 0.137316 0.546637877174066
0.23884710713031806 -0.17768399999999995 0.5843092759406335
0.2446943608523009 0.546539 0.58351465344488
0.042103474630232784 0.759934 0.575674926360533
-0.10431266671729544 -0.544211 0.6309435574174049
0.2805537085169293 -0.204206 0.5432703260176845
-0.01537886921797843 0.42434 0.5974871039390329
0.3288125861005021 0.279819 0.5679425504689524
-0.20160236924044755 0.483859 0.6124480299592173
0.12336812594068425 0.10465000000000002 0.5860009627923273
-0.2931083113373792 0.606369 0.6566002628467283
-0.03174214496667166 -0.29615499999999995 0.6070799370331834
-0.2484706082924913 0.03064100000000003 0.6505341462243406
0.20740214024107834 0.307231 0.588582543230965
-0.3161851952437101 -0.33008799999999994 0.6597363352587952
-0.11517142045773793 -0.458931 0.607997795974288
0.12979176398641012 0.062324000000000046 0.5777588936796891
0.05730276709616988 -0.580535 0.5736093926438128
0.17659686266962416 -0.09636100000000003 0.5787673530267122
-0.08517730205588248 0.361731 0.6069724807566718
-0.10499642603373122 0.639273 0.6037227043411842
0.32748336755185203 -0.3576079999999999 0.5581614554867981
-0.19660707159525875 0.16584200000000004 0.6221154189260465
-0.2621796422900338 -0.391564 0.6170259983815513
0.22960402339967562 -0.15887099999999998 0.5501942201859036
-0.1485666454049227 -0.06227300000000002 0.6155868834508511
-0.22954956856271708 0.360756 0.6125916789805739
-0.08535138422556265 -0.3970500000000001 0.6143652558376681
-0.20170686458982984 0.2825 0.6116790977632744
-0.3307701128901666 -0.4333 0.6597060491881318
-0.07867407782653596 0.17473899999999998 0.6060887140324502
-0.17048319477330381 0.387156 0.6185652702261568
0.05103834784004796 -0.4788589999999999 0.5744607065597855
0.07751527447435302 -0.4350100000000001 0.5848630961891749
-0.31486136352492183 -0.13897399999999993 0.6595564308943948
-0.08615797031769856 -0.31506499999999993 0.6144748682273551
-0.23591010434333187 0.24838800000000005 0.6134560548152193
-0.3336790156444914 -0.2796129999999999 0.6383008000943725
0.16178401808566864 0.380833 0.5807803697508304
-0.26580130946135766 0.430862 0.6528893313541035
-0.022102071472452856 -0.33687899999999993 0.598400764951351
-0.2255842848010025 -0.593286 0.6321831570945162
0.2473826077548385 -0.34936199999999995 0.5477781692083046
0.20523402542671404 -0.22904999999999998 0.5535060225347538
0.31928871099479683 -0.257433 0.5733775272831557
0.02156883579869001 0.040058999999999956 0.5998351505742711
0.0020350668793147064 0.280199 0.5951206074570172
-0.32450575851762203 0.723891 0.6254959120165976
0.005761135641633219 -0.40795399999999993 0.6019833648896004
0.09193306797149531 -0.377321 0.5902728834931048
0.21893810496423105 -0.11125099999999999 0.58701484367232
-0.0367556315948846 0.744768 0.6217627791568572
0.13797783766359817 -0.14168999999999998 0.5840155511540639
0.2727455226241383 -0.303315 0.5797025930767575
0.08807750717972523 0.439892 0.5907968414885255
0.05457445759593227 0.15216600000000002 0.5953497954292011
-0.01703266797445857 -0.10181200000000001 0.597711849735578
-0.041857485377752246 0.448626 0.601085460544952
-0.04790316665204558 -0.51539 0.6232776924049894
0.07315534965199674 0.0032849999999999824 0.5854555955928887
-0.018954007572310583 0.509921 0.5979729534500784
0.1563638388178757 0.4598 0.5815169542368112
0.1053299278801901 0.17932899999999996 0.5884522944162384
-0.30383075372436047 -0.167755 0.6580574074029985
0.161531340624373 -0.023032000000000052 0.5808147077844547
0.1930777623083806 0.333406 0.5551580185994727
0.030344851464478184 0.24697499999999994 0.5912734011015383
0.23142057749719702 0.773628 0.5710172610591954
-0.3095086080207215 0.652263 0.623457848726777
0.10817545489556865 0.4598 0.5806964787915119
-0.32661635848844467 -0.348811 0.6257827355915773
-0.15771325468061115 0.502625 0.6241989953728996
0.06426308479840004 -0.40522100000000005 0.5866640250585544
0.12168856399207198 -0.023997999999999964 0.5862292097217126
-0.21980013901747825 -0.4013279999999999 0.6466379240090998
0.32191463878157484 0.773628 0.5723899275369898
-0.2661927118033646 -0.5451160000000002 0.6529425216414824
-0.3226012209766093 -0.563067 0.6606082519949424
-0.1793846268062404 -0.568532 0.6411455891956268
-0.21564929240819414 0.08063299999999995 0.6460738376449731
-0.2681626482167127 0.25329 0.6178390691541933
-0.02176318640671515 0.21377199999999996 0.5983547115886076
0.23320393405413478 -0.5148809999999999 0.5497050042009735
-0.027554950176413462 0.34729 0.5991417931828595
0.1767563962824422 -0.06479800000000002 0.5787456729348945
0.0309076781233642 0.566094 0.591196914814877
0.3285887829166447 0.34403 0.5662956879565078
-0.08159193995828545 0.425897 0.6138543597609202
-0.3329964293996219 0.432728 0.643323631668128
-0.11679765683002147 0.284601 0.6112695826821072
-0.21041242816134115 -0.11215799999999998 0.6453621650657393
0.2548510039043809 0.511997 0.5821343991521372
0.22387571982554957 0.117398 0.586343838097614
0.17807892228601124 -0.41514699999999993 0.5711968281246017
-0.17803248613680167 0.289775 0.6269603119121174
0.2512005146504155 -0.45381399999999994 0.5472593282531887
-0.33080472024170177 0.398417 0.6594513899428259
0.0827340535138203 -0.56992 0.605524525044344
0.29028624979083467 0.297747 0.5419477057578486
0.2889624180720465 0.018253999999999992 0.542127610122249
-0.29659327851924905 0.662396 0.6570738583928333
-0.13806021747504915 0.461908 0.6141590945468558
0.12886856746088873 -0.24383200000000005 0.5852534709309599
-0.12388911174616912 -0.593286 0.6109586788830859
-0.1014619135259246 0.668962 0.5951849891121457
-0.15734396678593005 -0.12390900000000005 0.6167796924776916
0.26377394330288806 0.215306 0.5455506407682509
-0.331362746952836 0.298497 0.6553451334737704
-0.033069940253480146 -0.37744 0.6072603800334054
-0.22965955757528117 0.12782700000000002 0.6126066261246221
0.006308784097228903 -0.162667 0.5945398233824222
0.19611844200635914 0.07364000000000004 0.5892440189658151
0.2933213951096448 0.51326 0.5769063998680939
0.16926464062855243 0.639273 0.5865021508870587
-0.21985959253778325 0.724761 0.6466460035464231
0.29742368801068003 0.18743299999999996 0.5763489117927812
-0.2885165608930809 0.407866 0.6206050987568497
0.22398769062212373 0.420569 0.586328621635655
-0.3317293612346624 -0.550406 0.6264775758013873
0.19628924329684805 0.23173699999999997 0.5547215889250552
0.2970708873496241 -0.154296 0.5410256958902964
0.22060969666955557 0.410497 0.5514165195239744
0.011156542609299103 -0.10072000000000003 0.6012501468775043
0.010936991501667936 -0.5657719999999999 0.6152815089750034
0.1917915844857855 -0.36713299999999993 0.5553328059235683
0.2631833716678597 0.36018 0.5456308975056631
-0.2483497625751186 -0.19319200000000003 0.6151465633411796
0.2897056301831043 0.560351 0.5773977703963102
0.24953585918912657 0.698256 0.5828567097888466
0.10178154360999514 -0.348592 0.5889345081354882
0.2669686222345162 -0.4392369999999999 0.5804876547866785
0.10158931056100945 -0.4493039999999999 0.5889606319728338
-0.09316754036164143 0.334515 0.6154274456777807
-0.08421913088394356 -0.593286 0.597752478695649
-0.16200976241464227 0.01123799999999997 0.6247828766034687
-0.32714648571116295 0.21528999999999998 0.6258547781327107
0.16665492835943266 0.334031 0.5727493112212877
0.14364443421744222 0.0020379999999999843 0.5758763614833434
0.253444928149171 0.346146 0.5823254802098349
0.15297070976926438 -0.3484689999999999 0.5746089513952172
-0.10249282502145846 0.22917999999999994 0.6166947211069516
-0.06098595690237685 -0.46571300000000004 0.589684440102394
0.1572830717753768 0.298404 0.5740229156213619
0.04965634575150135 0.18811 0.5886490327199516
-0.21287483790121448 -0.4293529999999999 0.6103256380792788
0.22327717794723356 0.355222 0.5510540176160658
0.03929886644560393 0.357086 0.5974256978854862
0.24873418444976894 0.494668 0.5475944943931532
-0.18727453586819193 -0.3355619999999999 0.6282162759890356
-0.22103677223981938 -0.539007 0.6468059783854259
0.02506979484395866 -0.593286 0.5847160100311267
-0.3322330477815186 -0.05335100000000004 0.6489409984449319
0.14770283561171252 -0.4746380000000001 0.5613243214846703
0.25702200518026624 -0.2529950000000001 0.5464682068902752
0.0896098100298301 0.656036 0.5692189720622924
-0.06037496034549156 -0.35108800000000007 0.6109710422081195
-0.24862816012129924 0.374493 0.6505555569982475
-0.20158270903296066 -0.388825 0.6125927001919591
0.25586563421033676 0.07973300000000005 0.5466253538912148
-0.17363720402547655 0.06746200000000002 0.6189938896811616
0.1687992186584279 -0.2544040000000001 0.5724579092418247
-0.07881280270724733 -0.14154500000000003 0.6061075662862048
0.31922822347523977 0.014776000000000011 0.538014586988831
-0.22685033563362939 0.334421 0.6475960224766963
-0.12799343077221748 0.488516 0.6201601693239013
-0.1450806873310478 0.05096199999999995 0.6151131532457906
-0.2154134601109849 0.659869 0.6460417888135903
0.010534689347605042 -0.538322 0.6153361805108917
0.13886932564495696 -0.20484800000000003 0.5765252829893656
-0.2990844241272696 -0.00023600000000001398 0.6220412365160791
0.20897761542190996 -0.33961299999999994 0.5529972810012922
0.24701895038897378 0.421625 0.5478275890449326
0.10730119588854584 -0.5477780000000001 0.5668147710727677
-0.1346485763015553 0.10879799999999995 0.6136954637634496
0.27285551163670224 0.01555899999999999 0.5796876459327094
-0.039853203110014834 0.701492 0.5868125685608013
-0.2505812513705608 0.22545700000000002 0.6154498153087168
-0.06003738099497302 0.394885 0.6035560483994838
0.17431979284194807 0.589367 0.5790767993061974
-0.12574367900318684 -0.5648420000000001 0.6338559613045698
-0.2579336269410147 -0.07543100000000003 0.6518201392483106
-0.26004719958785233 0.22284899999999996 0.6521073668001565
0.28817668381926437 0.738973 0.5776055491644764
-0.19795674734118668 0.380594 0.6392744492127747
-0.3276894514227002 0.670133 0.6612997257308677
-0.11430457254523779 0.04577399999999998 0.6109307807503471
0.098207081324454 -0.11929599999999996 0.5820511478827306
0.19569574209305168 -0.5738750000000001 0.590173404129937
0.2454276209360608 -0.107217 0.5834150058178916
-0.2790654329486186 0.311359 0.6193207216403444
0.1549736173347471 -0.16693500000000006 0.5817058807512226
-0.17316423371583883 0.447146 0.6262987324642886
0.2757826066197115 -0.21853600000000006 0.5792898633784886
-0.2723739392383067 0.605567 0.6184113697145988
0.10209802196986562 0.702634 0.5675218652475181
-0.28909519871680117 -0.25617500000000004 0.6560548940774007
0.3218699415607857 0.563651 0.5376555862137625
0.307592221766821 0.451486 0.5749670415925738
0.19174943219874568 0.16329499999999997 0.5570945278609628
-0.3173267459408104 0.359172 0.6245203078848004
0.2917954214218201 -0.11680800000000002 0.5771137746593937
0.13207212131331553 0.42266 0.5848181185281855
-0.05085149728465832 0.07929200000000003 0.6096768349878706
-0.21034603839700067 -0.43934399999999996 0.6453531429157282
-0.03492489008699173 -0.4456009999999999 0.6075124615978946
-0.2117551299354729 0.18427799999999994 0.6101734734596886
0.20972970245376643 -0.2917909999999999 0.5528950748541515
0.2837205993651681 -0.17773099999999997 0.5428399559962596
0.12387019336404623 -0.4323060000000001 0.578563615597097
-0.003710124966144812 0.030048999999999992 0.5959013600803658
-0.1375753564613505 0.603726 0.6214623214225181
0.3276244901371002 -0.3864160000000001 0.5591999103081229
-0.2910195109906684 0.05334400000000006 0.6563164017687672
-0.3116677185925459 -0.003615000000000035 0.6591224250811742
0.052553713974358096 0.444404 0.5882552899343926
-0.20759338351413287 -0.267377 0.6096079058470526
0.007751273705332573 0.669477 0.6157144375165808
-0.08543324445173472 0.723954 0.5930067458497645
-0.0388091867469092 -0.09105399999999997 0.6080403247030216
-0.18342548440296064 0.670167 0.6416947284157053
-0.2710094378400633 -0.29494299999999996 0.6535970988236309
-0.30051919264337984 -0.49209900000000006 0.6576073771740867
-0.24892641861482862 0.17049000000000003 0.6505960893438197
0.08584205481626253 0.119753 0.5911006320918843
0.32618027284054746 0.18518800000000002 0.5485725935536294
0.04403105183865663 0.269255 0.589413491609698
0.2822114708414298 0.612685 0.5430450415853179
0.004440952667651321 0.132116 0.5947936555133314
0.10146643995237939 0.582789 0.5889773296833021
0.08332717090736702 0.336452 0.591442396520663
0.18984081038632244 0.024285 0.5695984263241279
-0.2401213522576791 -0.26624899999999996 0.6493995098662284
-0.08335279589262035 -0.458931 0.6073058308132466
0.24671771921942914 0.296859 0.547868525367371
-0.14073463499676264 -0.3564780000000001 0.6145225390674521
0.11089842612553114 -0.04840999999999995 0.5803264359821014
-0.18655514827250314 0.634502 0.6281185135874228
0.3264695202767242 -0.568181 0.5507010295805433
-0.027944370734410307 -0.06280200000000002 0.5991947141523276
0.01448693063837625 0.22073300000000007 0.60079755812844
0.3066924918262075 -0.234545 0.5750893119240675
-0.26999179175084503 -0.4609399999999999 0.6534588040764459
0.06273544414977925 0.546457 0.5942407442726129
0.3162575723512542 0.14905000000000002 0.5737894490276924
0.16068809152804908 0.17042800000000002 0.5809293025554911
-0.198379307143199 0.545302 0.6361650301008305
0.06869212290981774 -0.480067 0.607432777101169
-0.21558790021112612 0.742033 0.6106943342991353
0.29192122159921824 0.720331 0.5417255184814558
-0.1746743531315823 -0.42435599999999996 0.6265039527123023
-0.186610254414538 0.688948 0.6067563678077238
-0.21026379436057901 -0.19994899999999993 0.6453419662224309
-0.1638647598348172 -0.458931 0.6311314917730269
-0.1980213236378035 -0.08964799999999995 0.6436782548285932
0.2392513910683911 -0.3381639999999999 0.5842543350868347
0.13437038368334797 0.765584 0.5631361577294364
0.05181252675455755 0.399331 0.588356014833024
0.2189618432651059 -0.44987 0.5516404573667872
-0.17534122345100178 0.41353 0.6265945781892794
-0.038129434831423614 0.55996 0.6079479486596244
-0.24583487866622294 -0.322843 0.6148047989124008
-0.25231725105621566 -0.014587000000000017 0.6510568922891627
-0.06135495253851664 0.004013999999999962 0.6111042199149996
-0.1560673830601717 0.23477899999999996 0.6239753268479976
-0.29799047935366013 0.463543 0.621892573029329
0.30829179152240815 -0.3552550000000001 0.5748719723700688
0.29602256671549554 0.622042 0.576539319555702
-0.3305507534518371 0.046740000000000004 0.6613202122644086
-0.12205037534895574 0.318186 0.6119834098046271
-0.1909025063220075 0.572682 0.621340187319869
0.16695392859367283 0.716102 0.5940793217899658
-0.1777045008831199 -0.014650000000000052 0.6269157397978835
-0.22292243972548847 -0.14038700000000004 0.6470622343775322
-0.13843972911299512 -0.45072 0.61421066892677
-0.10834832070269607 -0.21841 0.6101213457695006
0.014094222581150173 -0.3855200000000001 0.5934818079699266
0.2989347552111814 0.17691900000000005 0.5407724023952086
0.23717642010250445 0.729971 0.5491651564488168
-0.07472364055357239 -0.4982199999999999 0.6269225063505179
0.3119322856418286 0.23986700000000005 0.5390060808773641
0.1945840032096954 -0.30391999999999997 0.5779528045679174
0.1411758730814912 -0.561898 0.5975824745144246
-0.24243215552077485 -0.4071229999999999 0.6143423800595932
-0.07039913869210473 -0.29774600000000007 0.6049641770959923
0.1904445784406308 -0.4377690000000001 0.5768854941251434
0.1928073129522859 0.278502 0.564878975452879
0.182603335181211 -0.27728200000000003 0.5705819753342931
-0.0769499257376951 -0.03628399999999998 0.6058544074500725
0.053746747948475615 -0.143204 0.5880931605521036
0.19408711166430803 0.249127 0.5742964130691686
0.07254272924156241 0.663538 0.6069094924005254
-0.3049723044214608 0.522309 0.6228413800290037
0.08234488210711771 -0.2752080000000001 0.5842067684406063
-0.3102547065933005 -0.04371400000000003 0.6589304014107888
0.13516309728741274 0.695627 0.5630284305651247
-0.07926532553035531 0.20386899999999997 0.6135381805336655
0.006884807175395025 -0.34259799999999996 0.6018306616341886
-0.1799045959576137 -0.2314529999999999 0.6198456075740005
-0.16946579783537985 -0.5923310000000002 0.6397976530521776
0.05035127587027716 -0.320724 0.5959237118970713
0.16918499047161847 0.519603 0.5797746020130259
0.0741212202056564 -0.5366870000000001 0.6066949806845898
-0.18209446728884265 -0.04173300000000002 0.6201432038654113
0.1437058695217572 0.397397 0.5758680126281093
0.164885195238358 0.12681600000000004 0.5729898121156134
-0.0900752812369977 -0.058508000000000004 0.6076380999731622
0.2163666971037988 0.325467 0.5519931291709524
0.1868948884552167 -0.013831999999999955 0.5699987673985011
0.3279321858501653 -0.0008259999999999934 0.5614640985397329
-0.007869147862763937 0.743185 0.6178372012893415
0.2213310660492545 -0.31362899999999994 0.5513184878044508
-0.015126191756682783 -0.26554900000000004 0.5974527659054086
-0.07431147258670584 -0.5193699999999999 0.5914953337344724
0.0370373360667951 -0.09006500000000006 0.5903639145168373
0.24294440246408078 0.230244 0.5483813066694944
-0.24016693328991273 -0.22815000000000007 0.6494057041781762
0.12334335364055718 0.015710000000000002 0.5860043292662119
0.3070928121962602 0.22304199999999996 0.5750349097060902
0.18769287134252094 0.460028 0.5772594420442602
0.011466084725134051 0.70528 0.579838446602222
-0.09516418775187957 -0.08209900000000003 0.6156987834728906
0.11392233626649695 0.655477 0.5659149799328549
-0.23036899314367193 0.11566500000000002 0.6480741964272845
0.11845769208099965 0.728113 0.6006698003846405
-0.3350083688520969 -0.3906069999999999 0.6285187142202131
0.23868753041025292 0.179523 0.5489598015418478
0.1968342338996426 -0.48121900000000006 0.5546475264995909
-0.023540531840616385 0.396493 0.6059653648594243
-0.11615188750125005 -0.5521310000000001 0.5971813081257955
-0.23856763359371208 0.468248 0.6491883646241776
-0.20621401873581308 0.14807599999999999 0.6447916150717539
0.24719334738186802 0.668955 0.547803889068784
0.23507180859095955 0.19573299999999993 0.5848223265606677
-0.1825876166841589 0.12473000000000001 0.627579339130043
-0.33224449379272675 0.456276 0.6488567726245
-0.12216135525352484 -0.29091500000000003 0.6119984916076308
0.18919474879900963 -0.20583399999999996 0.5696862239630419
0.2853348055486921 0.05858399999999997 0.5779917510485335
0.19504090104533212 0.18516500000000002 0.5813149011411572
0.14771335161351878 0.26807000000000003 0.5826925269173617
-0.04178786316848809 0.773628 0.6037513663474847
0.02374285285783767 0.435637 0.5995397088261465
0.32772683094319627 -0.41515900000000006 0.5599529882319844
-0.1122223936193486 0.583283 0.6180169373899215
-0.25848658778709693 -0.141648 0.6165241244548144
-0.016075151474336302 0.23663 0.6049508442895195
-0.042666053253898384 0.298869 0.6011953422525499
-0.014702089978508137 0.593813 0.5973951318725019
0.2526175333249284 0.14074600000000004 0.5824379204375852
-0.20138597229913663 0.09967400000000004 0.6140403934113825
0.23404029001367022 -0.24700999999999995 0.5849625065332282
0.25038203785421864 -0.417208 0.5473705565503405
-0.20643498765294616 -0.32839799999999997 0.6448216440188057
0.19444180335280406 0.40012 0.5769064226105519
-0.32091476589120865 -0.2638910000000001 0.6250079079622659
0.06265022743734225 -0.08726800000000001 0.5942523249427764
-0.2911711174674458 -0.2293210000000001 0.6563370045889417
-0.19743723309129385 0.005523999999999973 0.643097310568377
-0.21337226568776507 -0.10277700000000001 0.6103932368748843
0.24630848082133072 -0.19092900000000002 0.5479241395159469
0.1311793276167376 -0.345556 0.5849394462469916
0.17982025790314668 0.773628 0.577393783527741
0.18968891165100366 0.685944 0.5556185522269048
0.026213822695295597 0.19128 0.5918347942865572
-0.23571188283506866 0.647258 0.6488002775147449
-0.2870143255061311 0.575856 0.6557721102710827
-0.0893885930774766 -0.3746499999999999 0.6075447813170772
-0.17697750097460452 -0.09313099999999996 0.6194478250197798
0.27098173485509414 0.381867 0.579942286017351
0.025861065141486783 -0.175848 0.5918827328746759
0.23217736993687088 -0.39763100000000007 0.549844510878757
0.19050502285294074 -0.13848300000000002 0.5768772799288647
0.2461856533199478 0.321164 0.5833119917170186
