-0.447151 0.717851 0.288763
-0.430255 -0.024496 -0.448494
-0.423101 0.430006 0.133112
-0.423101 0.159101 -0.383721
-0.447151 0.342652 0.266943
-0.423101 -0.138971 -0.202368
-0.447151 0.489256 -0.447498
-0.447151 0.288134 -0.041301
-0.447151 0.037386 0.20341
-0.447151 0.012874 0.213052
-0.423101 -0.503254 0.287403
-0.447151 0.413525 0.281144
-0.423101 0.605799 0.359685
-0.423101 -0.293871 0.051355
-0.423101 0.444161 -0.31393
-0.423101 -0.281411 -0.207659
-0.423101 -0.020098 -0.393711
-0.447151 -0.496477 -0.15158
-0.423101 -0.02437 0.025871
-0.423101 -0.447191 0.328958
-0.447151 -0.438809 -0.255405
-0.447151 0.308683 0.228096
-0.423101 0.185318 0.195503
-0.447151 0.332173 0.116607
-0.447151 -0.06853 -0.318466
-0.447151 -0.446752 -0.036785
-0.423101 0.042774 0.207116
-0.423101 -0.324654 0.202542
-0.447151 0.562687 0.233819
-0.423101 -0.178454 0.245223
-0.423101 0.628134 0.020748
-0.423101 -0.47463 0.242008
-0.447151 -0.289217 0.309876
-0.423101 -0.07006 -0.070911
-0.447151 -0.01647 -0.193478
-0.423101 0.076428 -0.087226
-0.423101 0.648246 -0.348318
-0.423101 -0.509719 0.01897
-0.423101 0.682438 0.341799
-0.447151 0.245681 -0.300767
-0.423101 0.317789 0.169119
-0.423101 -0.186116 -0.254239
-0.423101 0.364548 -0.36617
-0.423101 0.684022 0.237102
-0.447151 0.775482 0.161737
-0.423101 0.327077 0.276399
-0.447151 0.324088 0.325132
-0.423101 -0.090837 0.335784
-0.447151 -0.633349 -0.297612
-0.447151 -0.181152 0.251797
-0.423101 -0.635777 -0.18476
-0.447151 0.707962 -0.439185
-0.423101 -0.052084 -0.055398
-0.447151 -0.413115 -0.060443
-0.447151 0.078547 -0.095703
-0.423101 -0.60333 0.055235
-0.447151 -0.547462 -0.35784
-0.423101 0.066269 0.225594
-0.423101 0.355594 -0.319648
-0.447151 0.609442 0.360515
-0.447151 0.646794 -0.246632
-0.447151 -0.164692 0.16563
-0.423101 -0.503599 -0.080238
-0.447151 -0.533431 -0.437441
-0.447151 0.494493 -0.33924
-0.447151 0.393415 0.329522
-0.447151 0.570167 -0.225102
-0.423101 -0.388836 0.080886
-0.423101 -0.624311 -0.29922
-0.423101 -0.242934 0.342043
-0.447151 -0.353401 0.063072
-0.447151 -0.099213 0.022067
-0.423101 0.737407 0.263566
-0.423101 0.489147 -0.204134
-0.423101 -0.40663 -0.195986
-0.423101 0.409623 -0.014982
-0.423101 0.137849 -0.369189
-0.447151 0.321513 -0.403294
-0.423101 0.471047 -0.434769
-0.423101 -0.328268 -0.024073
-0.447151 0.097614 -0.427117
-0.447151 0.082863 -0.189284
-0.423101 -0.347087 0.097066
-0.447151 -0.089206 -0.435962
-0.423101 0.704816 -0.151667
-0.423101 0.650758 -0.260702
-0.423101 -0.187971 -0.377616
-0.425005 0.25901 -0.448494
-0.447151 0.664858 -0.01478
-0.423101 -0.091876 0.280301
-0.423101 0.308403 -0.101714
-0.447151 -0.632292 0.29281
-0.447151 0.634882 0.166078
-0.423101 0.50173 -0.138687
-0.447151 0.181439 0.242803
-0.423101 -0.204007 0.07542
-0.423101 0.745514 -0.198814
-0.447151 -0.54801 0.135631
-0.447151 0.128931 0.27492
-0.447151 0.270508 -0.328711
-0.447151 -0.308142 0.020163
-0.447151 0.685497 0.13951
-0.447151 -0.632095 -0.010727
-0.447151 0.214952 -0.215749
-0.423101 0.538561 -0.091503
-0.447151 0.136302 0.176501
-0.423101 0.279372 0.071563
-0.423101 0.359029 0.078602
-0.447151 -0.364276 0.341113
-0.423101 0.279824 0.375482
-0.447151 0.081109 0.06398
-0.447151 0.445552 -0.233627
-0.423101 0.286983 0.109123
-0.447151 -0.369539 0.181495
-0.447151 0.548236 0.317163
-0.423101 0.662868 0.210853
-0.447151 0.173904 0.313423
-0.447151 0.571901 0.065475
-0.423101 0.544724 0.25028
-0.423101 0.318414 -0.021407
-0.447151 0.412683 -0.440319
-0.447151 0.408319 0.077324
-0.447151 0.534055 -0.314091
-0.447151 0.130478 0.359281
-0.423101 0.005273 -0.312585
-0.423101 0.048937 0.320352
-0.423101 0.157585 -0.228409
-0.423101 0.480147 -0.31721
-0.423101 -0.195588 -0.439736
-0.447151 0.346195 -0.274987
-0.423101 0.08411 -0.438462
-0.423101 -0.154816 -0.050567
-0.447151 -0.354748 -0.316474
-0.447151 0.387866 0.068037
-0.447151 -0.077791 0.362778
-0.423101 0.75056 0.013967
-0.423101 0.692853 -0.042608
-0.423101 -0.443567 0.299886
-0.423101 0.175369 -0.17018
-0.423101 0.008468 0.188783
-0.447151 0.432232 0.364859
-0.447151 0.525645 0.18609
-0.423101 0.67295 -0.05665
-0.447151 0.230402 0.254902
-0.447151 -0.619159 -0.394403
-0.447151 -0.41189 0.345113
-0.423101 -0.193749 0.342576
-0.423101 0.752513 -0.049484
-0.423101 0.485387 0.299685
-0.423101 0.414684 0.057614
-0.447151 0.085078 -0.003075
-0.423101 0.340008 -0.391802
-0.447151 0.769652 -0.413581
-0.423101 -0.641908 -0.427056
-0.423101 0.505632 0.173108
-0.423101 0.211772 -0.02484
-0.423101 0.062707 -0.00859
-0.447151 0.166959 0.342375
-0.423101 0.565327 0.08493
-0.423101 0.11045 0.188798
-0.423101 0.003097 0.335057
-0.423101 0.270527 0.050764
-0.423101 0.684224 -0.334956
-0.423101 -0.093322 -0.144566
-0.423101 0.342796 0.230814
-0.447151 -0.313559 0.29187
-0.423101 0.257689 -0.187834
-0.447151 0.521116 -0.018911
-0.447151 0.369155 0.290185
-0.423101 -0.221276 0.08941
-0.447151 -0.52764 0.294447
-0.423101 -0.395478 0.368379
-0.447151 0.209523 0.221149
-0.447151 -0.585856 -0.178446
-0.447151 -0.192981 0.291413
-0.447151 -0.20069 -0.208473
-0.423101 0.292713 -0.198121
-0.447151 -0.13232 -0.082376
-0.423101 0.590013 0.037151
-0.423101 0.66603 -0.398445
-0.447151 0.338371 -0.44635
-0.447151 -0.234944 0.29848
-0.447151 -0.608196 -0.254509
-0.447151 -0.043332 -0.272465
-0.447151 0.726938 -0.072848
-0.423101 -0.155188 0.064664
-0.425636 0.784292 -0.004828
-0.447151 0.744865 0.056301
-0.423101 -0.050775 0.208028
-0.447151 -0.114004 0.161659
-0.423101 -0.024703 0.155549
-0.423101 0.483824 -0.014136
-0.447151 0.209482 -0.301672
-0.423101 -0.613921 0.105736
-0.447151 0.179599 -0.403538
-0.425202 0.557122 -0.448494
-0.423101 -0.067444 -0.419593
-0.447151 0.161581 0.280026
-0.423101 -0.324587 0.298719
-0.423101 0.004595 -0.107104
-0.447151 -0.55997 0.020489
-0.447151 -0.498752 0.148695
-0.423101 0.565577 -0.073258
-0.447151 0.599623 -0.420278
-0.423101 0.606403 -0.426564
-0.447151 -0.492277 -0.24392
-0.423101 0.114964 -0.371062
-0.423101 -0.001387 0.220075
-0.423101 -0.617342 -0.232706
-0.447151 -0.582964 -0.448391
-0.423101 0.076386 0.014439
-0.447151 0.500459 -0.197506
-0.447151 0.00723 0.333658
-0.447151 -0.607993 -0.23
-0.447151 -0.324244 -0.383561
-0.423101 0.059573 0.277788
-0.423101 0.432232 -0.028932
-0.423101 0.127518 -0.317126
-0.423101 0.194312 -0.065375
-0.423101 0.65497 -0.163973
-0.423101 -0.431853 -0.009486
-0.423101 0.044444 -0.236089
-0.423101 0.447893 0.017062
-0.447151 0.002263 -0.129651
-0.423101 -0.04843 0.031231
-0.447151 -0.620563 -0.329397
-0.447151 0.124133 -0.169698
-0.423101 0.291913 0.163052
-0.447151 -0.055212 -0.425344
-0.447151 0.378697 -0.274542
-0.423101 0.529515 -0.369844
-0.447151 0.757904 -0.042391
-0.423101 -0.426088 -0.296536
-0.423101 0.192923 0.012999
-0.423101 -0.542495 -0.196812
-0.423101 0.558076 -0.164336
-0.423101 -0.038433 -0.127845
-0.447151 -0.107897 -0.447972
-0.447151 0.243128 0.016526
-0.447151 -0.563692 0.343567
-0.447151 -0.038406 0.269345
-0.447151 0.319869 -0.114771
-0.447151 0.130944 -0.10985
-0.423101 0.107676 0.141676
-0.426271 -0.31961 -0.448494
-0.447151 -0.125136 -0.052169
-0.447151 0.069846 -0.213313
-0.447151 -0.241179 0.334628
-0.423101 0.508459 0.000808
-0.447151 0.708799 0.013366
-0.447151 0.003235 0.139818
-0.447151 -0.335697 -0.196003
-0.423101 -0.118169 -0.074331
-0.447151 -0.13748 0.332324
-0.423101 0.759864 0.213625
-0.423101 0.218945 -0.320989
-0.423101 0.168836 -0.031694
-0.423101 0.341961 -0.346502
-0.447151 0.594749 -0.367155
-0.423101 0.342628 0.020861
-0.447151 0.075868 -0.234653
-0.447151 -0.332468 -0.279362
-0.423101 -0.359808 -0.230474
-0.423101 0.608631 -0.092657
-0.447151 -0.39553 0.018865
-0.423101 -0.610387 -0.044736
-0.447151 -0.055891 -0.379838
-0.447151 0.63414 -0.330904
-0.447151 -0.537227 0.043485
-0.423101 0.26721 -0.031577
-0.447151 -0.143378 0.253432
-0.423101 -0.522756 0.000604
-0.447151 -0.532544 -0.030035
-0.423101 0.237994 -0.01622
-0.423101 0.315342 0.10987
-0.447151 0.295132 -0.31102
-0.447151 -0.268613 -0.42508
-0.447151 -0.326689 0.154971
-0.447151 0.033499 0.020775
-0.423101 -0.086073 -0.333837
-0.423101 0.535146 0.004423
-0.423101 -0.279776 0.351766
-0.447151 -0.406622 0.206693
-0.447151 -0.446417 -0.276861
-0.447151 0.274056 0.262642
-0.423101 -0.059263 0.314109
-0.447151 -0.037523 -0.061826
-0.447151 0.005755 -0.199717
-0.447151 -0.046567 -0.028145
-0.423101 -0.014869 0.311622
-0.423101 -0.256281 -0.376951
-0.447151 -0.496667 -0.219632
-0.447151 0.487069 0.21873
-0.447151 0.39763 -0.37291
-0.423101 -0.472461 -0.433831
-0.447151 0.389357 -0.200849
-0.447151 0.322732 -0.342078
-0.423101 0.180971 -0.340163
-0.447151 -0.635568 -0.426424
-0.423101 0.297176 -0.166456
-0.447151 -0.125786 -0.14105
-0.423101 -0.39107 -0.145372
-0.447151 0.004612 -0.03924
-0.447151 0.776398 0.020786
-0.447151 0.770157 -0.331806
-0.423101 0.630746 0.077967
-0.423101 0.710034 0.316782
-0.447151 0.110267 0.040395
-0.447151 0.346265 -0.203791
-0.447151 0.619869 -0.224375
-0.423101 -0.279903 0.376402
-0.426804 -0.400704 -0.448494
-0.447151 -0.489125 0.191955
-0.423101 0.133484 0.098721
-0.447151 -0.335546 -0.096933
-0.423101 -0.385124 0.229388
-0.447151 0.448622 -0.092203
-0.447151 0.315524 -0.052169
-0.447151 0.736622 0.182751
-0.447151 0.573054 -0.428385
-0.423101 -0.210056 -0.132779
-0.447151 0.303052 -0.228845
-0.447151 -0.107681 -0.332676
-0.423101 0.407137 0.291033
-0.447151 0.441946 -0.127487
-0.447151 -0.293007 0.254227
-0.447151 -0.385957 -0.251709
-0.447151 0.528423 0.355343
-0.423101 -0.376647 -0.297889
-0.423101 0.735153 -0.444027
-0.447151 0.013513 -0.365244
-0.447151 -0.307537 -0.043603
-0.447151 -0.522406 -0.100046
-0.447151 -0.231415 -0.363656
-0.447151 0.251248 0.112916
-0.447151 0.460393 -0.057954
0.372847 -0.128198 -0.448494
0.394599 0.769306 -0.280792
0.394599 0.261972 -0.077594
0.394599 -0.341025 -0.012198
0.394599 0.651211 0.135263
0.370549 -0.01159 0.213521
0.382996 0.405358 -0.448494
0.394599 -0.046612 -0.122784
0.394599 0.138718 -0.338446
0.394599 0.529446 -0.149686
0.370549 0.365038 0.173077
0.394599 -0.272069 0.264621
0.394599 -0.577382 0.117138
0.394599 -0.314243 -0.271098
0.393666 0.623446 -0.448494
0.370549 -0.500813 -0.163
0.394599 0.163598 0.105077
0.370549 -0.144466 0.063375
0.394599 0.480862 0.335487
0.394599 0.353802 -0.256446
0.392682 -0.359353 -0.448494
0.370549 0.433928 0.004136
0.394599 0.212714 0.281636
0.394599 0.683316 -0.061513
0.38123 -0.658708 0.285231
0.394599 0.763748 0.307402
0.370549 -0.037448 -0.293728
0.394599 -0.44667 0.230028
0.370549 0.509533 -0.31554
0.370549 -0.224011 -0.129713
0.370549 0.12442 -0.169505
0.370549 0.027272 0.019088
0.394599 -0.520049 -0.331113
0.376774 0.784292 0.057309
0.381005 0.250262 -0.448494
0.394599 -0.49232 -0.014247
0.384057 0.037117 -0.448494
0.394599 0.616054 0.277937
0.394599 0.780197 -0.426852
0.370549 -0.116367 0.309501
0.370549 0.505304 0.191206
0.370549 -0.34589 0.126762
0.394599 0.633932 -0.245797
0.38749 -0.593223 -0.448494
0.394599 0.570843 0.018387
0.370549 0.296583 0.055395
0.394599 0.390772 -0.127259
0.394599 -0.368728 -0.149149
0.370549 -0.170783 -0.292062
0.370549 -0.65168 0.006182
0.394599 0.351616 0.304722
0.370549 -0.629542 -0.215426
0.394599 0.140433 -0.032912
0.370549 -0.1746 0.186076
0.394599 0.078501 0.294447
0.394599 0.234733 -0.235118
0.394599 -0.459809 0.102358
0.394599 -0.37546 0.335323
0.391834 -0.477125 -0.448494
0.370549 -0.408401 -0.337054
0.394599 -0.042687 0.104835
0.370549 0.276609 -0.339697
0.394599 -0.22883 -0.01001
0.394599 0.514386 -0.431378
0.394599 0.691263 -0.362213
0.370549 -0.544902 0.289632
0.370549 0.255925 0.182896
0.394599 -0.009049 0.368512
0.394599 -0.133278 -0.18834
0.394599 -0.115991 -0.039631
0.370549 0.06152 0.133991
0.394599 0.454745 -0.228678
0.370549 0.023034 -0.196696
0.390137 0.146374 -0.448494
0.370549 0.784261 -0.046634
0.394599 0.450327 0.106241
0.370549 0.050185 -0.081792
0.394599 -0.425714 -0.234829
0.370549 0.675244 0.037366
0.394599 0.132958 0.20905
0.370549 0.407281 -0.338774
0.392898 -0.227193 -0.448494
0.370549 0.628041 -0.149866
0.394599 -0.256058 0.101035
0.394599 0.502998 -0.05746
0.394599 0.676619 0.364139
0.394599 0.340916 -0.026199
0.394599 -0.297512 -0.363672
0.370549 -0.415852 -0.071509
0.394599 -0.067017 -0.378954
0.370549 0.048718 -0.328109
0.394599 0.696858 0.232861
0.370549 0.433308 0.260147
0.370549 0.311826 -0.168509
0.394599 -0.54478 -0.242834
0.370549 0.155243 0.353952
0.370549 -0.36021 0.218934
0.370549 0.220508 -0.001066
0.394599 0.591555 -0.334603
0.394599 0.554805 0.123307
0.370549 -0.241771 -0.228844
0.370549 -0.413879 0.032621
0.370549 -0.524247 0.194026
0.394599 0.340518 -0.393287
0.394599 -0.571407 0.022394
0.394599 0.084808 -0.254662
0.370549 -0.295608 -0.079623
0.370549 0.539521 -0.236305
0.394599 0.200611 -0.13476
0.394599 0.586401 -0.066012
0.370549 -0.189651 0.269675
0.394599 -0.456525 0.316423
0.370549 0.532789 0.275284
0.394599 -0.529993 -0.089067
0.370549 -0.101692 0.225817
0.394599 -0.596271 -0.143129
0.394599 -0.16995 -0.380468
0.388302 0.784292 -0.199815
0.370549 0.272531 0.33319
0.370549 -0.026645 -0.043355
0.394599 -0.032597 0.289879
0.394599 -0.054882 -0.212054
0.394599 0.379315 0.06713
0.393366 0.784292 0.229381
0.370549 -0.299394 0.342675
0.370549 0.108333 0.052478
0.394599 -0.288068 0.176268
0.370549 0.293402 0.255862
0.394599 0.711073 -0.141766
0.370549 -0.05531 0.0306
0.394599 -0.633778 -0.072027
0.370549 -0.122372 -0.115113
0.394599 -0.291351 -0.158678
0.370549 0.617225 0.200203
0.370549 0.705785 -0.223214
0.370549 0.197806 -0.379708
0.370549 0.508137 0.063639
0.370549 -0.238523 -0.323149
0.394599 -0.607583 0.34796
0.394599 0.212569 -0.305455
0.394599 0.06018 0.223168
0.394599 -0.104912 0.156455
0.370549 0.458279 -0.159476
0.394599 -0.588708 0.229477
0.370549 0.608516 0.075374
0.394599 0.298461 0.123036
0.384299 -0.052565 -0.448494
0.394599 -0.100265 -0.269143
0.370549 0.326105 -0.097722
0.394599 0.432067 -0.069421
0.394599 0.693957 -0.441197
0.370549 0.435911 0.177171
0.394599 -0.184756 -0.065338
0.394599 0.161653 -0.224627
0.370549 0.69618 0.300601
0.394599 0.78042 -0.112423
0.394599 0.694594 -0.292418
0.394599 -0.184945 0.12146
0.370549 0.28962 -0.270698
0.370549 -0.475643 -0.283615
0.370549 0.223213 0.079155
0.370549 0.187437 0.172455
0.370549 -0.345379 0.052511
0.394599 0.632601 -0.012512
0.370549 -0.433557 -0.14802
0.370549 0.5765 0.33074
0.394599 -0.61298 -0.36752
0.394599 -0.413654 0.169848
0.394599 0.068426 -0.388231
0.394599 0.406959 0.343229
0.370549 0.733981 0.004319
0.394599 -0.459173 -0.384121
0.380167 0.784292 0.149664
0.370549 -0.502744 0.057196
0.394599 -0.340563 0.278009
0.394599 0.367001 0.235183
0.394599 -0.653454 -0.272727
0.370549 -0.23534 0.324766
0.394599 0.13801 -0.109046
0.394599 0.056614 0.361046
0.370549 -0.639539 0.070592
0.394599 0.588977 -0.198157
0.394599 0.018045 -0.13292
0.394599 -0.008054 -0.3482
0.370549 0.378592 -0.185941
0.373376 0.314761 -0.448494
0.394599 -0.373375 -0.385695
0.394599 0.348185 -0.32044
0.370549 -0.233316 0.219396
0.370549 -0.404443 0.283426
0.382601 -0.294098 -0.448494
0.370549 -0.17158 0.002067
0.370549 0.285541 -0.007539
0.394599 0.167115 0.042082
0.370549 0.242338 -0.177412
0.370549 -0.284988 0.005263
0.370549 0.15511 0.275168
0.370549 0.13709 -0.279561
0.370549 -0.195246 -0.18521
0.370549 0.021654 0.081049
0.370549 -0.339271 -0.324647
0.394599 -0.354973 -0.088715
0.394599 0.568145 0.229254
0.370549 -0.130289 -0.339523
0.370549 -0.36857 -0.254143
0.394599 0.627654 -0.384895
0.370549 0.002038 0.153925
0.370549 -0.658256 -0.135724
0.370549 0.58741 -0.276761
0.370549 0.024964 0.310439
0.370549 0.18468 -0.066905
0.394599 -0.230666 -0.379048
0.394599 0.731848 0.17654
0.370549 -0.404049 0.109585
0.394599 0.425566 -0.286341
0.370549 -0.241175 0.048078
0.394599 -0.551802 -0.182995
0.370549 -0.235952 0.151744
0.394599 0.618574 0.377216
0.370549 -0.006415 -0.408518
0.394599 0.253001 -0.391043
0.370549 0.501047 0.126066
0.370549 0.638816 -0.30896
0.370549 0.018241 -0.27503
0.370549 -0.477412 -0.220779
0.394599 0.317105 0.204269
0.370549 -0.520656 0.135489
0.394599 -0.477016 0.16923
0.370549 0.57493 -0.12198
0.370549 0.634104 -0.089629
0.394599 0.746676 0.36489
0.370549 -0.615224 0.165659
0.394599 -0.51811 -0.39078
0.394599 -0.348013 -0.205453
0.370549 0.522331 -0.001814
0.370549 -0.481068 0.269467
0.394599 0.211579 0.218813
0.394599 -0.177833 0.330787
0.394599 0.121919 0.144505
0.394599 -0.549239 -0.03536
0.394599 -0.098778 0.086729
0.389719 -0.420636 -0.448494
0.394599 0.490232 0.247079
0.37869 -0.658708 0.369581
0.394599 -0.43628 -0.015276
0.370549 0.372901 0.117191
0.394599 -0.480374 -0.116909
0.370549 0.480412 -0.10225
0.370549 0.071899 -0.132992
0.394599 -0.057409 0.341066
0.394599 -0.157464 -0.238296
0.370549 -0.495798 0.347297
0.394599 0.081185 -0.194525
0.394599 0.478982 -0.354925
0.394599 0.425462 -0.385104
0.394599 0.739174 -0.07581
0.394599 0.780895 -0.363879
0.370549 0.096144 -0.001094
0.394599 -0.289482 -0.216368
0.394599 0.720908 0.055436
0.394599 0.385153 0.009019
0.370549 0.473032 -0.274267
0.394599 -0.293311 0.053422
0.394599 -0.117972 0.014637
0.370549 -0.076118 -0.161273
0.394599 -0.564809 -0.2937
0.370549 0.102995 -0.063427
0.370549 0.270138 -0.131342
0.394599 0.46234 0.049396
0.370549 0.406876 -0.231361
0.376406 0.572916 -0.448494
0.394599 0.597365 0.157012
0.388824 -0.539971 -0.448494
0.394599 0.201942 0.346022
0.370549 0.321152 -0.222346
0.370549 -0.553099 0.076731
0.394599 0.247019 0.0385
0.370549 0.100865 0.246842
0.394599 -0.241786 -0.178226
0.394599 -0.55405 0.35905
0.394599 0.731624 -0.396201
0.370549 0.086479 -0.435873
0.394599 0.008348 0.255844
0.394599 -0.460786 -0.331616
0.370549 0.652234 0.248583
0.394599 0.051752 -0.035355
0.394599 -0.608156 0.286002
0.37327 0.4699 -0.448494
0.370549 -0.066936 0.182873
0.370549 0.104313 0.343085
0.394599 -0.012629 0.047978
0.370549 -0.556617 -0.358966
0.370549 -0.229108 -0.078114
0.394599 -0.143728 0.268719
0.394599 0.492188 -0.192824
0.370549 0.200804 -0.437172
0.370549 -0.386149 -0.029073
0.394599 0.672379 -0.176094
0.370549 -0.065553 -0.081236
0.370549 0.367811 -0.062792
0.370549 0.6706 0.094253
0.394599 -0.392833 -0.292438
0.370549 -0.081576 -0.323641
0.370549 -0.02529 -0.177911
0.394599 0.214971 0.136844
0.394599 -0.000129 -0.07965
0.394599 0.667961 0.191021
0.370549 0.440885 0.314037
0.370549 -0.41154 0.362438
0.370549 -0.304906 0.234489
0.370549 0.184346 -0.176156
0.370549 -0.552185 -0.138705
0.394599 -0.179912 -0.431502
0.394599 -0.309657 0.101858
0.394599 -0.251806 -0.28129
0.394599 0.56252 0.073846
0.394599 -0.189443 0.071611
0.370549 -0.469612 -0.051583
0.370549 0.681692 -0.10502
0.394599 -0.5323 0.248157
0.394599 0.33743 0.023129
0.394599 0.652362 0.311459
0.370549 0.297849 -0.387266
0.394599 0.067031 0.064734
0.394599 0.089902 -0.315462
0.370549 -0.177045 -0.1149
0.370549 0.042698 0.183981
0.370549 -0.083824 0.272724
0.370549 0.256551 0.114977
0.394599 0.404382 0.145815
0.394599 -0.144434 0.219853
0.394599 0.542259 -0.08695
0.370549 0.636545 -0.198695
0.394599 0.336722 0.090664
0.394599 -0.285514 -0.316335
0.394599 -0.391591 0.068513
0.394599 0.738798 0.256961
0.394599 -0.365066 0.177291
0.394599 -0.198651 -0.335991
0.370549 0.530279 -0.358865
0.394599 0.743431 -0.240343
0.370549 0.227905 -0.101038
0.394599 0.439854 -0.122659
0.394599 0.251623 -0.030828
0.370549 -0.149496 0.142244
0.370549 0.550056 0.17504
0.394599 -0.060975 0.229088
0.370549 -0.097308 -0.207627
0.370549 -0.584458 -0.229949
0.394599 0.751617 -0.32665
0.370549 0.100484 0.179154
0.370549 -0.459323 0.019586
0.370549 0.103427 0.108386
0.394599 0.28566 -0.202699
0.370549 -0.655087 -0.371453
0.394599 -0.067741 -0.040756
0.370549 0.743352 -0.184709
0.370549 0.20165 -0.258406
0.394599 0.406481 0.292771
0.394599 0.479428 0.005672
0.370549 0.177682 -0.329485
0.370549 0.095082 -0.355037
0.370549 0.74441 0.214406
0.394599 0.305133 -0.060447
0.370549 0.028289 -0.377774
0.370549 -0.335288 -0.123023
0.370549 0.462383 -0.032338
0.394599 0.146959 0.313796
0.394599 -0.094062 -0.426176
0.370549 -0.522778 -0.275452
0.394599 0.522793 0.316377
0.394599 0.00958 -0.233568
0.394599 0.341365 0.140549
0.394599 -0.632755 -0.176425
0.394599 -0.124843 0.374328
0.389527 0.360012 -0.448494
0.394599 0.75947 0.091404
0.394599 0.57165 0.28903
0.394599 0.556343 -0.300151
0.394599 -0.57341 0.317844
0.373427 0.784292 0.34191
0.370549 -0.49054 -0.362289
0.394599 -0.437872 -0.289668
0.370549 0.229438 0.319574
0.394599 0.555668 -0.024066
0.370549 0.670564 -0.015884
0.394599 0.169106 0.239752
0.394599 0.446026 0.224301
0.370549 -0.59234 -0.079673
0.370549 0.248592 0.259732
0.394599 -0.492015 0.214136
0.394599 -0.40248 0.237938
0.394599 -0.622344 -0.028622
0.394599 0.244673 0.359364
0.370549 0.356666 0.342102
0.370549 0.608155 0.121015
0.370549 0.248252 -0.294075
0.370549 0.630589 0.036722
0.370549 -0.30682 -0.036577
0.394599 0.255914 0.222141
0.370549 -0.199583 -0.242553
0.370549 -0.394407 -0.214665
0.388033 0.742087 -0.448494
0.370549 0.562652 -0.166343
0.394599 -0.50958 0.093683
0.370549 -0.519691 -0.207849
0.394599 -0.27651 -0.117072
0.370549 -0.343911 -0.413593
0.394599 -0.122555 -0.375636
0.394599 -0.512919 0.308073
0.370549 -0.258049 -0.044901
0.370549 0.696678 0.146692
0.370549 -0.64743 0.326251
0.394599 -0.617662 0.019896
0.394599 -0.604293 0.082561
0.370549 0.125358 -0.219828
0.370549 -0.124715 0.187244
0.394599 0.135053 0.012303
0.394599 -0.000375 -0.004764
0.394599 -0.051719 -0.260127
0.394599 -0.152826 -0.149338
0.394599 0.175553 -0.007076
0.370549 0.366601 0.271639
0.370549 0.713201 0.340657
0.370549 -0.321546 0.190223
0.394599 0.428904 -0.18069
0.394599 -0.610855 -0.28145
0.394599 -0.02458 0.179736
0.370549 0.496368 -0.231193
0.370549 0.042358 0.270698
0.394599 0.765618 0.022596
0.370549 0.683416 -0.397641
0.394599 -0.442332 0.272978
0.394599 -0.413503 -0.401553
0.394599 0.316444 0.329636
0.394599 0.305691 -0.127626
0.370549 -0.635683 0.234379
0.394599 0.466273 0.158549
0.394599 0.328927 0.25806
0.394599 0.384974 -0.370818
0.370549 -0.490638 -0.41376
0.394599 -0.40131 -0.121266
0.394599 0.35039 -0.164407
0.370549 -0.197764 -0.032327
0.394599 0.467651 0.290764
0.370549 -0.644157 -0.306921
0.394599 -0.211665 0.177541
0.394599 0.294744 -0.309364
0.370549 0.619209 0.329719
0.394599 -0.465145 0.059983
0.394599 -0.135331 -0.082316
0.394599 -0.212158 0.298202
0.370549 0.045821 -0.242694
0.394599 -0.472857 -0.18404
0.370549 0.656385 -0.364242
0.394599 0.165759 -0.40612
0.370549 -0.369324 0.009756
0.394599 0.522392 0.096122
0.370549 0.387371 -0.301479
0.370549 -0.089798 -0.013896
0.394599 -0.592896 -0.406842
0.394599 0.111079 -0.411391
0.394599 -0.442385 -0.093772
0.370549 -0.316331 -0.191514
0.370549 0.020007 -0.048399
0.394599 0.508554 -0.385413
0.370549 -0.341801 0.341775
0.394599 0.650847 0.064332
0.370549 -0.27297 0.130713
0.394599 -0.003245 -0.4474
0.394599 0.528475 0.216341
0.394599 0.420764 0.071753
0.394599 0.618732 0.236325
0.394599 0.607664 -0.111041
0.394599 -0.317833 0.145973
0.394599 -0.060997 0.067491
0.370549 -0.510585 -0.058629
0.371351 0.784292 -0.315704
0.370549 -0.01726 0.33562
0.394599 0.543191 -0.202659
0.370549 0.540985 0.035265
0.394599 -0.358747 0.095478
0.394599 0.505547 -0.265029
0.394599 0.206606 -0.201569
0.370549 0.695319 -0.326126
0.370549 -0.104906 0.051229
0.394599 0.023074 0.127734
0.394599 -0.26648 0.214081
0.394599 0.2692 0.083867
0.370549 -0.384833 -0.419087
0.370549 -0.006359 0.111307
0.370549 -0.200011 0.031866
0.394599 -0.53109 0.030758
0.394599 0.759869 -0.018119
0.370549 -0.524279 -0.004734
0.394599 -0.064471 0.13966
0.370549 0.17123 -0.10678
0.394599 0.593258 -0.153262
0.394599 -0.472294 0.370812
0.394599 -0.378572 0.138559
0.370549 -0.621775 -0.424448
0.370549 0.306149 0.155265
0.370549 0.178221 0.073244
0.394599 0.050272 -0.295066
0.390987 0.784292 0.380309
0.370549 -0.315797 -0.236156
0.394599 -0.438019 0.136817
0.394599 -0.184866 0.225067
0.370549 0.447123 -0.330261
0.370549 0.398446 0.22569
0.370549 0.699939 0.198483
0.370549 0.347961 0.057595
0.370549 -0.366056 0.29852
0.394599 0.701458 0.007814
0.394599 -0.09605 -0.093059
0.370549 -0.029796 0.257301
0.394599 0.77878 -0.160109
0.394599 -0.633861 0.192498
0.370549 0.027598 0.229441
0.394599 -0.232124 0.257884
0.370549 -0.441586 -0.417844
0.370549 0.043227 -0.161707
0.370549 0.362583 -0.225236
0.370549 -0.117043 -0.155109
0.394599 -0.325452 0.024947
0.394599 0.570235 -0.246244
0.370549 0.068493 0.028058
0.370549 0.154074 0.143778
0.370549 0.610163 -0.044374
0.394599 0.66344 -0.136987
0.370549 -0.417004 0.201768
0.394599 -0.41704 0.323359
0.394599 0.643716 -0.055381
0.370549 -0.158614 -0.046797
0.394599 -0.385017 -0.062247
0.394599 0.102062 -0.143666
0.394599 0.776167 0.186091
0.394599 -0.255971 0.019781
0.370549 -0.221065 0.362074
0.394599 -0.559383 0.152758
0.370549 0.662195 -0.276659
0.370549 -0.426369 -0.190833
0.370549 0.604449 0.006658
0.370549 -0.470556 0.132193
0.370549 0.516805 0.352056
0.382113 0.784292 -0.246222
0.370549 -0.043229 -0.333871
0.394599 0.258329 0.146487
0.370549 0.766914 -0.393632
0.394599 -0.590388 -0.192149
0.394599 0.171678 -0.360442
0.394599 0.215986 -0.06359
0.394599 -0.609758 -0.105815
0.394599 -0.349403 -0.289159
0.394599 0.245409 -0.336658
0.370549 0.373649 -0.02011
0.370549 -0.075706 0.110474
0.370549 -0.463667 0.197485
0.394599 -0.367961 -0.336973
0.370549 -0.077775 -0.120855
0.370549 -0.261341 0.295203
0.394599 0.321827 -0.349651
0.370549 0.346418 -0.133532
0.394599 0.630708 -0.33899
0.394599 0.630707 0.09965
0.394599 -0.613855 -0.242226
0.370549 0.425666 -0.4173
0.394599 -0.568111 0.269154
0.370549 0.782062 0.276468
0.370549 -0.015821 -0.119862
0.370549 -0.242734 -0.416344
0.394599 0.140211 0.073692
0.394599 0.356851 -0.095442
0.370549 0.403165 -0.155616
0.394599 0.005488 -0.311638
0.392117 -0.643373 -0.448494
0.370549 0.117579 0.305778
0.394599 -0.049521 0.000703
0.370549 0.026766 0.366842
0.370549 0.350334 0.209781
0.370549 0.272579 -0.23592
0.394599 -0.329747 -0.163632
0.394599 -0.337877 -0.370277
0.370549 0.368528 -0.345424
0.394599 -0.501031 -0.254459
0.394599 -0.103243 0.3367
0.370549 0.554072 -0.059353
0.394599 0.166267 -0.152238
0.370549 -0.303841 0.27291
0.394599 0.298754 -0.420748
0.394599 0.374717 -0.410787
0.370549 0.56904 -0.354352
0.370549 0.490602 -0.413219
0.370549 -0.326048 0.30412
0.394599 -0.142281 -0.283321
0.370549 0.202484 0.247153
0.394599 -0.263907 0.332999
0.370549 -0.60698 0.114906
0.394599 0.264739 0.304598
0.370549 0.058906 0.093227
0.370549 -0.135017 -0.009544
0.370549 0.162542 0.208924
0.394599 0.415355 0.201467
0.394599 0.084471 -0.106316
0.394599 0.464709 -0.302549
0.370549 0.345656 -0.284774
0.394599 0.676737 0.265145
0.370549 -0.373529 0.372314
0.394599 0.677852 -0.232319
0.370549 -0.202654 -0.387574
0.370549 -0.567001 -0.42707
0.370549 -0.117711 -0.404453
0.370549 0.598744 -0.240461
0.394599 0.281589 0.366298
0.370549 -0.303197 -0.413659
0.394599 -0.589472 -0.010716
0.370549 -0.163678 0.095485
0.394599 0.219228 -0.407116
0.370549 0.176822 -0.286363
0.370549 0.700709 -0.171675
0.394599 -0.108428 0.256543
0.394599 0.569706 0.358469
0.370549 0.476152 0.222265
0.370549 -0.259608 -0.140703
0.370549 -0.581999 -0.115461
0.394599 0.159164 0.17545
0.394599 -0.525876 -0.149459
0.370549 0.19233 0.023228
0.370549 0.314682 0.286346
0.370549 -0.651636 0.110738
0.394599 0.30781 -0.247334
0.394599 -0.192254 -0.157074
0.370549 -0.308052 -0.298679
0.394599 0.078875 0.1563
0.394599 -0.084425 0.030289
0.370549 0.461501 0.080483
0.394599 -0.574084 -0.337022
0.370549 0.440778 -0.252997
0.370549 -0.422184 -0.262628
0.394599 -0.089478 0.301762
0.370549 0.491102 0.309569
0.370549 0.523758 -0.122438
0.394599 -0.360556 0.2467
0.394599 0.003278 -0.17724
0.370549 0.711459 -0.024629
0.394599 0.050126 0.321678
0.370549 -0.271456 -0.262007
0.370549 -0.014306 -0.219935
0.370549 -0.128115 0.112631
0.370549 -0.270408 -0.359184
0.394599 0.395633 -0.070518
0.394599 -0.460945 -0.148064
0.394599 0.452203 -0.423982
0.370549 0.121473 -0.312417
0.370549 -0.580303 0.347776
0.394599 -0.186456 -0.210987
0.394599 0.657694 -0.406545
0.394599 0.39791 0.257485
0.370549 0.535815 -0.282296
0.370549 -0.577668 0.172895
0.370549 0.610584 -0.363719
0.394599 0.255226 -0.267801
0.370549 0.51024 -0.172573
0.394599 0.730804 -0.291369
0.370549 -0.483101 0.088128
0.394599 -0.14573 -0.407363
0.370549 0.575229 0.050011
0.370549 0.572468 0.255811
0.394599 -0.183536 -0.264011
0.370549 -0.380943 -0.103966
0.370549 -0.091508 -0.35815
0.394599 -0.142593 0.337623
0.370549 0.219758 0.193482
0.370549 0.534796 -0.448453
0.394599 0.588247 0.103364
0.394599 -0.018496 -0.146294
0.394599 0.267052 -0.15768
0.394599 0.396719 -0.265146
0.370549 -0.559719 -0.267687
0.394599 -0.403486 -0.363097
0.370549 0.467545 -0.068861
0.370549 -0.560271 -0.06387
0.394599 0.071622 -0.066322
0.394599 0.301695 0.023624
0.394599 -0.327938 -0.052466
0.370549 0.228501 -0.361424
0.394599 0.048077 -0.207918
0.370549 0.658298 0.283978
0.370549 0.456391 -0.202373
0.372883 0.784292 -0.082162
0.394599 0.134336 -0.06798
0.394599 0.385236 -0.212021
0.370549 0.230095 -0.144044
0.394599 -0.097223 0.191152
0.370549 0.074313 -0.284812
0.370549 -0.230327 0.096494
0.370549 -0.439158 0.062016
0.394599 0.092841 0.209348
0.394599 0.343886 -0.20708
0.394599 -0.331007 0.365494
0.370549 -0.157486 0.290816
0.394599 -0.205794 -0.093832
0.370549 0.57696 0.140975
0.370549 -0.550517 0.11652
0.370549 0.320819 0.229812
0.394599 0.652428 0.023012
0.394599 -0.081156 -0.186558
0.370549 0.614112 -0.412202
0.394599 -0.170341 -0.023845
0.394599 0.176835 0.295153
0.370549 -0.474363 0.232835
0.394599 -0.602515 -0.315652
0.394599 0.667641 -0.315046
0.370549 0.342676 0.374385
0.394599 -0.394171 0.003412
0.370549 0.209868 -0.038718
0.394599 0.514707 0.167392
0.370549 0.318674 -0.32433
0.394599 0.102739 0.027668
0.394599 -0.066373 -0.291913
0.394599 -0.493624 -0.077566
0.370549 -0.279692 0.092032
0.370549 -0.325814 0.082413
0.394599 0.069745 -0.343943
0.370549 0.428097 0.118231
0.370549 -0.198153 0.156262
0.370549 0.174512 0.324948
0.370549 0.732872 0.311954
0.370549 0.481856 0.368077
0.394599 0.034657 -0.004799
0.394599 -0.559267 0.211138
0.394599 -0.2844 -0.39719
0.394599 0.284678 0.169023
0.394599 -0.16091 0.024628
0.394599 -0.225687 -0.258519
0.370549 0.070247 0.336763
0.394599 -0.459071 -0.244152
0.370549 0.261345 0.060257
0.370549 0.015951 -0.339151
0.370549 -0.109818 -0.303699
0.394599 -0.276381 -0.06164
0.370549 -0.174141 -0.3396
0.370549 0.311957 -0.029612
0.394599 -0.315152 -0.333799
0.370549 -0.151153 0.243509
0.370549 -0.580821 -0.383398
0.370549 0.533678 0.136901
0.370549 -0.619118 -0.128521
0.394599 -0.361516 0.034054
0.370549 0.536718 0.241166
0.394599 0.43803 -0.030181
0.370549 0.311611 0.102492
0.370549 0.669424 -0.431261
0.394599 0.208237 -0.33941
0.370549 0.187613 0.136966
0.394599 -0.310197 -0.111236
0.394599 0.687253 0.061436
0.394599 -0.300262 0.318419
0.394599 -0.243467 -0.097681
0.370549 0.261311 0.016469
0.394599 0.250426 -0.109776
0.394599 -0.005666 -0.278068
0.370549 -0.006739 0.018532
0.370549 0.473661 0.267473
0.394599 0.11397 -0.273251
0.394599 0.661934 -0.091532
0.394599 -0.148477 0.16607
0.370549 0.506208 0.029882
0.370549 -0.508821 -0.099761
0.394599 0.013767 0.331348
0.394599 -0.037298 -0.064545
0.394599 0.470305 0.199281
0.394599 0.569294 0.18889
0.370549 0.711437 0.270485
0.370549 0.522707 -0.071827
0.370549 0.020247 -0.09731
0.370549 -0.262058 -0.190376
0.394599 0.723297 -0.351761
0.394599 0.048708 -0.415515
0.394599 0.48419 -0.125471
0.370549 -0.529238 0.350566
0.370549 -0.639061 -0.094866
0.394599 0.541847 -0.389823
0.394599 0.384115 -0.327964
0.394599 0.121159 -0.3794
0.370549 -0.157413 -0.172234
0.370549 0.466188 0.024897
0.370549 0.433812 0.359358
0.394599 0.415222 -0.098332
0.370549 -0.033697 0.057816
0.370549 0.637391 0.153924
0.394599 0.13518 0.2424
0.394599 0.132575 -0.191207
0.370549 0.723878 -0.096022
0.394599 -0.390831 -0.247901
0.370549 -0.502782 -0.447577
0.394599 0.607581 0.038593
0.370549 0.109583 -0.12185
0.370549 -0.039839 0.1625
0.370549 -0.487287 0.315115
0.370549 0.590203 -0.309928
0.370549 0.056878 -0.012968
0.394599 -0.150179 -0.328139
0.394599 0.053223 -0.1175
0.370549 0.566796 -0.203553
0.394599 0.589236 -0.010335
0.394599 0.219659 0.101678
0.370549 -0.456212 -0.111897
0.394599 0.192261 -0.237307
0.370549 -0.129796 -0.213888
0.370549 -0.631315 0.038052
0.394599 0.031453 0.20678
0.394599 -0.121858 -0.244107
0.370549 -0.104965 -0.072212
0.370549 -0.345836 -0.066273
0.370549 0.620289 -0.273899
0.394599 -0.215057 -0.417851
0.394599 -0.386631 0.266888
0.394599 -0.346031 -0.253362
0.370549 -0.43404 -0.31634
0.370549 -0.007516 -0.375609
0.370549 0.521132 -0.208999
0.394599 0.537352 -0.337654
0.370549 0.58564 0.215344
0.370549 -0.293282 -0.131811
0.370549 0.110356 -0.030622
0.370549 -0.422899 -0.104507
0.394599 0.557044 0.31835
0.394599 -0.179628 0.289882
0.370549 -0.585199 0.380186
0.394599 -0.39518 0.198455
0.394599 -0.318518 0.251827
0.370549 -0.298639 0.156948
0.394599 -0.108648 -0.343347
0.370549 -0.646479 -0.05413
0.370549 -0.026771 -0.262971
0.370549 0.138342 0.182351
0.370549 -0.324115 -0.444844
0.394599 0.724295 -0.174035
0.370549 -0.435066 0.158454
0.370549 -0.605982 -0.346846
0.394599 0.271753 0.253374
0.370549 0.298354 0.193197
0.370549 0.281938 -0.068908
0.394599 -0.04852 -0.158567
0.394599 0.445338 -0.351907
0.370549 -0.510031 0.226221
0.370549 -0.634473 -0.262223
0.370549 -0.060327 -0.41936
0.370549 -0.382233 -0.358964
0.394599 0.220072 -0.446931
0.394599 0.484177 0.112606
0.394599 0.759491 0.134848
0.370549 0.329804 0.002987
0.370549 -0.367011 -0.301492
0.394599 0.682915 0.321693
0.394599 0.283831 -0.030003
0.394599 0.764303 -0.055658
0.394599 0.522043 -0.031484
0.394599 -0.491557 0.136258
0.394599 -0.533157 -0.362345
0.370549 0.273975 0.285332
0.370549 0.256718 -0.206181
0.370549 -0.513984 -0.310675
0.370549 0.378123 -0.253353
0.394599 -0.394501 0.375957
0.370549 -0.609464 0.326761
0.394599 0.716037 -0.257036
0.394599 0.139426 -0.300564
0.394599 0.512243 0.270424
0.391819 0.283054 -0.448494
0.394599 0.409114 0.101546
0.370549 0.068702 0.242427
0.394599 -0.001649 0.303345
0.370549 -0.589905 -0.283225
0.370549 0.112545 -0.249079
0.370549 0.413958 -0.020736
0.370549 0.149111 -0.25003
0.370549 0.149291 -0.002957
0.370549 0.156325 -0.191254
0.370549 0.580146 -0.085899
0.370549 -0.579478 0.14112
0.394599 0.562806 -0.144031
0.394599 0.67795 0.155768
0.370549 -0.214997 0.246082
0.394599 0.130266 0.351232
0.370549 0.575517 -0.030273
0.370549 -0.652484 0.167614
0.394599 -0.441128 -0.046661
0.370549 -0.396662 0.320099
0.370549 -0.172864 0.350944
0.394599 -0.594612 0.161162
0.370549 -0.506615 0.021554
0.370549 0.071764 -0.175361
0.394599 -0.260153 -0.244871
0.370549 -0.116104 0.352684
0.394599 -0.506201 0.181373
0.375369 0.784292 0.094568
0.394599 -0.24973 0.070134
0.394599 -0.344018 0.32149
0.394599 -0.000154 -0.045279
0.394599 -0.263934 0.14897
0.370549 0.405925 0.167521
0.370549 0.391064 0.05054
0.370549 0.402739 0.081147
0.394599 0.592589 0.318352
0.370549 -0.20792 -0.354029
0.370549 -0.261826 0.24713
0.370549 0.409457 -0.119432
0.394599 -0.056262 0.260168
0.370549 -0.095348 -0.446363
0.394599 -0.186167 -0.307154
0.370549 0.589903 0.359196
0.370549 -0.061402 -0.190677
0.370549 -0.357436 0.266981
0.394599 0.523294 0.019204
0.394599 -0.50393 -0.188284
0.394599 0.364839 0.360462
0.394599 -0.649606 -0.348393
0.394599 0.424338 0.04065
0.394599 -0.416675 0.087219
0.370549 0.096633 -0.207199
0.370549 -0.612608 -0.055864
0.370549 -0.452336 0.371454
0.394599 0.303063 0.074265
0.394599 -0.509593 -0.420841
0.394599 0.20803 -0.099779
0.394599 -0.48106 0.014875
0.394599 0.069434 0.008226
0.370549 -0.652438 0.20344
0.370549 0.065138 -0.363561
0.370549 0.783724 -0.141005
0.394599 0.163413 -0.078999
0.394599 0.639573 -0.113134
0.394599 -0.47328 0.290245
0.370549 -0.614958 0.000394
0.394599 -0.178799 0.152699
0.370549 0.47137 0.135245
0.394599 -0.235987 -0.210081
0.394599 0.713528 0.136645
0.394599 -0.053152 0.196834
0.370549 -0.58789 0.071815
0.394599 0.687489 -0.02572
0.370549 0.671712 0.211316
0.394599 -0.410232 -0.203178
0.370549 0.440649 -0.086958
0.394599 0.150685 0.380243
0.370549 -0.479656 -0.326764
0.370549 -0.083835 -0.283341
0.370549 0.229713 0.047356
0.370549 0.391691 0.3312
0.370549 0.049217 0.05713
0.370549 0.153895 -0.368097
0.370549 0.080391 0.275197
0.394599 0.715195 -0.05643
0.394599 -0.201164 0.350932
0.394599 0.322646 0.050534
0.394599 -0.036326 -0.377209
0.394599 0.220818 -0.160781
0.394599 0.489371 0.067303
0.370549 -0.07625 0.337813
0.370549 0.277491 -0.173696
0.370549 -0.164592 -0.410434
0.394599 -0.631895 -0.142709
0.370549 0.035501 -0.124539
0.394599 0.750449 -0.367728
0.370549 0.460777 -0.363041
0.394599 -0.513962 0.277425
0.394599 -0.254999 -0.31336
0.394599 0.649279 0.378014
0.370549 0.57159 0.090557
0.394599 0.108326 0.071485
0.370549 0.276989 0.143134
0.394599 0.01746 0.053639
0.394599 0.182171 -0.431902
0.370549 -0.20568 0.332134
0.370549 -0.225646 -0.044788
0.370549 0.6634 0.35077
0.394599 0.08077 -0.417962
0.394599 0.006587 0.18908
0.370549 0.035887 0.114005
0.370549 0.644311 -0.230207
0.394599 0.609509 -0.225148
0.370549 -0.055152 0.282968
0.370549 -0.104073 -0.237296
0.394599 0.425348 -0.328982
0.370549 0.345513 -0.368426
0.394599 0.538117 -0.254835
0.370549 -0.393613 -0.272965
0.394599 0.043317 0.028418
0.370549 0.414619 -0.370044
0.394599 0.12147 0.104067
0.370549 -0.606288 -0.15865
0.370549 0.251627 -0.012389
0.370549 0.779976 0.209922
0.394599 0.042348 0.0823
0.394599 0.640873 -0.290665
0.370549 -0.53622 0.318647
0.370549 -0.527755 -0.176797
0.394599 0.356707 0.192581
0.394599 0.327041 -0.270668
0.370549 0.271399 -0.372642
0.370549 0.133666 0.030543
0.370549 0.604212 -0.129435
0.370549 0.120069 -0.434175
0.394599 -0.428553 -0.346247
0.370549 -0.060763 -0.361797
0.394599 -0.64967 0.04076
0.370549 -0.344589 -0.153042
0.394599 -0.638664 -0.383338
0.370549 0.144418 -0.052819
0.394599 0.500269 -0.157343
0.370549 0.426255 -0.201112
0.370549 -0.025769 -0.431648
0.394599 0.120978 0.176909
0.370549 0.561155 -0.317932
0.370549 -0.160605 0.320771
0.394599 0.371845 0.099149
0.394599 -0.511621 -0.117606
0.394599 0.28742 0.209073
0.394599 -0.632098 0.093944
0.370549 -0.397254 -0.446443
0.394599 0.190983 -0.04696
0.370549 -0.007602 0.074314
0.394599 -0.135198 0.131373
0.39179 0.657072 -0.448494
0.394599 0.407879 -0.41972
0.370549 0.069209 -0.048573
0.394599 -0.12255 -0.316533
0.370549 -0.17029 -0.201789
0.370549 0.541503 0.204138
0.394599 -0.311186 0.217785
0.394599 0.330019 -0.421285
0.370549 -0.202242 0.12551
0.394599 -0.565201 -0.374496
0.370549 0.642776 0.220234
0.370549 -0.374539 0.104994
0.370549 -0.644687 -0.163373
0.370549 0.213754 -0.285679
0.394599 0.058463 0.263494
0.370549 0.412557 -0.075384
0.394599 0.171369 0.147043
0.370549 0.112062 0.219226
0.370549 0.706561 -0.418089
0.370549 0.238709 0.218552
0.394599 -0.442248 0.178175
0.394599 0.760459 0.058288
0.370549 -0.569303 -0.184254
0.370549 0.658481 -0.165471
0.394599 0.047083 -0.265499
0.394599 -0.275561 -0.425561
0.394599 0.210661 0.067089
0.394599 0.336544 -0.055566
0.370549 0.633888 0.300876
0.370549 -0.126503 0.271153
0.370549 -0.414954 0.255668
0.370549 -0.536314 -0.33705
0.370549 0.180659 0.1079
0.394599 -0.430583 -0.125649
0.394599 0.438435 0.286096
0.370549 -0.213457 -0.216431
0.370549 0.385281 -0.430703
0.370549 0.70168 -0.126805
0.394599 -0.296832 0.288541
0.370549 -0.314751 -0.155376
0.370549 -0.014634 -0.312456
0.370549 0.218 -0.231569
0.394599 0.186319 -0.272166
0.370549 -0.196907 -0.433203
0.394599 0.626061 0.185677
0.370549 -0.544871 -0.097272
0.370549 0.640082 0.113806
0.394599 -0.544901 0.185464
0.370549 0.769597 0.240654
0.370549 -0.201032 0.002496
0.370549 0.464042 0.336959
0.394599 -0.5715 -0.158927
0.394599 0.496523 -0.097375
0.370549 -0.33425 0.235142
0.370549 -0.247047 -0.445359
0.370549 -0.292567 0.194673
0.370549 -0.116895 -0.271138
0.370549 0.64398 0.008556
0.370549 -0.324659 -0.380501
0.394599 0.277593 0.040258
0.394599 -0.630171 0.329348
0.370549 0.380857 0.197696
0.394599 0.325084 0.176134
0.370549 -0.163728 0.040989
0.370549 0.417934 -0.301056
0.370549 0.037681 0.150851
0.394599 -0.558447 -0.211411
0.370549 -0.21465 0.196988
0.394599 -0.429533 0.027426
0.370549 0.249055 -0.067339
0.394599 0.109837 0.327578
0.394599 0.217985 0.252669
0.370549 0.699718 0.095201
0.394599 -0.553517 -0.000599
0.394599 -0.568272 0.070439
0.394599 -0.020022 -0.100895
0.370549 -0.441063 -0.229134
0.370549 -0.066034 0.213521
0.370549 0.189177 -0.204832
0.394599 0.733432 0.226515
0.394599 -0.301286 0.008808
0.394599 0.086428 -0.223106
0.394529 -0.658708 0.345223
0.394599 -0.530467 0.155544
0.394599 0.699534 -0.395275
0.371423 0.168566 -0.448494
0.370549 0.087422 -0.09033
0.394599 0.639537 0.260879
0.394599 0.460717 -0.083586
0.370549 -0.523296 -0.246447
0.394599 -0.649163 -0.108143
0.370549 0.061737 -0.216609
0.394599 0.686199 -0.260082
0.394599 0.172261 -0.189036
0.394599 -0.619832 0.217805
0.370549 -0.378725 -0.161701
0.394599 -0.238696 0.286767
0.394599 0.207841 0.019329
0.370549 -0.196899 0.377888
0.370549 -0.098189 0.022281
0.370549 0.225816 -0.314269
0.394599 0.095284 0.269643
0.370549 -0.363739 -0.127476
0.394599 -0.134665 -0.127005
0.394599 0.625191 0.344348
0.370549 -0.451168 -0.176232
0.370549 0.227885 0.286035
0.370549 0.474405 -0.315015
0.370549 0.780104 0.029533
0.394599 0.522792 -0.18215
0.370549 -0.437664 0.000655
0.370549 -0.16998 -0.247888
0.394599 -0.219552 0.227079
0.394599 0.224873 -0.020297
0.394599 0.733485 0.109641
0.394599 0.483076 -0.247137
0.370549 0.265134 0.366763
0.394599 -0.349998 -0.117597
0.394599 -0.488636 -0.346732
0.370549 0.0649 0.163371
0.394599 0.550336 0.159408
0.370549 0.717087 -0.298862
0.370549 -0.53077 0.04634
0.394599 0.066968 0.106546
0.394599 -0.459454 -0.068681
0.394599 -0.352046 0.202777
0.394599 -0.115909 0.217916
0.370549 -0.418731 -0.292194
0.370549 -0.144125 0.358304
0.370549 -0.373252 0.058778
0.370549 -0.243225 -0.257685
0.394599 0.262448 0.001133
0.394599 -0.204404 0.265384
0.370549 0.312717 -0.287455
0.394599 0.011579 0.025732
0.394599 -0.000221 -0.205528
0.394599 0.413571 0.011191
0.370549 -0.403314 -0.38929
0.370549 0.141228 0.058474
0.370549 0.003201 -0.019568
0.394599 -0.358989 -0.411742
0.394599 0.753513 -0.173486
0.394599 0.52777 -0.226779
0.394599 -0.172181 -0.186421
0.370549 -0.287634 0.310113
0.394599 0.292365 0.272913
0.370549 0.594984 -0.212017
0.370549 -0.580014 0.039859
0.394599 0.301029 -0.158035
0.394599 0.376513 0.318304
0.370549 0.321748 -0.058016
0.394599 0.593027 -0.44027
0.394599 -0.526984 0.121912
0.394599 -0.629123 0.160103
0.394599 0.67855 0.106909
0.370549 -0.039469 -0.232918
0.394599 0.323547 -0.177778
0.370549 -0.237202 -0.365623
0.370549 0.334218 0.119508
0.370549 -0.456517 0.301521
0.370549 -0.579612 0.278615
0.394599 0.383878 0.212256
0.394599 -0.356088 0.06733
0.394599 0.764506 -0.221509
0.370549 0.783609 -0.276911
0.370549 0.508651 0.219254
0.370549 0.078131 0.309638
0.370549 0.499565 -0.341967
0.394599 -0.06131 -0.098676
0.370549 0.146847 0.232381
0.370549 -0.077727 0.146158
0.370549 -0.518957 -0.366368
0.392185 0.784292 0.258495
0.394599 0.759899 0.209144
0.394599 0.516738 0.123752
0.370549 -0.522818 0.087228
0.394599 -0.033725 -0.307973
0.394599 -0.233575 0.137214
0.394599 0.23412 0.196708
0.394599 0.67956 -0.204174
0.394599 -0.476394 -0.406446
0.394599 -0.015924 -0.419729
0.394599 0.567582 -0.407736
0.394599 0.191924 0.096793
0.394599 -0.318769 0.17584
0.394599 -0.142152 0.04892
0.370549 -0.098753 0.169713
0.394599 0.538479 0.18984
0.370549 -0.445527 0.105455
0.370549 -0.317455 0.114215
0.394599 0.029787 -0.167427
0.394599 0.14799 -0.26986
0.388263 0.432984 -0.448494
0.370549 0.186347 -0.137647
0.370549 -0.056353 -0.054674
0.394599 0.70671 0.290561
0.394599 0.447489 0.024778
0.370549 -0.482914 0.00053
0.394599 -0.62482 0.263426
0.394599 -0.087141 0.000298
0.370549 0.700859 -0.250829
0.394599 -0.210518 -0.039052
0.370549 0.333869 0.159431
0.370549 0.777925 0.30497
0.394599 -0.392977 -0.430916
0.370549 0.376077 0.297997
0.394599 -0.282734 -0.288474
0.394599 -0.046959 0.043279
0.394599 0.378228 -0.161546
0.370549 0.080742 -0.240993
0.370549 -0.304106 0.025663
0.370549 0.147444 -0.428539
0.370549 -0.19886 0.303237
0.394599 -0.442166 0.340378
0.394599 0.021646 -0.365231
0.370549 -0.265851 0.029945
0.394599 -0.186921 0.001312
0.394599 0.420284 0.168741
0.370549 -0.048775 0.236168
0.370549 0.754159 0.113699
0.370549 0.32524 0.030462
0.370549 0.497999 -0.286589
0.394599 0.601408 -0.276859
0.394599 0.515709 -0.302984
0.394599 0.7254 -0.02576
0.394599 -0.594538 -0.219654
0.394599 -0.491527 0.072522
0.394599 -0.430709 0.204486
0.374007 -0.455782 -0.448494
0.394599 -0.24694 0.194327
0.394599 -0.224458 0.333405
0.370549 0.221537 0.346198
0.394599 -0.144956 -0.035098
0.394599 0.362279 -0.282884
0.370549 -0.274114 -0.103434
0.394599 -0.211906 -0.123042
0.370549 0.33068 -0.189599
0.370549 0.13025 -0.353616
0.370549 0.602924 -0.163094
0.394599 -0.212083 0.025258
0.370549 0.509361 0.256969
0.394599 -0.266057 0.360619
0.394599 -0.214338 -0.181929
0.370549 0.108192 0.144585
0.370549 0.711075 0.045888
0.370549 -0.329298 0.153423
0.370549 0.263096 0.236181
0.370549 0.514617 -0.25197
0.370549 -0.390889 0.082128
0.394599 -0.459833 -0.272885
0.370549 0.130284 0.114891
0.394599 -0.641188 -0.222453
0.394599 0.37796 -0.032991
0.394599 0.049066 0.139411
0.370549 -0.06303 0.000308
0.370549 0.239295 -0.041539
0.370549 -0.145189 0.020593
0.394599 -0.159476 0.110967
0.394599 0.014613 0.158578
0.370549 -0.633465 0.287763
0.394599 0.327623 0.289785
0.370549 0.209693 -0.078394
0.394599 0.63819 -0.211977
0.394599 0.393725 0.035161
0.370549 -0.231033 -0.170381
0.370549 0.36229 -0.107588
0.394599 0.615763 -0.19202
0.370549 -0.347908 -0.236027
0.394599 0.201 0.160502
0.394599 0.5844 0.261589
0.394599 -0.608737 0.128036
0.394599 0.481573 -0.021685
0.394599 0.724664 -0.117944
0.394599 -0.315865 -0.027017
0.370549 0.463269 0.10859
0.370549 0.649879 -0.06699
0.370549 -0.008298 -0.089929
0.370549 -0.639565 -0.018389
0.394599 -0.0228 0.010949
0.394599 -0.245157 -0.355261
0.394599 -0.405913 0.137392
0.394599 0.718928 -0.422206
0.394599 -0.028844 -0.190422
0.394599 -0.450059 -0.199126
0.370549 0.454341 0.242698
0.394599 0.108055 -0.179142
0.394599 0.307457 0.241176
0.394599 -0.407197 0.297887
0.370549 -0.535588 0.169191
0.394599 0.510569 -0.358189
0.394599 -0.136667 0.192002
0.394599 -0.164518 0.360723
0.370549 0.714753 0.167084
0.394599 0.280574 -0.246582
0.394599 0.73852 0.025417
0.394599 0.600441 -0.386212
0.370549 0.177249 -0.400645
0.394599 -0.283727 -0.258452
0.370549 0.396759 0.003938
0.370549 0.160837 0.030139
0.394599 0.458945 -0.146887
0.394599 -0.415657 0.350537
0.394599 -0.229017 0.051276
0.370549 -0.26452 0.061905
0.370549 0.666487 0.160893
0.370549 0.705022 -0.375144
0.394599 0.22395 -0.37311
0.370549 0.411783 -0.258029
0.370549 -0.481786 -0.081605
0.394599 0.663969 0.221109
0.394599 0.665418 -0.380579
0.394599 0.221353 0.310125
0.394599 -0.489907 0.26082
0.370549 -0.44914 0.262666
0.370549 -0.583409 -0.327421
0.394599 0.721349 0.331445
0.394599 -0.075476 -0.247275
0.370549 -0.567189 -0.037771
0.370549 0.308381 -0.413153
0.370549 -0.037968 0.116151
0.394599 -0.487795 -0.2852
0.394599 -0.15501 -0.358001
0.370549 0.635031 0.351591
0.394599 -0.218084 -0.23264
0.394599 0.146274 0.132932
0.394599 -0.409483 -0.324935
0.370549 -0.338004 -0.293402
0.370549 -0.4487 -0.283096
0.370549 0.591371 0.167582
0.394599 0.247317 -0.306153
0.370549 0.042536 0.331105
0.394599 -0.565936 -0.444391
0.370549 0.287009 0.113394
0.394599 -0.092378 -0.387912
0.370549 -0.550761 0.202619
0.370549 0.742363 -0.27854
0.394599 -0.519067 -0.016885
0.394599 0.627187 0.147617
0.394599 -0.07441 0.098568
0.394599 -0.572508 -0.122746
0.394599 0.44942 -0.261262
0.370549 -0.152811 0.211345
0.394599 -0.096682 -0.119898
0.386832 0.784292 0.12367
0.394599 0.175117 0.34553
0.394599 -0.028417 0.207225
0.370549 -0.189893 0.23668
0.394599 0.667018 -0.350782
0.370549 -0.22528 0.298771
0.370549 -0.408271 -0.139157
0.394599 0.443586 0.197339
0.370549 0.516216 -0.041738
0.394599 -0.133542 -0.431211
0.394599 0.479729 -0.408676
0.370549 -0.463496 0.048322
0.370549 0.511143 0.092684
