-0.630118 -0.437442 0.214815
0.636637 -0.437442 -0.094871
0.205592 -0.451414 -0.239171
-0.787906 -0.437442 -0.21063
0.207787 -0.437442 0.061194
-0.804911 -0.437442 0.009231
0.328366 -0.477227 -0.072267
0.573251 -0.437442 -0.176954
-0.869528 -0.456698 -0.187218
-0.366845 -0.437442 -0.077046
0.673194 -0.437442 -0.002288
0.034765 -0.437442 -0.228854
-0.121498 -0.437442 0.121798
0.652588 -0.477227 0.026392
-0.820212 -0.437442 -0.01939
0.350193 -0.437442 0.06982
-0.384214 -0.437442 -0.21824
0.282442 -0.477227 0.153918
0.347423 -0.477227 0.144616
-0.647424 -0.454942 0.243068
0.436305 -0.477227 -0.079938
0.707912 -0.437442 -0.211705
-0.215816 -0.477227 -0.119492
-0.22963 -0.437442 0.127925
-0.078413 -0.437442 -0.135161
-0.158465 -0.437442 -0.051348
0.030711 -0.477227 0.177149
-0.384114 -0.437442 -0.127061
-0.034432 -0.477227 0.192848
-0.066018 -0.477227 -0.142796
0.461697 -0.477227 0.068097
0.120588 -0.437442 -0.212588
-0.417097 -0.437442 0.167064
-0.170005 -0.477227 0.158335
0.216595 -0.477227 -0.086388
-0.628434 -0.437442 -0.123161
-0.2303 -0.477227 0.07584
-0.683309 -0.437442 0.026846
-0.740811 -0.477227 -0.054386
0.514251 -0.437442 0.093831
-0.380085 -0.437442 0.180598
-0.178594 -0.437442 0.009678
0.651158 -0.477227 0.238231
0.842582 -0.477227 0.186311
0.779056 -0.437442 -0.054207
-0.010633 -0.437442 0.01627
0.848447 -0.443186 0.083606
-0.850521 -0.477227 0.023459
-0.355147 -0.477227 0.202452
0.501238 -0.464523 -0.239171
-0.373213 -0.477227 0.058511
0.247008 -0.477227 0.178362
-0.435748 -0.437442 -0.005071
0.640468 -0.437442 -0.206936
0.27023 -0.437442 -0.072289
0.78085 -0.477227 0.18726
0.00175 -0.451766 -0.239171
0.05843 -0.477227 0.156105
0.761322 -0.445162 0.243068
-0.572072 -0.437442 -0.144979
-0.273193 -0.437442 -0.120508
0.403094 -0.437442 -0.072475
0.800197 -0.477227 0.155895
-0.729284 -0.437442 0.092438
-0.440101 -0.477227 -0.083229
0.496967 -0.477227 -0.136656
0.70601 -0.437442 -0.147474
-0.223869 -0.437442 -0.209194
0.324526 -0.437442 -0.112673
0.80658 -0.437442 0.095035
0.476535 -0.477227 0.113272
0.818254 -0.453033 0.243068
0.281304 -0.437442 -0.18255
-0.583801 -0.477227 0.139288
-0.290941 -0.461345 -0.239171
0.555322 -0.477227 -0.026602
-0.80099 -0.477227 -0.124163
0.099833 -0.437442 0.145341
0.303783 -0.477227 0.238653
-0.517435 -0.437442 -0.028306
0.848447 -0.473348 -0.037443
-0.088637 -0.472903 0.243068
0.533893 -0.437442 0.037572
0.695935 -0.437442 -0.173682
0.735893 -0.477227 -0.126013
0.266583 -0.477227 0.025277
-0.145707 -0.437442 0.201079
-0.215147 -0.477227 0.155298
-0.775274 -0.477227 0.002496
-0.639659 -0.477227 0.140493
0.115425 -0.477227 -0.015488
0.820722 -0.477227 0.11075
-0.250052 -0.437442 -0.02855
-0.757838 -0.437442 0.218927
0.26255 -0.477227 -0.108967
-0.653836 -0.437442 -0.063697
0.639555 -0.437442 0.199951
-0.329777 -0.477227 0.174125
-0.294701 -0.437442 0.167424
-0.096249 -0.437442 -0.185862
-0.722152 -0.437442 -0.073574
-0.282011 -0.437442 0.034275
-0.256971 -0.477227 0.12957
0.796354 -0.465723 -0.239171
0.196792 -0.437442 -0.21461
-0.012571 -0.477227 -0.169629
0.65031 -0.465773 -0.239171
-0.661468 -0.477227 0.118524
0.569661 -0.437442 0.063317
-0.570378 -0.437442 0.216664
0.530062 -0.477227 0.179903
-0.445153 -0.477227 -0.147372
0.208635 -0.477227 0.182915
-0.237842 -0.477227 -0.102851
-0.48634 -0.437442 0.197414
-0.019016 -0.437442 0.073446
0.737162 -0.477227 0.039039
-0.048615 -0.477227 -0.181034
0.599163 -0.477227 0.144564
0.184379 -0.477227 0.141717
-0.228302 -0.477227 0.2012
0.848447 -0.454476 0.212014
0.177998 -0.477227 -0.123006
0.57287 -0.437442 0.120036
-0.268662 -0.477227 -0.220959
-0.238414 -0.437442 0.035616
0.219088 -0.437442 0.184061
-0.653744 -0.477227 -0.195007
0.184505 -0.477227 0.090739
-0.142522 -0.437442 -0.22429
-0.380059 -0.437442 -0.156003
-0.600915 -0.437442 0.062186
0.583334 -0.437442 -0.213117
0.539233 -0.477227 0.038289
-0.301466 -0.437442 -0.209672
-0.784122 -0.477227 0.113879
-0.737444 -0.472158 0.243068
0.234536 -0.446515 0.243068
-0.835869 -0.477227 -0.022192
0.78627 -0.477227 0.006011
-0.564828 -0.477227 -0.053438
-0.005571 -0.477227 -0.080791
-0.366166 -0.477227 0.1338
-0.365419 -0.477227 0.003189
0.404804 -0.477227 -0.139178
0.329655 -0.46244 0.243068
-0.476344 -0.477227 -0.163266
0.665556 -0.437442 -0.226325
0.583543 -0.477227 -0.161647
-0.222675 -0.437442 -0.123952
0.435233 -0.477227 0.00842
-0.461871 -0.477227 0.005004
0.414931 -0.437442 -0.167602
-0.333747 -0.477227 0.129435
0.829536 -0.437442 0.17653
0.086742 -0.437442 0.189598
-0.125265 -0.437442 0.156574
-0.286106 -0.477227 -0.138906
0.191148 -0.437442 -0.02364
0.000298 -0.477227 0.144838
0.452584 -0.437442 -0.169849
-0.718018 -0.477227 0.186039
-0.315332 -0.477227 0.236178
-0.013069 -0.437442 -0.092405
0.012121 -0.477227 0.242798
0.470258 -0.437442 0.00018
-0.756594 -0.477227 0.029683
-0.130674 -0.437442 -0.196733
-0.531611 -0.437442 -0.206881
0.282991 -0.477227 -0.191838
-0.597634 -0.477227 -0.129949
-0.223665 -0.437442 -0.155128
-0.198379 -0.465779 0.243068
-0.764667 -0.477227 -0.15915
0.00124 -0.477227 0.108203
-0.565189 -0.437442 -0.228306
-0.757051 -0.437442 -0.143538
-0.356698 -0.437442 0.059008
0.109362 -0.437442 0.048822
-0.120645 -0.477227 0.074494
0.661555 -0.477227 -0.184189
-0.459011 -0.437442 0.201167
0.106436 -0.457694 0.243068
-0.404756 -0.437442 0.111531
-0.092774 -0.441318 -0.239171
0.682036 -0.477227 0.129624
-0.415421 -0.437442 -0.089953
0.702544 -0.437442 0.124913
-0.633372 -0.477227 0.212535
-0.056777 -0.437442 0.164208
0.535289 -0.477227 -0.221258
0.738371 -0.437442 -0.154381
-0.640965 -0.477227 -0.108284
0.302874 -0.477227 -0.233895
-0.816662 -0.477227 -0.16286
-0.780228 -0.437442 0.174719
-0.068311 -0.437442 -0.191017
-0.729079 -0.477227 0.108988
-0.150531 -0.477227 0.241452
-0.382039 -0.476906 0.243068
0.427969 -0.452529 -0.239171
0.255803 -0.467031 -0.239171
0.075749 -0.437442 -0.09115
-0.591299 -0.437442 0.009478
0.156156 -0.477227 -0.019671
0.223544 -0.437442 -0.167934
0.454065 -0.437442 0.177254
0.735293 -0.477227 -0.193096
0.389722 -0.437442 -0.001977
-0.247814 -0.477227 0.184265
-0.715457 -0.437442 -0.215789
0.536017 -0.437442 -0.036628
0.367797 -0.437442 0.189322
-0.49026 -0.437442 0.014557
0.31992 -0.437442 0.224442
0.278209 -0.453113 0.243068
0.371916 -0.477227 0.152528
0.084469 -0.477227 -0.145428
0.396543 -0.477227 0.062448
-0.536655 -0.458159 -0.239171
-0.783063 -0.437442 -0.15766
0.072633 -0.437442 0.151062
-0.144331 -0.477227 -0.226862
-0.559029 -0.46039 0.243068
0.774546 -0.437442 0.111741
-0.769093 -0.477227 -0.054296
0.367029 -0.437442 0.01437
-0.1345 -0.477227 -0.104261
0.131719 -0.477227 0.158913
-0.473686 -0.477227 0.112824
0.770925 -0.437442 -0.215447
-0.123972 -0.437442 -0.032864
0.158431 -0.477227 0.030041
0.784549 -0.437442 0.158601
-0.089208 -0.437442 -0.022261
0.051169 -0.437442 -0.001498
0.848447 -0.458589 -0.189676
0.650608 -0.437442 0.038866
0.747973 -0.477227 0.141778
0.153573 -0.477227 -0.094348
0.055202 -0.477227 -0.219164
0.253171 -0.477227 -0.17082
-0.336687 -0.437442 0.089707
0.284492 -0.437442 -0.146893
-0.697214 -0.477227 0.062611
-0.82692 -0.477227 0.121547
0.20026 -0.437442 0.119218
-0.197771 -0.437442 0.16506
0.107115 -0.437442 0.017971
-0.824301 -0.477227 0.146895
-0.160257 -0.477227 0.209371
0.688466 -0.437442 0.039541
-0.162594 -0.437442 0.154551
-0.232042 -0.477227 0.132265
0.198684 -0.477227 0.047172
-0.457304 -0.437442 0.048154
0.104994 -0.477227 0.220482
0.775307 -0.437442 0.193612
-0.20324 -0.477227 -0.230438
0.668288 -0.477227 -0.09939
-0.101185 -0.477227 0.182746
-0.475608 -0.437442 -0.189906
-0.310195 -0.437442 -0.168153
0.487563 -0.477227 -0.203999
-0.035238 -0.437442 0.012394
-0.727372 -0.477227 0.027178
-0.541657 -0.477227 0.104467
-0.595428 -0.477227 0.026612
-0.763911 -0.437442 0.11191
-0.381097 -0.477227 -0.163691
0.833095 -0.477227 -0.110515
-0.638795 -0.477227 -0.062857
-0.351597 -0.477227 -0.23649
0.322582 -0.477227 -0.192103
0.031276 -0.477227 0.203413
0.521204 -0.477227 -0.149223
-0.513684 -0.477227 -0.031145
0.671748 -0.437442 0.103103
0.394471 -0.437442 0.083173
-0.416598 -0.477227 0.029433
-0.292736 -0.477227 -0.050026
0.781983 -0.477227 -0.050094
-0.04534 -0.477227 0.216994
0.325349 -0.437442 -0.215403
-0.568369 -0.477227 0.203115
-0.377985 -0.447466 0.243068
0.503926 -0.437442 0.184718
0.833853 -0.477227 -0.085027
0.556101 -0.477227 -0.139483
0.241575 -0.437442 -0.097222
-0.517986 -0.437442 -0.119569
-0.587821 -0.477227 0.241877
-0.564035 -0.437442 0.095079
0.05351 -0.477227 0.117007
0.559568 -0.437442 -0.07274
-0.302421 -0.477227 -0.09026
-0.683856 -0.437442 -0.108105
0.043301 -0.437442 0.235022
-0.532988 -0.437442 0.068396
0.643265 -0.437442 -0.071428
0.49489 -0.477227 0.025727
-0.407287 -0.477227 -0.028792
0.09659 -0.437442 -0.103826
0.509942 -0.477227 -0.189682
-0.509479 -0.437442 0.058158
-0.730332 -0.437442 0.053496
0.438919 -0.477227 0.200765
0.162628 -0.477227 0.112854
-0.177754 -0.437442 0.120416
-0.439351 -0.437442 0.091946
-0.714646 -0.477227 -0.177463
0.631286 -0.437442 0.177168
-0.586477 -0.477227 -0.227539
-0.359365 -0.477227 -0.145242
0.489884 -0.477227 0.194107
0.348239 -0.477227 -0.022693
0.307267 -0.437442 0.003481
0.533493 -0.437442 0.222706
0.144345 -0.450847 0.243068
-0.807444 -0.477227 0.230444
-0.107376 -0.437442 -0.125961
-0.450449 -0.437442 -0.091587
0.848447 -0.47267 -0.156762
0.681568 -0.437442 0.218417
-0.126503 -0.437442 0.02478
0.641018 -0.477227 -0.171713
0.848447 -0.439459 -0.043996
0.733062 -0.458248 -0.239171
-0.306783 -0.477227 0.013086
-0.062001 -0.477227 -0.20426
0.811116 -0.437442 0.066812
-0.417846 -0.477227 0.187885
0.069985 -0.462631 0.243068
-0.031588 -0.477227 -0.004739
0.692456 -0.477227 0.079925
-0.497573 -0.477227 0.22712
0.313795 -0.477227 0.021093
0.288166 -0.437442 0.039599
-0.779823 -0.437442 -0.076765
-0.649823 -0.437442 -0.101303
-0.553223 -0.477227 -0.188342
-0.844988 -0.437442 0.031979
-0.698181 -0.437442 -0.147689
-0.273075 -0.477227 0.086971
-0.616065 -0.445599 0.243068
0.198314 -0.437442 -0.001077
0.31301 -0.477227 0.200132
0.080928 -0.477227 0.027126
0.7563 -0.477227 0.108443
0.300826 -0.477227 -0.207988
0.031099 -0.437442 0.024247
0.163843 -0.437442 0.026566
0.416347 -0.477227 -0.059475
-0.869528 -0.456993 -0.048855
0.595079 -0.477227 -0.182646
0.360918 -0.437442 0.242138
0.552149 -0.437442 0.149041
0.158109 -0.437442 0.171794
0.660192 -0.477227 0.051494
-0.578738 -0.437442 0.12639
-0.302739 -0.437442 0.219001
0.34304 -0.437442 -0.15502
0.387138 -0.477227 -0.123722
0.161472 -0.477227 -0.222604
0.145953 -0.477227 -0.071572
-0.76831 -0.477227 -0.111223
0.204071 -0.477227 -0.165406
-0.432053 -0.477227 -0.192647
0.03695 -0.477227 -0.204518
-0.511867 -0.477227 -0.007819
0.688602 -0.437442 -0.111928
-0.350314 -0.437442 -0.060515
-0.812293 -0.437442 -0.176931
-0.536703 -0.467277 0.243068
0.615783 -0.437442 0.128547
-0.843658 -0.437442 -0.190924
0.848447 -0.476873 -0.204202
-0.462988 -0.477227 -0.191635
0.136625 -0.437442 -0.114461
-0.63273 -0.437442 -0.02845
0.435336 -0.437442 -0.009136
-0.33435 -0.437442 -0.005021
-0.020631 -0.437442 0.131339
-0.724172 -0.477227 -0.070654
0.108924 -0.477227 -0.164035
0.030418 -0.437442 -0.099386
-0.395948 -0.437442 0.024424
-0.154105 -0.477227 -0.052572
0.008866 -0.437442 -0.134998
0.01164 -0.437442 -0.189708
-0.091501 -0.477227 -0.220007
-0.137761 -0.437442 0.000575
-0.098254 -0.477227 -0.165338
0.794689 -0.477227 0.230027
-0.173634 -0.477227 -0.116417
-0.260398 -0.454314 -0.239171
-0.301965 -0.437442 0.045804
0.724709 -0.477227 0.22628
-0.405308 -0.437442 -0.019409
0.503972 -0.477227 0.048128
-0.317057 -0.477227 -0.047693
-0.863266 -0.477227 0.185068
-0.649757 -0.437442 0.018541
-0.755049 -0.437442 -0.086767
0.623896 -0.477227 0.115897
-0.785426 -0.437442 0.093784
-0.047328 -0.477227 -0.021327
-0.407874 -0.437442 -0.219862
-0.246133 -0.477227 -0.151882
-0.101359 -0.477227 -0.193746
-0.677543 -0.477227 0.214465
0.738763 -0.437442 0.015341
0.243921 -0.437442 0.048278
-0.859885 -0.477227 -0.18943
0.744494 -0.437442 0.149209
-0.326745 -0.437442 -0.130218
0.327685 -0.437442 0.127375
0.26308 -0.437442 0.200759
0.289887 -0.437442 0.136178
0.617573 -0.437442 -0.216119
-0.300668 -0.477227 0.162628
0.59156 -0.477227 0.064515
-0.191403 -0.477227 -0.066674
-0.277721 -0.437442 0.226076
-0.482949 -0.437442 0.166634
-0.869528 -0.445021 0.114808
0.248603 -0.437442 -0.18244
0.354875 -0.437442 -0.176514
0.381378 -0.477227 -0.080012
0.045469 -0.437442 0.202562
0.505907 -0.437442 -0.114048
-0.413619 -0.45693 0.243068
-0.128177 -0.477227 -0.139012
-0.001268 -0.437442 -0.006946
-0.223511 -0.437442 -0.084464
-0.183205 -0.437442 -0.22916
0.660943 -0.437442 0.206856
-0.27952 -0.463379 0.243068
0.262483 -0.437442 0.151324
-0.164867 -0.437442 -0.132257
0.401141 -0.437442 0.035807
-0.521979 -0.437442 0.163013
-0.054698 -0.437442 0.054194
-0.420974 -0.437442 0.138927
0.042868 -0.437442 0.126998
-0.608213 -0.44198 -0.239171
0.721756 -0.437442 -0.080288
0.201803 -0.477227 0.011994
-0.190515 -0.477227 0.149521
-0.704946 -0.437442 0.161818
0.684233 -0.449532 0.243068
0.071545 -0.437442 -0.133984
-0.168099 -0.45673 0.243068
0.116662 -0.477227 0.239802
0.735246 -0.477227 0.180241
0.530067 -0.451149 -0.239171
0.258892 -0.437442 0.016734
0.689448 -0.477227 -0.139423
-0.119457 -0.477227 -0.227616
0.348229 -0.477227 0.00879
0.848447 -0.45804 0.067084
-0.218485 -0.477227 -0.001897
-0.27095 -0.477227 0.196145
0.616511 -0.437442 0.022517
0.160635 -0.477227 0.225617
0.452949 -0.477227 0.044947
0.081378 -0.477227 0.051118
0.148571 -0.437442 0.194128
-0.397419 -0.477227 0.081323
0.427591 -0.437442 0.158969
0.784649 -0.477227 0.066788
-0.780908 -0.437442 0.068431
-0.369005 -0.437442 0.21621
0.456943 -0.437442 -0.105856
-0.773247 -0.477227 -0.075996
-0.856957 -0.477227 -0.229811
-0.869528 -0.45854 0.212419
-0.230382 -0.474908 -0.239171
0.848447 -0.444689 -0.171174
-0.116741 -0.437442 -0.232455
0.308086 -0.477227 -0.128555
0.287104 -0.437442 -0.106136
-0.250883 -0.437442 -0.161025
0.358599 -0.477227 0.201351
0.733263 -0.437442 -0.133048
-0.61135 -0.437442 -0.023563
0.43298 -0.437442 0.063104
0.355255 -0.477227 0.102098
-0.603956 -0.437442 0.127848
-0.570009 -0.477227 -0.146943
0.329789 -0.437442 -0.008856
-0.235384 -0.437442 0.065844
-0.038539 -0.45503 0.243068
-0.344228 -0.437442 -0.169789
0.413605 -0.477227 0.156188
8e-06 -0.437442 -0.158796
0.40093 -0.464532 -0.239171
0.0735 -0.477227 -0.072123
0.143435 -0.437442 -0.172484
-0.738523 -0.477227 -0.014944
-0.216257 -0.437442 0.102336
0.619498 -0.437442 0.208457
-0.074379 -0.452976 -0.239171
0.057181 -0.437442 -0.154182
-0.831004 -0.437442 -0.100474
-0.387388 -0.477227 0.208828
0.585043 -0.443708 -0.239171
-0.125454 -0.477227 -0.084492
0.382288 -0.477227 0.097498
0.848447 -0.448057 0.177913
0.831484 -0.477227 0.01764
0.81696 -0.477227 -0.131862
0.35648 -0.477227 -0.213273
-0.496457 -0.477227 -0.155109
0.536674 -0.437442 -0.123528
-0.869528 -0.443472 0.160119
0.377403 -0.45247 0.243068
0.320854 -0.477227 -0.167832
-0.762878 -0.477227 -0.212971
0.848447 -0.443384 0.119455
0.374433 -0.457984 -0.239171
0.338707 -0.437442 0.164446
-0.662464 -0.437442 0.065021
-0.315719 -0.437442 -0.089643
-0.597288 -0.437442 0.172813
-0.398755 -0.437442 -0.041552
-0.250623 -0.437442 0.132766
-0.050857 -0.477227 -0.045574
0.753053 -0.437442 -0.098879
0.088759 -0.437442 0.05979
0.468549 -0.477227 -0.095911
0.821131 -0.437442 0.15675
0.174871 -0.477227 -0.048761
-0.417733 -0.437442 0.006625
-0.536471 -0.477227 0.035075
0.638803 -0.460367 0.243068
-0.756907 -0.437442 -0.19615
0.552902 -0.477227 0.219371
-0.491986 -0.437442 -0.219784
-0.11843 -0.477227 -0.172533
-0.869528 -0.4583 0.056996
-0.17839 -0.437442 0.098109
-0.762202 -0.437442 -0.043217
0.673248 -0.477227 -0.234281
-0.736186 -0.452808 -0.239171
-0.115524 -0.477227 0.138323
0.832647 -0.477227 -0.02244
-0.227779 -0.437442 -0.028831
0.118168 -0.437442 0.103113
-0.652701 -0.477227 0.032201
0.689288 -0.477227 -0.178491
-0.453722 -0.437442 0.231975
-0.869528 -0.459134 -0.027742
-0.090607 -0.437442 0.190156
0.769054 -0.477227 0.143995
0.732531 -0.477227 0.078219
0.427129 -0.437442 -0.02864
-0.850231 -0.437442 -0.144915
0.423357 -0.437442 -0.186989
0.379174 -0.437442 -0.119698
0.00739 -0.437442 -0.056319
-0.763011 -0.477227 0.114849
-0.165506 -0.477227 -0.087027
0.786135 -0.477227 0.038281
-0.05709 -0.477227 -0.123023
-0.795075 -0.437442 0.02793
0.726963 -0.437442 -0.196841
-0.369476 -0.437442 -0.100817
-0.249594 -0.437442 -0.224788
0.284414 -0.477227 0.106592
-0.650222 -0.477227 -0.135738
0.387164 -0.437442 -0.058721
0.017617 -0.477227 0.222505
0.692928 -0.477227 -0.085304
-0.385568 -0.437442 0.09597
0.797717 -0.437442 -0.160372
-0.686902 -0.438335 -0.239171
-0.619979 -0.437442 -0.045938
0.573665 -0.4499 0.243068
-0.70666 -0.437442 0.043891
-0.673526 -0.477227 -0.206343
-0.7829 -0.477227 0.235849
0.382794 -0.437442 0.117541
0.289678 -0.437442 0.014867
-0.720899 -0.477227 -0.236159
0.435827 -0.44777 0.243068
0.651672 -0.477227 0.207968
0.641744 -0.437442 -0.186075
-0.840392 -0.477227 -0.160043
0.552505 -0.437442 0.075225
-0.198942 -0.437442 -0.140671
0.450521 -0.477227 0.241787
0.586476 -0.437442 -0.108643
-0.700823 -0.477227 -0.023235
-0.805979 -0.477227 0.072882
0.214066 -0.437442 0.091591
-0.450714 -0.461191 -0.239171
-0.359485 -0.477227 -0.057439
-0.116521 -0.437442 -0.080264
0.623657 -0.477227 0.093519
0.621303 -0.477227 -0.127593
-0.795617 -0.477227 0.012615
-0.869528 -0.449074 -0.20951
0.071988 -0.437442 -0.197055
0.323443 -0.437442 -0.091967
0.848447 -0.452852 0.147239
0.16376 -0.461158 0.243068
0.043105 -0.477227 0.055178
0.84376 0.457111 0.212006
-0.252567 0.457111 0.237646
-0.86618 0.457111 0.230996
-0.121542 0.457111 -0.19296
0.199139 0.457111 0.179798
0.659992 0.457111 -0.153637
-0.512771 0.457111 -0.102471
0.390238 0.457111 -0.033698
0.120093 0.417327 -0.079324
-0.771229 0.417327 -0.01385
-0.082255 0.457111 0.061656
-0.326695 0.417327 0.024748
0.658277 0.457111 0.06895
-0.672411 0.437436 -0.239171
-0.577244 0.457111 0.098174
0.845022 0.457111 -0.035215
0.243926 0.447027 -0.239171
-0.450376 0.457111 0.237048
0.37437 0.417327 0.145451
-0.693622 0.443204 0.243068
0.029481 0.457111 0.194051
-0.336987 0.457111 -0.13781
0.040614 0.457111 -0.221744
-0.862201 0.457111 -0.140383
0.552341 0.417327 -0.043199
0.235154 0.457111 0.026144
-0.192809 0.417327 -0.055751
0.088547 0.417327 0.060527
-0.659529 0.457111 -0.094281
-0.770565 0.457111 0.12322
-0.110973 0.457111 0.218926
0.272262 0.417327 -0.102292
-0.459482 0.457111 0.025939
0.494864 0.457111 0.091386
0.795682 0.457111 -0.199533
-0.008948 0.457111 -0.056413
-0.217073 0.457111 0.105771
-0.251845 0.436713 -0.239171
-0.345773 0.457111 0.147303
0.569649 0.439059 -0.239171
0.720553 0.457111 -0.04522
0.613966 0.457111 0.196026
-0.869528 0.432543 0.059368
-0.578053 0.457111 0.219128
-0.652269 0.417327 0.015326
0.735322 0.457111 0.156758
0.356582 0.457111 -0.17087
0.48435 0.457111 -0.12673
0.425821 0.451763 0.243068
-0.399612 0.446919 -0.239171
-0.449829 0.417327 0.130181
-0.565985 0.457111 -0.236769
0.161791 0.417327 -0.17844
0.770027 0.457111 0.05434
-0.754634 0.417327 -0.138815
-0.674244 0.417327 0.143947
-0.41289 0.417327 -0.078984
0.277506 0.417327 0.112843
-0.099886 0.417327 -0.094164
0.116451 0.454415 0.243068
-0.245194 0.417327 -0.139983
0.702815 0.432687 -0.239171
-0.283161 0.457111 -0.05399
-0.546668 0.417327 -0.019267
0.328869 0.457111 0.238442
-0.594727 0.417327 -0.154977
0.182099 0.417327 0.093041
0.470053 0.417327 0.000811
0.361928 0.417327 0.044783
0.578233 0.417327 -0.139421
0.005675 0.457111 0.037936
0.107174 0.457111 0.139847
0.751244 0.43062 0.243068
-0.789336 0.417327 0.206026
-0.47523 0.457111 -0.184045
0.568939 0.417327 0.060197
0.785457 0.457111 -0.106167
-0.136606 0.417327 0.119674
-0.86524 0.457111 -0.025137
-0.232115 0.457111 0.019691
0.631066 0.417327 -0.006208
-0.045437 0.457111 -0.234532
0.196814 0.457111 -0.073792
-0.122643 0.417327 -0.006558
0.302494 0.457111 -0.026471
-0.064458 0.457111 0.144985
-0.712414 0.457111 0.060483
0.471816 0.457111 0.172593
0.008798 0.457111 -0.140851
-0.266485 0.417327 0.165616
-0.395296 0.457111 0.080531
0.157069 0.457111 0.001489
-0.869528 0.436817 -0.22142
-0.798353 0.457111 -0.07961
0.088854 0.457111 -0.155374
-0.512694 0.457111 0.161314
0.418098 0.417327 -0.104258
-0.410423 0.417327 -0.161463
0.065477 0.457111 -0.029218
0.727155 0.417327 -0.142061
0.619995 0.457111 -0.073452
0.811101 0.457111 0.137289
-0.516231 0.417327 0.062021
-0.366012 0.457111 -0.029152
0.592753 0.457111 0.121059
-0.186556 0.417327 -0.198769
0.539162 0.457111 0.210967
-0.711726 0.457111 -0.038007
0.779075 0.417327 -0.019409
-0.027663 0.455397 0.243068
0.428757 0.417327 0.093456
0.258764 0.430552 0.243068
-0.79537 0.417327 0.064709
0.343031 0.417327 -0.077863
-0.285683 0.457111 0.072896
-0.403484 0.417327 0.188502
-0.658411 0.457111 -0.169187
-0.589278 0.457111 -0.070975
0.660796 0.417327 0.155568
-0.733923 0.457111 -0.197024
0.047729 0.417327 0.123757
0.242464 0.457111 -0.154858
-0.153837 0.457111 0.052093
0.848447 0.451231 -0.150689
0.297091 0.417327 -0.198683
0.848447 0.437688 0.057964
0.376411 0.417327 -0.231431
0.666033 0.445659 0.243068
-0.068537 0.457111 -0.143871
-0.325308 0.457111 0.217059
0.145593 0.452121 -0.239171
0.534425 0.457111 0.013566
0.269035 0.457111 0.172561
-0.57044 0.417327 0.160603
-0.188287 0.457111 0.180601
-0.053121 0.457111 -0.001588
0.23452 0.417327 -0.030361
0.333329 0.457111 0.105681
0.711492 0.417327 0.086994
0.495152 0.457111 -0.049452
-0.837753 0.457111 0.138194
0.143797 0.417327 0.192307
-0.641388 0.457111 0.06994
-0.162484 0.417327 -0.134903
0.530182 0.417327 -0.187984
-0.420368 0.417327 -0.011912
-0.004845 0.457111 0.110056
0.687984 0.417327 -0.087957
0.500405 0.457111 -0.236959
0.848447 0.427612 -0.227631
0.409824 0.417327 -0.172983
0.522948 0.417327 0.157996
0.434835 0.457111 0.040592
-0.48347 0.457111 -0.04345
-0.323534 0.457111 -0.202298
-0.522056 0.417327 -0.160508
0.299149 0.457111 0.05034
-0.623752 0.457111 0.151579
-0.740203 0.417327 0.164038
-0.571803 0.457111 0.02481
-0.442252 0.457111 -0.120317
-0.812899 0.457111 -0.181647
0.049858 0.457111 -0.09151
0.19066 0.454146 0.243068
-0.822556 0.457111 0.022923
-0.210369 0.457111 -0.105084
-0.640776 0.417327 -0.048746
0.787466 0.417327 0.179532
-0.061579 0.417327 0.192755
-0.328782 0.417327 0.093418
0.694039 0.457111 0.018575
-0.726833 0.417327 -0.082454
0.335521 0.457111 0.177882
0.303174 0.457111 -0.136547
0.044645 0.417327 0.013857
0.176359 0.417327 -0.114355
-0.175121 0.457111 -0.013996
0.542236 0.457111 -0.109905
-0.510325 0.456447 0.243068
0.768984 0.417327 0.104934
-0.159886 0.454388 -0.239171
-0.261235 0.417327 -0.014734
0.488332 0.457111 0.24268
0.847488 0.417327 -0.079811
-0.464387 0.457111 0.085497
0.788466 0.417327 -0.155893
-0.487878 0.438734 -0.239171
0.233532 0.457111 0.116648
-0.70856 0.457111 -0.127389
0.420066 0.457111 0.143928
0.588206 0.457111 -0.014644
-0.719589 0.417327 0.10609
-0.125581 0.457111 0.161664
-0.691708 0.457111 0.183492
0.448311 0.417327 -0.054275
0.141586 0.457111 0.080156
0.069791 0.417327 0.180561
0.33435 0.457111 -0.235652
-0.320632 0.417327 -0.034516
-0.239935 0.417327 0.070558
0.376327 0.457111 -0.106731
0.411022 0.417327 0.006249
-0.82514 0.417327 -0.047533
-0.769029 0.457111 0.242485
0.202928 0.457111 -0.196644
-0.522703 0.417327 0.121047
0.135914 0.457111 -0.121739
0.053517 0.440212 0.243068
0.621538 0.417327 -0.18334
-0.493783 0.417327 0.002296
0.053137 0.417327 -0.132284
0.41378 0.457111 -0.214852
0.734715 0.417327 0.022329
-0.334682 0.457111 -0.078251
0.503113 0.417327 -0.089325
-0.249274 0.417327 -0.076332
0.389317 0.457111 0.074676
0.470078 0.457111 -0.181569
-0.254255 0.457111 -0.186381
0.587181 0.417327 0.160983
-0.045121 0.417327 0.108538
-0.104653 0.457111 -0.042156
-0.857787 0.457111 -0.084346
0.275452 0.417327 0.01855
-0.438613 0.417327 -0.212072
0.196337 0.417327 0.010254
-0.55227 0.417327 -0.082591
-0.365322 0.457111 0.026959
-0.386396 0.417327 0.135863
-0.401958 0.430743 0.243068
-0.180693 0.417327 0.079519
0.848447 0.418098 0.12575
-0.646116 0.457111 0.214596
-0.375747 0.457111 -0.177281
0.758165 0.417327 -0.079617
0.403352 0.417327 0.192208
-0.288138 0.457111 -0.112839
0.632878 0.417327 0.096812
-0.740846 0.417327 0.035828
0.643767 0.457111 -0.22511
0.684616 0.417327 -0.181982
-0.182523 0.457111 0.234834
-0.596501 0.417327 0.066352
-0.132422 0.457111 -0.11311
-0.438715 0.457111 0.177239
0.712415 0.417327 0.185544
-0.628965 0.417327 0.114239
0.628464 0.417327 -0.109031
-0.573484 0.457111 -0.125273
0.162052 0.417327 -0.045339
0.001187 0.417327 -0.188509
-0.480674 0.417327 0.19403
0.094919 0.457111 0.024967
0.21399 0.417327 0.146931
0.055611 0.457111 0.075035
0.764064 0.439823 -0.239171
0.589209 0.450523 0.243068
0.075188 0.417327 -0.196314
-0.06318 0.417327 -0.203639
-0.615163 0.457111 -0.216285
-0.314116 0.417327 -0.164844
0.812148 0.457111 0.006634
0.477191 0.417327 0.061362
-0.085516 0.417327 0.242893
0.681554 0.457111 0.127909
0.564644 0.457111 -0.188504
-0.620498 0.457111 0.002079
-0.264806 0.457111 0.131278
-0.028454 0.417327 0.038259
0.128444 0.417327 0.113163
-0.471591 0.417327 -0.146505
-0.170228 0.457111 -0.16806
0.102979 0.457111 0.192637
0.196515 0.457111 0.061216
-0.434559 0.417327 0.048713
-0.687153 0.417327 -0.186786
-0.225733 0.457111 -0.049255
0.600082 0.457111 0.047932
0.239222 0.417327 0.077755
-0.464185 0.417327 -0.070934
-0.532006 0.457111 -0.197534
0.669256 0.457111 0.187663
0.669389 0.457111 -0.053247
0.190053 0.457111 -0.146488
-0.773512 0.457111 0.039532
-0.772589 0.417327 -0.187181
-0.601398 0.417327 -0.103858
-0.062114 0.417327 -0.059136
0.802893 0.417327 0.045516
-0.348148 0.417327 0.179181
-0.141776 0.417327 -0.055816
0.358767 0.417327 -0.133188
-0.869528 0.442221 0.182468
-0.66718 0.417327 -0.138723
-0.198949 0.417327 0.0069
-0.800252 0.417327 0.134189
-0.366684 0.417327 -0.100064
-0.510843 0.457111 0.028634
-0.118056 0.417327 -0.15921
-0.015299 0.457111 0.159439
0.266164 0.457111 -0.061463
0.673736 0.417327 0.042203
-0.815358 0.457111 0.222555
0.74095 0.457111 -0.169469
0.555693 0.457111 0.163599
-0.817147 0.457111 0.092676
-0.070284 0.457111 -0.088888
0.486288 0.457111 0.033063
0.034145 0.417327 -0.034681
-0.185302 0.417327 0.12932
0.4435 0.457111 -0.088946
0.382172 0.457111 0.220093
-0.239544 0.457111 0.17783
0.529088 0.417327 0.089681
0.157576 0.417327 0.241264
-0.321571 0.457111 -0.005048
0.444203 0.417327 0.160698
-0.668587 0.417327 0.080961
0.333537 0.457111 0.011868
0.712689 0.417327 0.136251
0.206208 0.457111 -0.017037
-0.420825 0.457111 0.130585
0.348388 0.417327 -0.029107
0.10828 0.457111 -0.053231
0.23166 0.417327 0.19258
-0.279216 0.417327 0.036565
-0.041968 0.417327 -0.1224
0.69695 0.417327 -0.029614
-0.847773 0.417327 0.009453
-0.660942 0.457111 0.114552
-0.615701 0.417327 0.178438
-0.108469 0.417327 0.080158
0.611559 0.457111 -0.155775
-0.294827 0.417327 -0.213658
-0.382011 0.457111 0.205588
-0.438294 0.457111 -0.06184
-0.098719 0.457111 0.014428
-0.745709 0.432449 -0.239171
-0.7376 0.419386 0.243068
0.743517 0.457111 0.094918
-0.806304 0.457111 -0.027707
0.317767 0.417327 0.213544
0.11203 0.457111 -0.204952
0.125045 0.417327 0.029145
0.555628 0.457111 0.083567
0.319281 0.457111 -0.090343
-0.802272 0.417327 -0.106149
-0.386154 0.457111 -0.079354
0.115393 0.417327 -0.152655
0.565273 0.457111 -0.06644
0.220698 0.417327 -0.139869
-0.719495 0.417327 -0.012881
0.750771 0.457111 -0.008335
-0.205827 0.457111 0.059438
-0.304359 0.457111 0.174405
0.325564 0.417327 0.153909
0.69667 0.457111 -0.112372
-0.591784 0.417327 -0.004701
0.579439 0.417327 0.210684
-0.411211 0.457111 0.015336
0.504247 0.417327 0.20988
0.428708 0.457111 0.193637
0.644729 0.417327 -0.057423
-0.530179 0.457111 -0.037756
-0.559372 0.417327 -0.188757
-0.232578 0.417327 0.124934
0.266885 0.417327 -0.157757
0.514651 0.417327 0.028152
-0.779509 0.417327 -0.064015
-0.113219 0.455809 -0.239171
-0.040952 0.457111 -0.181514
0.025328 0.417327 0.16667
0.220586 0.417327 -0.075597
-0.003629 0.457111 -0.008322
-0.804212 0.417327 -0.152447
-0.59529 0.421304 0.243068
0.379287 0.457111 0.028836
-0.382833 0.457111 -0.125452
-0.119644 0.457111 0.100725
0.445846 0.457111 -0.031019
-0.740083 0.457111 -0.00163
0.444331 0.417327 -0.142179
0.408657 0.457111 -0.149738
-0.828664 0.457111 -0.227564
0.366669 0.417327 0.090555
-0.214018 0.457111 -0.208677
0.082034 0.417327 -0.013222
-0.721584 0.457111 0.128819
0.622758 0.417327 0.047285
0.673831 0.417327 -0.131482
-0.831078 0.417327 0.238773
-0.758637 0.457111 0.176858
0.160067 0.457111 0.156326
-0.296119 0.457111 -0.238586
0.024424 0.417327 0.055452
0.505726 0.417327 -0.030239
0.586417 0.417327 0.018357
0.049543 0.457111 0.145295
0.702566 0.457111 0.218318
0.081192 0.447437 -0.239171
0.22423 0.417327 -0.194386
0.848447 0.430283 0.169272
0.713616 0.457111 0.061086
-0.612036 0.457111 -0.167415
-0.003436 0.457111 -0.211993
0.386855 0.417327 -0.054703
-0.547108 0.430384 0.243068
0.503677 0.457111 0.135565
-0.330274 0.457111 0.067123
-0.279664 0.417327 0.116613
-0.145922 0.417327 0.032866
0.280986 0.417327 -0.046932
0.802063 0.417327 -0.07044
-0.227691 0.417327 -0.1814
0.771074 0.457111 0.191324
0.63732 0.457111 0.120162
0.324945 0.417327 -0.163908
-0.469545 0.457111 0.133417
-0.584273 0.457111 -0.026787
0.326256 0.417327 0.072088
-0.551916 0.457111 0.182135
0.4803 0.417327 0.134944
0.263377 0.457111 -0.193923
0.628564 0.417327 0.208938
-0.513029 0.457111 0.08112
-0.068557 0.417327 0.00988
0.73174 0.457111 -0.214566
0.316225 0.417327 0.001719
-0.675649 0.417327 -0.08479
0.146067 0.457111 -0.168939
0.456733 0.457111 -0.223396
0.290904 0.453393 -0.239171
0.097531 0.457111 -0.095526
-0.280708 0.417327 0.212129
-0.578111 0.457111 0.144594
-0.554413 0.417327 0.028025
0.010733 0.417327 -0.092447
-0.519741 0.417327 -0.053288
-0.66686 0.457111 0.006104
0.761492 0.457111 -0.062756
-0.376468 0.417327 -0.015604
0.249566 0.457111 -0.10138
-0.697987 0.417327 0.030234
-0.207547 0.417327 0.186968
-0.094722 0.417327 0.130224
0.2829 0.417327 0.181652
-0.36296 0.417327 -0.167003
-0.076887 0.457111 0.186168
-0.384048 0.417327 0.068654
0.848447 0.420802 0.001338
-0.835834 0.417327 0.172727
-0.123716 0.417327 0.177874
0.341707 0.457111 -0.04407
0.483786 0.417327 -0.189638
-0.171384 0.457111 0.092223
-0.537988 0.457111 0.115842
-0.156664 0.457111 -0.060197
0.797818 0.457111 0.096762
-0.766146 0.457111 -0.129065
0.676886 0.417327 0.111658
0.187724 0.457111 -0.236988
0.799905 0.457111 -0.14639
0.547105 0.457111 -0.026873
-0.410644 0.457111 -0.027027
0.812586 0.457111 0.179565
0.644527 0.457111 -0.001299
0.295285 0.457111 0.139525
0.055838 0.417327 -0.0707
-0.5412 0.417327 0.196185
-0.310648 0.417327 0.241617
0.186326 0.417327 0.184047
0.808143 0.430002 -0.239171
0.817949 0.417327 -0.11904
-0.81278 0.457111 0.180728
-0.484885 0.457111 -0.133726
0.797163 0.417327 0.135782
0.812362 0.457111 -0.062922
-0.065008 0.417327 -0.157129
0.591471 0.457111 -0.103832
0.54042 0.425037 0.243068
0.765905 0.417327 -0.190781
-0.600118 0.457111 0.0554
0.597615 0.457111 -0.213524
0.250157 0.457111 0.074566
0.370013 0.457111 0.134938
0.575121 0.417327 -0.184085
-0.030711 0.457111 -0.12369
0.841488 0.417327 -0.174529
-0.484273 0.417327 0.088183
-0.369595 0.417327 0.214463
0.089395 0.417327 -0.112699
-0.053658 0.457111 0.102303
-0.34206 0.417327 -0.202853
-0.863361 0.417327 -0.075393
-0.491706 0.417327 -0.188202
0.150059 0.417327 -0.005922
-0.042584 0.457111 0.038083
0.277977 0.457111 0.008804
-0.361037 0.417327 -0.059425
-0.557094 0.417327 0.077682
-0.446141 0.417327 -0.11135
-0.262032 0.457111 -0.146177
-0.596856 0.457111 0.182757
0.087852 0.417327 0.107923
-0.204578 0.424159 -0.239171
-0.252777 0.457111 -0.016393
-0.768218 0.457111 -0.052309
0.770549 0.457111 0.134815
0.163656 0.417327 0.133367
0.065546 0.457111 -0.189799
0.678879 0.457111 -0.189451
0.513014 0.417327 -0.128535
-0.227285 0.417327 0.231492
-0.393731 0.457111 0.160452
0.837752 0.457111 -0.112255
0.590008 0.417327 -0.028857
0.303855 0.457111 -0.176831
-0.439785 0.449936 -0.239171
-0.543594 0.457111 -0.076568
0.807991 0.457111 0.230489
-0.858758 0.457111 -0.188392
0.088696 0.457111 0.097792
-0.051874 0.457111 -0.053217
-0.291012 0.417327 -0.117221
0.758982 0.417327 0.151281
-0.781011 0.455911 -0.239171
-0.694805 0.417327 0.179825
-0.638291 0.457111 -0.052595
-0.065236 0.457111 0.229628
0.223945 0.457111 0.211065
-0.705834 0.417327 -0.116376
-0.140561 0.417327 -0.101609
0.773013 0.417327 -0.119148
-0.338421 0.454444 -0.239171
-0.586776 0.417327 -0.218841
0.161515 0.457111 -0.0442
-0.512261 0.417327 -0.101866
0.203673 0.417327 0.059652
0.163793 0.457111 0.116865
0.557106 0.457111 -0.146607
0.524932 0.457111 0.05856
0.010401 0.457111 -0.093171
-0.380124 0.417327 0.023671
-0.677153 0.457111 -0.205319
0.553109 0.417327 -0.109156
0.100355 0.417327 0.155817
0.666524 0.417327 0.19886
-0.274102 0.457111 0.199373
0.809223 0.457111 0.055236
-0.064435 0.417327 0.07448
0.586312 0.417327 0.121852
-0.029855 0.457111 0.195714
0.119873 0.457111 -0.010367
-0.559575 0.457111 0.061865
0.846109 0.417327 0.238547
-0.869486 0.417327 0.212495
0.376145 0.457111 0.173359
-0.414541 0.457111 -0.176025
0.552561 0.457111 0.122205
0.848447 0.455216 -0.189205
0.626093 0.435428 0.243068
0.161575 0.457111 -0.092784
-0.522965 0.454726 -0.239171
0.420275 0.417327 -0.210049
-0.648771 0.417327 -0.172547
-0.558983 0.417327 -0.140757
0.75302 0.457111 -0.132996
-0.443077 0.417327 0.186184
-0.243206 0.417327 0.023488
-0.451997 0.417327 -0.033445
-0.025372 0.457111 0.076649
-0.801829 0.457111 -0.142514
0.270895 0.457111 0.21863
0.251999 0.417327 0.14698
-0.24155 0.457111 0.072284
-0.537049 0.457111 -0.13583
0.617276 0.457111 0.081744
0.824919 0.417327 0.202998
-0.332545 0.417327 -0.131791
-0.455933 0.417327 0.004115
0.231103 0.457111 0.15432
0.413829 0.457111 0.10333
-0.216474 0.417327 -0.115572
0.60622 0.417327 -0.078667
-0.139804 0.455729 0.243068
0.227807 0.417327 0.030853
-0.755077 0.417327 0.093768
-0.521074 0.457111 0.20354
0.399397 0.457111 -0.070074
0.019572 0.417327 0.203631
0.105485 0.417327 0.192806
-0.364924 0.417327 0.102736
0.708861 0.457111 -0.147629
0.211336 0.417327 0.237941
0.056649 0.417327 0.087629
-0.157368 0.417327 -0.171685
-0.704779 0.457111 -0.090456
-0.306363 0.457111 -0.169388
-0.251769 0.457111 -0.105431
-0.869528 0.43523 0.132005
-0.325402 0.417327 0.14988
-0.400788 0.417327 -0.114611
0.547144 0.417327 0.010306
0.70584 0.457111 0.099928
0.347575 0.417327 -0.206797
-0.323404 0.457111 0.103502
0.847738 0.457111 0.142573
-0.792396 0.417327 0.01646
-0.674506 0.457111 -0.030058
-0.48546 0.417327 0.139729
0.380846 0.457111 -0.231462
0.236314 0.457111 -0.039821
0.147706 0.417327 0.079857
0.133575 0.417327 -0.239026
0.281095 0.417327 0.054907
0.338879 0.417327 0.119612
-0.186145 0.457111 0.125918
-0.17897 0.417327 -0.102021
0.670525 0.417327 0.005585
-0.796315 0.428278 0.243068
0.487928 0.457111 -0.003572
-0.186613 0.457111 0.020825
0.403772 0.457111 0.000333
-0.464874 0.457111 -0.09152
0.138337 0.417327 -0.124154
0.445069 0.457111 -0.152116
-0.189385 0.417327 0.044096
0.31798 0.417327 -0.12815
0.650387 0.417327 -0.161104
0.29495 0.434705 0.243068
0.624632 0.417327 0.132281
0.026304 0.457111 -0.047374
0.38863 0.457111 -0.188641
0.449873 0.417327 0.031003
-0.349726 0.450353 0.243068
-0.267542 0.417327 -0.168566
-0.764373 0.417327 0.129194
0.669137 0.417327 -0.214721
0.749146 0.417327 -0.039558
-0.106336 0.457111 -0.087799
-0.630535 0.417327 0.054607
-0.74221 0.457111 0.099323
-0.594332 0.417327 0.104662
0.018103 0.446262 0.243068
0.454596 0.457111 0.070583
-0.421567 0.457111 0.215607
-0.159223 0.417327 0.214451
-0.781783 0.457111 0.004687
-0.611704 0.457111 0.107826
-0.832872 0.457111 -0.058702
0.509884 0.457111 0.170772
-0.869528 0.445792 0.008499
-0.673187 0.457111 -0.136657
0.728201 0.417327 -0.106366
-0.478479 0.417327 0.053002
0.543313 0.417327 0.187228
-0.464222 0.424462 0.243068
0.130148 0.457111 0.029997
0.374597 0.417327 0.011618
-0.301357 0.417327 0.070968
0.187839 0.417327 -0.202462
-0.830503 0.417327 0.069307
0.702518 0.457111 0.170043
0.446251 0.457111 0.117513
-0.166962 0.417327 -0.00784
0.628375 0.417327 0.169293
-0.109575 0.417327 -0.19337
-0.03515 0.417327 0.164966
0.171577 0.457111 0.036399
0.565311 0.457111 0.042959
-0.689798 0.457111 0.087318
0.676556 0.457111 -0.015376
-0.415427 0.417327 0.155618
0.715706 0.417327 -0.197959
0.503997 0.457111 -0.173326
-0.089546 0.457111 -0.206886
0.772349 0.417327 0.014809
-0.214414 0.417327 0.094271
-0.103092 0.417327 0.20595
0.25471 0.417327 -0.211199
-0.218242 0.45584 0.243068
0.154824 0.417327 -0.080732
-0.504846 0.457111 0.126266
0.06111 0.417327 0.218067
-0.160783 0.457111 0.2018
-0.738983 0.457111 0.037329
0.603442 0.457111 0.163084
-0.096436 0.417327 -0.055037
0.175015 0.457111 0.204427
0.222079 0.457111 -0.127102
0.570829 0.457111 0.197495
0.03888 0.457111 -0.124125
-0.65139 0.457111 0.17208
0.443409 0.417327 -0.184628
-0.334743 0.417327 0.059588
0.802415 0.417327 -0.207782
-0.090156 0.430518 -0.239171
-0.116429 0.457111 0.060008
0.498931 0.42371 0.243068
-0.695846 0.457111 -0.176676
-0.611922 0.457111 0.214776
-0.284606 0.446686 0.243068
0.176825 0.417327 0.038599
-0.441356 0.457111 0.05484
0.3053 0.417327 -0.093805
-0.133053 0.417876 -0.239171
-0.813577 0.417327 0.102836
-0.384212 0.417327 -0.193598
-0.483261 0.457111 0.17836
0.564023 0.417327 -0.076953
0.013024 0.445039 -0.239171
0.494542 0.417327 0.176651
0.396047 0.417327 -0.142066
-0.478957 0.457111 0.054958
0.281867 0.457111 0.108509
0.363231 0.417327 0.196345
0.041902 0.457111 0.044168
0.532963 0.457111 -0.228011
0.117961 0.417327 -0.045778
0.484118 0.457111 -0.093138
-0.720634 0.417327 -0.184168
0.19092 0.457111 0.097073
0.731153 0.457111 0.238357
-0.323289 0.457111 -0.046666
-0.419762 0.457111 -0.095407
-0.661379 0.417327 -0.022263
-0.518642 0.417327 0.154346
0.518584 0.457111 -0.133673
0.597946 0.457111 -0.048202
0.847096 0.417327 -0.135564
-0.089159 0.417327 0.173775
-0.743754 0.457111 -0.104311
-0.087981 0.457111 -0.170919
0.77481 0.457111 0.233207
-0.215182 0.417327 -0.031124
0.458484 0.417327 0.108383
-0.492608 0.417327 -0.034106
0.0679 0.417327 -0.16205
-0.37949 0.457111 -0.210275
0.202102 0.457111 0.02296
0.310796 0.417327 -0.032425
-0.57576 0.417327 -0.03515
0.285055 0.457111 -0.088695
0.268802 0.457111 -0.128346
0.201491 0.417327 -0.029587
0.359714 0.457111 -0.20612
-0.174727 0.417327 0.183919
0.411856 0.417327 0.154395
0.735578 0.457111 -0.083078
0.086826 0.457111 0.221328
0.176865 0.417327 -0.149174
-0.554622 0.417327 0.129053
-0.288873 0.457111 -0.008751
-0.797283 0.457111 0.142314
-0.577168 0.417327 0.204573
0.779678 0.457111 0.011036
0.414224 0.457111 -0.103577
-0.820564 0.457111 0.060179
-0.761586 0.417327 0.061049
-0.698605 0.417327 -0.061573
0.541026 0.417327 -0.231716
0.15342 0.417327 -0.213308
0.81734 0.417327 0.166925
-0.774179 0.457111 0.091008
0.674447 0.457111 -0.23555
0.431547 0.417327 0.225899
0.439888 0.417327 0.061783
0.464173 0.457111 0.221186
0.743694 0.417327 0.084118
0.58489 0.41849 0.243068
-0.082477 0.457111 -0.015044
-0.729454 0.417327 -0.043598
0.005632 0.457111 -0.172956
0.187719 0.457111 -0.11168
-0.02566 0.417327 -0.209573
-0.091745 0.457111 0.116888
0.061633 0.457111 0.194526
-0.409699 0.417327 0.08797
0.350259 0.457111 -0.08194
0.217746 0.417327 -0.107917
0.602807 0.417327 0.08562
-0.033312 0.417327 0.006589
-0.211319 0.457111 0.202871
-0.739721 0.457111 -0.165531
0.848447 0.449255 -0.081978
0.024926 0.457111 0.121724
-0.815685 0.417327 -0.182276
0.067517 0.417327 -0.229692
-0.721251 0.417327 0.19775
-0.763791 0.457111 -0.208355
-0.604903 0.457111 -0.131042
-0.060165 0.417327 0.042031
0.355404 0.417327 -0.173503
0.259852 0.457111 0.134696
-0.436679 0.457111 0.101294
0.657662 0.417327 0.076742
-0.668339 0.457111 0.052959
-0.250301 0.457111 0.102911
0.725225 0.417327 0.05829
0.741324 0.417327 0.216031
-0.50072 0.457111 -0.070043
0.412799 0.417327 -0.036539
-0.672168 0.457111 0.144166
-0.438187 0.417327 0.217434
0.652165 0.417327 0.241468
-0.233325 0.457111 0.133817
0.822005 0.457111 -0.168903
0.643678 0.457111 0.041027
-0.85147 0.457111 0.035437
0.211932 0.417327 0.115544
0.386275 0.417327 0.064643
-0.210961 0.417327 -0.084693
-0.768561 0.417327 0.182533
0.158706 0.448584 0.243068
-0.698036 0.417327 -0.216152
-0.733409 0.457111 0.157786
-0.684083 0.457111 0.216747
-0.617936 0.417327 -0.177222
-0.265858 0.457111 -0.220197
-0.852575 0.457111 0.068229
-0.631642 0.417327 -0.078492
-0.479252 0.417327 -0.218394
0.473248 0.417327 -0.080864
-0.325119 0.457111 -0.109131
-0.035899 0.417327 -0.081914
0.848447 0.450962 0.008081
0.565135 0.457111 0.010137
-0.090158 0.417327 -0.13919
-0.380564 0.457111 0.000122
0.227306 0.417327 -0.000364
-0.450735 0.457111 -0.00362
-0.472219 0.457111 -0.220007
0.304856 0.457111 0.088083
0.772265 0.457111 -0.179604
-0.719396 0.457111 0.196808
0.393409 0.417327 0.105599
0.104465 0.417327 -0.215052
-0.695746 0.417327 0.066758
-0.294887 0.417327 0.152545
-0.056685 0.417327 -0.028999
-0.392751 0.457111 0.050073
-0.169115 0.457111 0.156814
-0.037628 0.417327 0.224929
-0.251508 0.417327 -0.200482
-0.017326 0.442383 -0.239171
-0.569899 0.457111 -0.155512
0.78646 0.417327 0.214991
-0.461495 0.417327 -0.184777
0.727755 0.457111 0.127324
-0.53846 0.417327 -0.117206
-0.421614 0.417327 0.119057
0.817648 0.457111 -0.220374
-0.639655 0.417327 0.142568
-0.435448 0.417327 -0.144501
0.078788 0.457111 -0.000597
-0.609977 0.457111 -0.092983
-0.090654 0.457111 -0.113616
0.707573 0.457111 -0.180197
-0.767994 0.457111 0.212363
0.587702 0.457111 0.075983
0.508055 0.457111 0.200841
-0.431965 0.433211 0.243068
0.312848 0.417327 0.045147
-0.531864 0.457111 -0.167464
-0.811237 0.417327 -0.077478
-0.407883 0.457111 -0.146738
0.284934 0.417327 -0.237269
-0.18731 0.457111 -0.19501
-0.360327 0.457111 0.184874
0.138282 0.457111 -0.073922
0.166867 0.417327 0.212806
0.268311 0.457111 -0.019519
-0.722748 0.450084 0.243068
-0.253532 0.417327 -0.046725
0.328261 0.417327 0.185621
-0.671796 0.457111 -0.059761
0.123283 0.417327 -0.18141
0.362697 0.457111 0.242654
-0.413987 0.417327 -0.194501
0.652784 0.417327 -0.028762
0.226169 0.457111 -0.082991
0.353882 0.457111 0.084197
-0.658674 0.457111 0.24152
-0.488168 0.417327 0.222751
0.303179 0.417327 0.127682
0.518806 0.417327 -0.056846
0.756408 0.417327 -0.146723
0.611199 0.45125 -0.239171
0.605552 0.417327 -0.158428
-0.209782 0.457111 -0.134667
-0.428599 0.417327 0.019735
0.286547 0.417327 -0.128192
-0.093915 0.457111 0.243038
-0.536151 0.457111 0.043974
-0.526503 0.417327 0.018563
0.773436 0.417327 0.045502
-0.126868 0.457111 0.132245
-0.818665 0.417327 0.203494
0.359103 0.457111 -0.002725
0.485532 0.417327 -0.118226
0.622972 0.457111 -0.021203
0.243746 0.417327 -0.093586
0.340676 0.457111 0.149033
0.454951 0.457111 -0.115908
-0.365768 0.417327 -0.129289
0.343637 0.417327 -0.107015
-0.025202 0.457111 0.132025
-0.655038 0.417327 -0.201003
0.794825 0.457111 -0.016786
-0.252716 0.417327 0.191268
-0.618676 0.417327 -0.015848
-0.098652 0.417327 -0.023023
0.432409 0.417327 0.190836
0.722371 0.457111 0.19126
0.627226 0.457111 -0.180217
-0.68664 0.417327 0.215169
-0.053341 0.457111 0.069162
-0.566926 0.457111 -0.003681
-0.421813 0.457111 -0.217716
-0.648381 0.457111 -0.203048
0.098092 0.417327 0.010756
-0.702799 0.457111 -0.010602
-0.549258 0.457111 0.2179
-0.026326 0.417327 -0.167534
0.465854 0.417327 -0.16131
0.842581 0.457111 0.177908
-0.113058 0.417327 -0.121772
0.848447 0.424943 -0.03431
-0.159205 0.417327 -0.214517
0.696945 0.417327 -0.058338
-0.289019 0.457111 0.150128
-0.820076 0.417327 0.001932
-0.750523 0.417327 -0.098631
0.703097 0.457111 -0.215517
0.80721 0.417327 0.109007
0.847985 0.417327 0.029598
-0.27972 0.457111 0.107032
-0.027739 0.457111 0.011283
-0.07361 0.457111 -0.230549
-0.328607 0.457111 0.02249
0.018556 0.417327 -0.007966
0.318741 0.457111 -0.211939
-0.067847 0.417327 0.139366
-0.781533 0.457111 -0.186208
-0.200949 0.420471 0.243068
0.738155 0.424816 -0.239171
0.848447 0.455777 -0.230727
0.711533 0.457111 -0.018364
-0.33425 0.457111 -0.174345
-0.5443 0.417327 -0.234279
-0.17477 0.417327 0.155614
0.53033 0.457111 0.096208
-0.642847 0.457111 0.02099
0.773438 0.417327 -0.053913
-0.202796 0.457111 -0.019452
-0.125509 0.457111 0.005654
-0.714203 0.425101 -0.239171
-0.787571 0.417327 0.092018
-0.071801 0.457111 0.022673
-0.273781 0.420702 0.243068
0.219994 0.457111 -0.228317
0.654814 0.457111 0.163528
0.223819 0.457111 -0.175908
0.655051 0.457111 0.219858
-0.591914 0.417327 0.142476
0.197671 0.457111 -0.045715
-0.373468 0.457111 -0.237884
0.107265 0.457111 -0.176565
0.442017 0.417327 -0.000127
0.137003 0.457111 0.108551
0.63676 0.432027 -0.239171
-0.811112 0.438612 -0.239171
0.25892 0.417327 0.212317
0.738014 0.417327 -0.00545
0.048227 0.457111 0.221412
-0.1978 0.457111 -0.047774
0.107387 0.457111 -0.237769
0.237028 0.457111 -0.001748
-0.854415 0.457111 0.20065
-0.489253 0.438137 0.243068
-0.150645 0.417327 0.06036
-0.276633 0.417327 -0.093355
0.552332 0.417327 0.219104
-0.388854 0.417327 -0.058401
-0.310344 0.457111 0.241825
-0.495137 0.417327 0.030754
0.534721 0.417327 -0.014548
0.127962 0.417327 0.158877
0.692202 0.436369 0.243068
0.427964 0.417327 0.121176
-0.274742 0.421082 -0.239171
0.31441 0.457111 -0.051495
0.324954 0.457111 -0.119466
0.293714 0.417327 -0.164538
0.359566 0.424977 0.243068
0.068009 0.417327 -0.04587
-0.060036 0.433531 0.243068
0.05536 0.457111 -0.064458
0.218229 0.453054 0.243068
-0.333326 0.417327 0.225925
0.420841 0.457111 -0.04261
0.373087 0.457111 -0.055269
-0.759453 0.457111 0.148833
-0.565425 0.452104 0.243068
-0.788942 0.417327 -0.209381
-0.211781 0.417327 -0.158974
-0.386722 0.417327 0.16335
0.564764 0.457111 -0.215916
0.800982 0.417327 -0.035862
0.738904 0.417327 -0.212532
-0.869528 0.426511 -0.111172
0.253275 0.417327 0.17433
-0.148918 0.457111 -0.193346
-0.718562 0.457111 0.019102
0.613642 0.417327 0.015528
-0.832195 0.450454 0.243068
-0.091642 0.417327 -0.166497
-0.54008 0.457111 -0.10372
-0.842258 0.457111 -0.121721
-0.516278 0.417327 0.207347
0.066693 0.417327 -0.09785
-0.131761 0.457111 -0.042225
-0.775346 0.417327 0.037529
0.025851 0.457111 0.06597
0.848447 0.444198 0.084239
0.698504 0.417327 0.031297
-0.356373 0.422337 -0.239171
0.516795 0.417327 0.055112
-0.42204 0.457111 0.076594
-0.1972 0.457111 -0.169725
-0.151001 0.417327 0.142775
0.837312 0.457111 0.042847
-0.693714 0.457111 0.114037
0.400036 0.457111 0.199865
0.297808 0.417327 0.095079
-0.374333 0.439321 0.243068
-0.160338 0.417327 0.106882
0.237456 0.417327 0.124155
0.08883 0.457111 0.159517
-0.214574 0.457111 0.167862
0.322305 0.457111 0.201284
-0.552119 0.457111 0.087637
-0.625588 0.417327 0.028246
-0.176031 0.421711 -0.239171
0.462673 0.457111 0.020365
0.683205 0.457111 0.043096
0.710323 0.417327 -0.171698
0.080774 0.457111 -0.116435
0.551162 0.417327 0.040162
0.777346 0.424612 0.243068
-0.574927 0.417327 -0.107854
-0.351166 0.457111 -0.051408
-0.344792 0.457111 0.119448
0.542964 0.457111 -0.169174
0.285148 0.417327 0.155121
0.701129 0.417327 -0.136525
-0.580153 0.417327 0.021341
0.394815 0.452998 0.243068
-0.644278 0.457111 -0.116003
-0.63586 0.457111 -0.232892
-0.842507 0.417327 -0.02748
-0.191707 0.417327 -0.018809
-0.089243 0.457111 0.087194
0.086407 0.457111 0.07142
-0.66217 0.457111 0.088126
0.6565 0.417327 -0.186838
0.424658 0.417327 0.03893
-0.553786 0.417327 0.221087
0.092719 0.457111 -0.031876
-0.440213 0.457111 -0.035493
0.609861 0.417327 0.190332
0.645348 0.417327 0.015971
0.739268 0.457111 0.0154
0.426019 0.457111 0.065421
-0.636025 0.457111 0.122962
0.017121 0.417327 0.030251
0.181737 0.457111 -0.007586
0.302931 0.457111 0.232105
0.082145 0.417327 0.137002
-0.857584 0.417327 0.037589
-0.669012 0.417327 -0.110002
-0.407269 0.457111 0.182731
0.613715 0.457111 0.025713
-0.626735 0.457111 -0.145912
-0.842261 0.417327 -0.204778
0.1853 0.417327 0.238207
0.639405 0.457111 -0.0908
0.698389 0.417327 -0.21863
-0.510576 0.417327 -0.127827
-0.719358 0.417327 0.055905
0.6292 0.457111 -0.049159
-0.847311 0.457111 -0.161663
0.142823 0.417327 -0.149682
0.6044 0.457111 -0.130865
0.169765 0.417327 0.063509
-0.433719 0.457111 -0.145056
-0.869528 0.441765 -0.170548
-0.273473 0.417327 -0.067167
