-0.493418 0.145769 0.450718
-0.493418 0.269711 -0.341352
-0.527496 -0.188985 0.109861
-0.493418 -0.080155 -0.405181
-0.493418 -0.181143 -0.025426
-0.493418 0.028799 0.146937
-0.527496 -0.047632 -0.267334
-0.493418 -0.238957 -0.475823
-0.526503 0.136388 0.485641
-0.527496 -0.163399 0.24922
-0.493418 -0.125191 0.074707
-0.493418 0.145097 0.069828
-0.527496 -0.194786 0.166549
-0.527496 0.176493 -0.010947
-0.493418 0.082443 -0.256225
-0.493418 -0.124966 0.015785
-0.527496 0.057532 0.471831
-0.493418 -0.187632 0.44058
-0.493418 0.22698 0.306517
-0.527496 -0.059472 -0.325031
-0.493418 0.073879 -0.393383
-0.527496 -0.087954 -0.204312
-0.493418 -0.10873 0.458625
-0.493418 0.011018 -0.386729
-0.527496 -0.187734 -0.42152
-0.493418 -0.165485 -0.165621
-0.493418 0.09216 0.182589
-0.527496 -0.111827 -0.303115
-0.493418 0.196575 0.347348
-0.527496 -0.006331 -0.418296
-0.493418 -0.241471 -0.358993
-0.527496 0.149498 0.417626
-0.493418 -0.024347 -0.405997
-0.493418 0.206659 -0.40294
-0.493418 -0.142459 -0.050402
-0.493418 -0.088103 0.059674
-0.527496 -0.185548 0.022568
-0.494278 0.171431 0.485641
-0.493418 -0.192378 0.239172
-0.493418 0.174907 -0.103709
-0.493418 -0.169563 0.103366
-0.493418 0.152314 -0.240259
-0.493418 0.00193 -0.441828
-0.527496 0.240403 0.440784
-0.493418 -0.110597 0.388444
-0.493418 -0.103671 -0.332541
-0.493418 -0.246586 -0.432958
-0.493418 -0.115047 -0.196214
-0.505674 0.007976 0.485641
-0.493418 -0.226962 0.055819
-0.493418 -0.201679 -0.357035
-0.493418 -0.185133 -0.063232
-0.527496 0.182957 0.061065
-0.527496 -0.19233 0.463522
-0.527496 0.200677 -0.330339
-0.493418 0.183483 0.270659
-0.493418 -0.217876 -0.242689
-0.493418 -0.209596 -0.452733
-0.493418 -0.107013 -0.273006
-0.493418 -0.297275 -0.271715
-0.493418 -0.139122 -0.24959
-0.527496 -0.172033 -0.177556
-0.493418 -0.220228 -0.184324
-0.527496 -0.200364 -0.073719
-0.493418 -0.168174 0.013214
-0.527496 -0.171247 0.390864
-0.493418 0.200896 -0.132064
-0.527496 -0.223876 -0.393526
-0.493418 0.226609 -0.18107
-0.493418 0.188079 -0.06393
-0.527496 0.100317 0.477572
-0.493418 0.172574 0.046837
-0.493418 0.014972 -0.234021
-0.493418 -0.020944 -0.284569
-0.493418 0.144707 -0.486258
-0.527496 -0.048068 -0.358317
-0.493418 -0.145735 0.406844
-0.493418 0.072229 0.151064
-0.527496 -0.181245 -0.211606
-0.527496 0.105839 0.409747
-0.493418 0.116429 -0.262086
-0.527496 -0.248106 -0.243812
-0.493418 -0.270754 -0.238512
-0.527496 -0.200596 0.077708
-0.493418 -0.191507 -0.202815
-0.527496 -0.14389 0.017176
-0.493418 -0.058465 0.044536
-0.493418 -0.155322 -0.352605
-0.493418 -0.160528 0.248154
-0.493418 -0.146186 0.306209
-0.493418 -0.209183 -0.097959
-0.493418 0.165925 -0.346193
-0.493418 -0.154654 -0.401705
-0.493418 0.053085 0.407175
-0.493418 -0.140353 -0.017974
-0.493418 0.158695 -0.194691
-0.527496 0.226871 -0.251063
-0.493418 -0.110046 -0.417468
-0.527496 0.047858 -0.208299
-0.493418 -0.101678 -0.364298
-0.493418 -0.146604 -0.093656
-0.527496 -0.228767 -0.107714
-0.527496 -0.18109 -0.390656
-0.493418 0.047414 -0.288235
-0.493418 -0.173199 -0.272428
-0.527496 -0.075937 -0.254637
-0.527496 -0.180649 0.274924
-0.493418 0.204708 -0.353918
-0.493418 -0.19673 0.152058
-0.493418 -0.162423 0.381101
-0.493418 0.135049 0.040328
-0.527496 0.195556 0.413072
-0.527496 -0.133832 0.42447
-0.527496 -0.155688 -0.249785
-0.493418 -0.138213 0.464316
-0.493418 -0.082799 -0.296039
-0.493418 0.265097 -0.311828
-0.493418 -0.287084 -0.329158
-0.527496 -0.103307 0.01294
-0.493418 -0.038005 0.007851
-0.493418 -0.099986 0.032902
-0.493418 -0.065885 -0.257577
-0.527496 -0.271878 -0.215764
-0.527496 -0.012425 -0.278528
-0.527496 0.032911 0.395953
0.039614 0.089035 -0.513985
0.414445 0.078876 -0.525344
-0.343602 0.119136 -0.513985
0.317115 0.012127 -0.525344
0.169309 0.152409 -0.525344
0.109583 0.038218 -0.525344
0.075635 0.171023 -0.525344
0.391334 -0.011374 -0.525344
0.339789 0.085855 -0.525344
0.170441 0.225988 -0.525344
-0.009885 0.137663 -0.525344
-0.061618 0.21216 -0.525344
-0.42668 0.022123 -0.513985
0.134252 0.109337 -0.525344
0.026563 0.192771 -0.525344
0.108676 0.21968 -0.513985
-0.000997 0.238493 -0.513985
0.223399 0.106717 -0.525344
0.429644 -0.037916 -0.513985
-0.489173 0.114997 -0.513985
0.380898 0.110998 -0.525344
0.214112 0.152326 -0.513985
0.390191 0.041272 -0.513985
0.130022 0.173711 -0.525344
0.431013 0.118665 -0.513985
0.179891 0.106787 -0.513985
-0.260948 0.202984 -0.513985
0.455954 0.053883 -0.525344
0.187852 0.261974 -0.513985
-0.302801 0.14636 -0.513985
-0.20156 0.230513 -0.513985
-0.305834 0.104037 -0.525344
0.216579 0.194496 -0.525344
-0.103885 0.202344 -0.525344
0.347266 -0.012036 -0.513985
-0.163639 0.245912 -0.513985
0.419371 -0.179778 -0.513985
-0.039218 0.1817 -0.525344
0.115753 0.078783 -0.513985
0.448429 0.019695 -0.525344
0.32569 0.055943 -0.513985
0.068102 0.105573 -0.525344
0.04264 0.129983 -0.513985
0.065523 0.22561 -0.513985
0.139587 0.231251 -0.513985
0.172953 0.193105 -0.525344
0.363499 0.023414 -0.513985
0.387794 -0.196952 -0.513985
-0.030139 0.238231 -0.525344
0.082328 0.053186 -0.525344
0.368338 0.074278 -0.525344
-0.46305 0.098772 -0.513985
0.41927 -0.007565 -0.513985
0.013457 0.16677 -0.525344
-0.13045 0.208231 -0.513985
0.161308 0.260576 -0.525344
-0.254729 -0.07111 0.5577046897066551
0.463953 -0.140878 0.5420586897066552
-0.037158 -0.026303 0.5577046897066551
0.450633 -0.047951 0.5577046897066551
0.331829 -0.022768 0.5822076897066552
-0.305402 -0.048171 0.5917826897066552
0.503959 -0.061488 0.5917826897066552
-0.524656 -0.036507 0.5587096897066551
0.203047 -0.022768 0.5622596897066551
0.375319 -0.030953 0.5577046897066551
-0.329822 -0.075117 0.5577046897066551
-0.423854 -0.165861 0.5321236897066551
-0.409158 -0.115437 0.5577046897066551
0.234951 -0.027441 0.5917826897066552
-0.380989 -0.040388 0.5577046897066551
0.459347 -0.027156 0.5917826897066552
0.324784 -0.054003 0.5577046897066551
-0.016046 -0.024597 0.5917826897066552
-0.427117 -0.048152 0.5917826897066552
0.064318 -0.023211 0.5577046897066551
-0.48607 -0.054054 0.5577046897066551
0.248555 -0.039621 0.5577046897066551
0.028387 -0.05661 0.5577046897066551
0.398912 -0.022768 0.5886026897066552
-0.477214 -0.096007 0.5577046897066551
0.492204 -0.063966 0.5577046897066551
-0.458545 -0.022768 0.5648806897066552
0.500403 -0.141547 0.5548416897066552
0.269891 -0.039809 0.5917826897066552
-0.35517 -0.105038 0.5577046897066551
-0.30678 -0.097951 0.5577046897066551
0.520058 -0.033387 0.5917826897066552
-0.255004 -0.039386 0.5577046897066551
-0.494707 -0.041633 0.5917826897066552
-0.470699 -0.1442 -0.3560743102933449
-0.44798 -0.179494 -0.08657331029334488
-0.452327 -0.140878 0.07302168970665511
-0.44798 -0.270074 -0.3144803102933449
-0.450279 -0.140878 0.29683168970665513
-0.451962 -0.140878 0.5064166897066551
-0.44798 -0.212339 -0.1977723102933449
-0.44798 -0.180409 0.1656416897066551
-0.44798 -0.141175 0.4042896897066551
-0.44798 -0.222252 -0.3872793102933449
-0.455757 -0.140878 -0.012452310293344884
-0.465923 -0.140878 -0.2718063102933449
-0.44798 -0.142298 -0.1674683102933449
-0.470699 -0.187918 0.24019768970665512
-0.44798 -0.193678 0.4490936897066551
-0.470699 -0.183649 0.3453676897066551
-0.44798 -0.282201 -0.1752723102933449
-0.44798 -0.202852 -0.2846703102933449
-0.44798 -0.199899 0.2927936897066551
-0.470699 -0.156367 -0.21635531029334493
-0.44798 -0.22002 0.5033846897066552
-0.44798 -0.206871 -0.1313083102933449
-0.44798 -0.198994 0.3906696897066551
-0.467162 -0.140878 -0.11605231029334488
-0.470699 -0.141135 0.4497276897066551
-0.44798 -0.195515 0.06654568970665511
-0.448504 -0.140878 0.3544126897066551
-0.44798 -0.164006 0.1126616897066551
-0.470699 -0.255038 -0.14784031029334488
-0.470699 -0.221661 -0.3447413102933449
-0.470699 -0.268301 -0.2574083102933449
-0.44798 -0.140928 -0.06506031029334487
-0.44798 -0.235689 -0.23513231029334491
-0.44798 -0.196992 -0.024297310293344893
-0.470699 -0.224479 0.4296246897066551
-0.44798 -0.17771 -0.3441963102933449
-0.470699 -0.141877 -0.3127593102933449
-0.460945 -0.140878 0.2439286897066551
-0.44798 -0.177995 -0.24125431029334488
-0.44798 -0.142418 0.15884168970665513
-0.470699 -0.173782 0.4711976897066551
-0.44798 -0.230141 -0.3176063102933449
-0.470699 -0.170837 0.3868526897066551
-0.44798 -0.143195 0.03724068970665512
-0.470699 -0.190846 -0.1790833102933449
-0.44798 -0.169969 0.31737368970665514
-0.44798 -0.16364 0.19685768970665513
-0.470699 -0.16269 0.5240906897066552
-0.470699 -0.201333 -0.2475313102933449
-0.44798 -0.240348 -0.3598343102933449
-0.470699 -0.193123 0.1948586897066551
-0.470699 -0.263087 -0.2249393102933449
-0.44798 -0.175198 -0.3118073102933449
-0.44798 -0.245423 0.4377966897066551
-0.44798 -0.172484 -0.04444731029334488
-0.470699 -0.162743 0.4263506897066551
-0.44798 -0.170061 0.4948326897066551
-0.44798 -0.170932 -0.3946583102933449
-0.44798 -0.178233 -0.11943231029334488
-0.44798 -0.181957 -0.2021073102933449
-0.44798 -0.19061 0.011401689706655116
-0.470699 -0.263859 -0.3731793102933449
-0.470699 -0.215729 -0.00671331029334489
-0.470699 -0.195152 0.09164668970665511
-0.470699 -0.264752 -0.1891393102933449
0.483489 -0.169558 0.024197689706655118
0.483489 -0.147727 -0.0881773102933449
0.483489 -0.169361 -0.3074923102933449
0.506208 -0.147937 -0.2349023102933449
0.483489 -0.19194 -0.14743431029334486
0.499071 -0.140878 0.4679606897066551
0.483489 -0.21642 -0.3553483102933449
0.483489 -0.158921 -0.3946243102933449
0.506208 -0.212389 -0.2686733102933449
0.506208 -0.19824 -0.06995131029334488
0.483489 -0.160505 -0.031935310293344885
0.483489 -0.195676 -0.22366031029334488
0.484387 -0.140878 -0.3477773102933449
0.506208 -0.165529 -0.18943531029334487
0.506208 -0.180661 0.4938676897066551
0.506208 -0.17962 -0.2521543102933449
0.506208 -0.181094 -0.1011083102933449
0.483489 -0.158968 -0.1347433102933449
0.483489 -0.156641 0.4376296897066551
0.483489 -0.146933 0.05705268970665511
0.483489 -0.211993 -0.2955383102933449
0.483489 -0.218187 -0.09508031029334489
0.483945 -0.140878 -0.004428310293344881
0.499431 -0.140878 -0.3136133102933449
0.506208 -0.189465 -0.3202893102933449
0.483732 -0.140878 -0.21272031029334487
0.483489 -0.172377 0.4726486897066551
0.506208 -0.204435 -0.1650723102933449
0.506208 -0.163154 -0.05320631029334488
0.506208 -0.201055 -0.3805413102933449
0.483489 -0.184865 -0.17558031029334487
-0.268125 -0.199279 -0.3993453102933449
0.506208 -0.230287 -0.4167173102933449
-0.355184 -0.185505 -0.3993453102933449
0.416397 -0.145552 -0.3993453102933449
-0.422284 -0.153308 -0.3993453102933449
-0.239698 -0.140878 -0.4148863102933449
-0.315693 -0.150764 -0.3993453102933449
-0.3178 -0.227988 -0.3993453102933449
-0.387032 -0.253804 -0.3993453102933449
0.37334 -0.140878 -0.4144433102933449
-0.361367 -0.140878 -0.4042503102933449
-0.380038 -0.212174 -0.4220643102933449
-0.414307 -0.193109 -0.3993453102933449
0.326365 -0.140878 -0.4204913102933449
-0.46088 -0.143872 -0.4220643102933449
-0.382173 -0.169327 -0.4220643102933449
-0.309056 -0.196794 -0.4220643102933449
-0.356133 -0.227538 -0.3993453102933449
0.443656 -0.145176 -0.4220643102933449
-0.272527 -0.151682 -0.4220643102933449
0.289483 -0.141243 -0.4220643102933449
0.490732 -0.142314 -0.4220643102933449
-0.47064 -0.192367 -0.3993453102933449
-0.246286 -0.167871 -0.3993453102933449
-0.27967 -0.217278 -0.4220643102933449
-0.295018 -0.173924 -0.3993453102933449
-0.092362 0.104767 0.5400399311764931
-0.366563 0.143987 0.5400399311764931
0.407577 0.013462 0.5400399311764931
0.052872 0.22843 0.48038093117649305
-0.159003 0.254032 0.48038093117649305
0.284738 0.160567 0.48038093117649305
0.560165 0.309273 0.518274931176493
-0.524656 0.097458 0.5303989311764931
0.256443 -0.002736 0.5059619311764931
0.02347 0.031313 0.5400399311764931
0.410707 0.184536 0.5400399311764931
-0.146893 -0.017088 0.5164589311764931
-0.26182 0.174912 0.48038093117649305
0.168646 0.198114 0.48038093117649305
-0.312259 0.033723 0.5400399311764931
0.560165 0.147268 0.538926931176493
-0.481299 -0.015087 0.5400399311764931
-0.047407 0.184531 0.48038093117649305
0.187887 0.109188 0.5400399311764931
0.040632 0.121437 0.48038093117649305
0.151029 0.299761 0.5059619311764931
-0.334618 0.251416 0.48038093117649305
-0.236657 0.09857 0.5400399311764931
0.343656 0.109563 0.5400399311764931
-0.02586 0.301004 0.5059619311764931
-0.168136 0.156759 0.5059619311764931
0.340795 0.238687 0.5059619311764931
-0.432333 0.067936 0.5059619311764931
0.483816 0.052841 0.5059619311764931
0.102834 0.182737 0.5400399311764931
0.50257 0.252056 0.5400399311764931
0.107655 0.045584 0.5400399311764931
-0.462514 0.147433 0.5059619311764931
0.470043 0.140105 0.5059619311764931
0.003181 0.163057 0.5400399311764931
-0.240378 0.249694 0.5030989311764931
-0.102441 0.18933 0.5400399311764931
-0.32215 0.086897 0.48038093117649305
0.244536 0.196359 0.5400399311764931
-0.22772 0.027007 0.5059619311764931
0.423467 0.253779 0.5030989311764931
-0.376135 0.001795 0.5059619311764931
0.118542 0.114583 0.5030989311764931
0.05977 0.289547 0.5400399311764931
-0.015761 0.058352 0.48038093117649305
-0.084597 0.253096 0.5030989311764931
0.263216 0.112509 0.5400399311764931
0.35063 0.04641 0.48038093117649305
0.202795 0.046238 0.48344093117649306
-0.053476 0.036794 0.5400399311764931
0.357034 0.155309 0.48038093117649305
-0.165274 0.093853 0.5400399311764931
0.414533 0.088812 0.5030989311764931
-0.009142 0.241178 0.5400399311764931
0.313957 0.045671 0.5400399311764931
-0.294217 0.196476 0.5400399311764931
0.207916 0.254889 0.48038093117649305
0.506208 0.199113 0.49539393117649305
-0.521843 0.164664 0.5400399311764931
-0.185546 0.211778 0.5400399311764931
-0.109051 0.139918 0.48038093117649305
-0.365307 0.073682 0.5400399311764931
0.057408 0.088438 0.5400399311764931
-0.15629 0.282038 0.5400399311764931
0.173093 0.248525 0.5400399311764931
-0.392818 0.147514 0.48038093117649305
0.272034 0.224227 0.48038093117649305
0.31378 0.191398 0.5400399311764931
-0.524656 0.030429 0.527447931176493
-0.103615 0.05152 0.5030989311764931
-0.341979 0.189607 0.48038093117649305
0.560165 0.224932 0.5122359311764931
0.183484 0.187139 0.5400399311764931
0.424756 0.178043 0.48038093117649305
-0.222046 0.162163 0.5400399311764931
-0.372702 0.256037 0.5400399311764931
0.175894 0.101849 0.48038093117649305
-0.262627 0.113684 0.48038093117649305
0.192153 0.025914 0.5400399311764931
0.099701 0.273426 0.4862369311764931
0.085181 -0.014462 0.5400399311764931
0.529088 0.073176 0.5400399311764931
-0.249559 -0.017088 0.539656931176493
0.318726 0.095463 0.48038093117649305
-0.28122 0.136489 0.5400399311764931
-0.380427 0.090291 0.48038093117649305
-0.027276 0.110537 0.5030989311764931
0.057922 0.170513 0.5059619311764931
0.11107 0.201025 0.48038093117649305
0.508909 -0.005661 0.5059619311764931
-0.182868 0.106306 0.48038093117649305
0.213218 0.147514 0.5059619311764931
-0.424587 -0.008216 0.5400399311764931
-0.278544 0.046238 0.48903693117649305
0.262411 0.098529 0.48038093117649305
-0.141149 0.198493 0.48038093117649305
0.280568 0.238958 0.5400399311764931
-0.06869 0.301205 0.5400399311764931
0.385434 0.221947 0.48038093117649305
0.016882 -0.017088 0.517691931176493
0.112653 0.314525 0.5400399311764931
0.51094 0.292669 0.5059619311764931
0.223458 0.27724 0.5400399311764931
0.269568 0.046238 0.4867989311764931
-0.154945 0.041925 0.5400399311764931
-0.260973 0.281538 0.5400399311764931
0.070233 0.23782 0.5400399311764931
0.454183 0.079484 0.5400399311764931
0.41763 0.132644 0.5400399311764931
-0.464972 0.045376 0.5400399311764931
0.136535 0.018422 0.5059619311764931
-0.045034 0.182888 0.5400399311764931
-0.327046 -0.015232 0.5059619311764931
0.37568 0.069165 0.5400399311764931
0.033684 0.273426 0.4937719311764931
-0.450358 0.112067 0.5400399311764931
0.366484 0.211614 0.5400399311764931
0.150776 0.071166 0.5400399311764931
0.211091 0.211208 0.5059619311764931
0.37202 0.101592 0.48038093117649305
-0.080538 0.007689 0.5059619311764931
0.530593 0.125151 0.5059619311764931
-0.12624 0.232673 0.5400399311764931
-0.193364 0.01118 0.5400399311764931
0.263465 0.063444 0.5400399311764931
0.013459 0.199662 0.48038093117649305
-0.032509 0.230731 0.48038093117649305
-0.294002 0.244801 0.5400399311764931
-0.213437 0.197997 0.5030989311764931
-0.125563 0.295215 0.5059619311764931
0.465632 0.275717 0.5059619311764931
-0.308486 0.164718 0.5030989311764931
-0.188071 0.291176 0.5059619311764931
-0.060761 0.070653 0.5030989311764931
-0.387895 0.046238 0.4944179311764931
-0.335938 0.123623 0.5059619311764931
0.310573 0.013942 0.5059619311764931
-0.185894 0.04694 0.5030989311764931
0.560165 0.264199 0.5369199311764931
0.461107 0.206429 0.5030989311764931
0.506208 0.245032 0.4915609311764931
0.316044 0.136075 0.5030989311764931
-0.248592 0.199772 0.5400399311764931
0.085182 0.025301 0.5059619311764931
0.011988 0.084951 0.5400399311764931
-0.447399 0.010929 0.5059619311764931
0.490081 0.118387 0.5400399311764931
-0.106006 -0.005681 0.5400399311764931
-0.308476 0.078147 0.5400399311764931
0.290034 0.282276 0.5400399311764931
0.12863 0.234735 0.5030989311764931
-0.420803 0.121806 0.5030989311764931
-0.239058 0.070424 0.5059619311764931
-0.059761 0.142063 0.48038093117649305
0.433397 0.277831 0.5400399311764931
-0.302741 0.209376 0.48038093117649305
0.34234 0.194968 0.5030989311764931
-0.012028 0.022992 0.5059619311764931
-0.133354 0.083493 0.5030989311764931
-0.202403 0.162452 0.48038093117649305
-0.359497 0.030959 0.5400399311764931
0.390956 0.148064 0.5059619311764931
0.058917 0.144313 0.5400399311764931
0.423074 0.135103 0.48038093117649305
0.109575 0.071518 0.5059619311764931
0.348325 0.020577 0.5400399311764931
0.017973 0.28188 0.5400399311764931
0.275099 0.014196 0.5400399311764931
0.406179 0.04732 0.5030989311764931
0.232536 0.079164 0.5030989311764931
0.040569 0.188379 0.5400399311764931
0.139682 0.177958 0.5030989311764931
0.287532 0.194887 0.5059619311764931
0.496972 0.01556 0.5400399311764931
-0.092161 0.17288 0.5030989311764931
0.319769 0.280116 0.5059619311764931
-0.368615 0.170281 0.5059619311764931
-0.489547 0.06282 0.5059619311764931
-0.523503 -0.011341 0.5400399311764931
-0.154818 0.137069 0.5400399311764931
-0.29662 -0.007561 0.5400399311764931
0.100979 0.265746 0.5400399311764931
-0.107758 0.280061 0.5400399311764931
-0.11914 0.263612 0.48038093117649305
-0.007115 0.146106 0.5030989311764931
0.095571 0.155614 0.5030989311764931
0.255115 0.150125 0.5059619311764931
0.002085 0.094595 0.48038093117649305
-0.088329 0.057156 0.5400399311764931
-0.271505 0.26141 0.48038093117649305
-0.000751 0.123105 0.5400399311764931
0.144258 0.195438 0.5400399311764931
-0.442297 0.096969 0.48038093117649305
0.230635 0.027611 0.5059619311764931
-0.065903 0.218129 0.5059619311764931
0.063185 0.031155 0.5400399311764931
-0.29655 0.125461 0.5030989311764931
0.071955 0.102162 0.5059619311764931
0.249886 0.179754 0.48038093117649305
-0.138863 0.046238 0.4838629311764931
0.000299 0.250037 0.5030989311764931
-0.489588 0.111803 0.5400399311764931
0.161611 0.048412 0.5059619311764931
0.414286 0.063436 0.5400399311764931
-0.031416 0.272077 0.48038093117649305
-0.241018 0.218363 0.48038093117649305
0.560165 0.108679 0.5367539311764931
0.397923 0.271811 0.48038093117649305
0.181356 0.169644 0.5030989311764931
0.521025 0.162432 0.5059619311764931
-0.191574 0.252906 0.5059619311764931
-0.201823 0.12761 0.5059619311764931
-0.324221 0.046465 0.5059619311764931
0.210595 0.228516 0.5400399311764931
0.192018 0.146999 0.5400399311764931
0.486997 0.217516 0.5400399311764931
-0.23442 0.253388 0.5400399311764931
0.458846 0.084469 0.5030989311764931
-0.446941 0.149523 0.5400399311764931
-0.001049 0.204549 0.5400399311764931
-0.149932 0.124212 0.48038093117649305
0.478083 0.179756 0.48038093117649305
-0.394583 0.096622 0.5400399311764931
0.314872 0.245675 0.48038093117649305
0.504923 0.083163 0.5030989311764931
-0.36264 0.227295 0.5059619311764931
0.238501 0.117035 0.5059619311764931
0.47269 -0.012844 0.5059619311764931
0.026203 0.017506 0.5059619311764931
-0.346038 -0.017088 0.537466931176493
-0.13461 0.171473 0.5400399311764931
-0.409027 -0.017088 0.5062269311764931
-0.11149 0.203512 0.5059619311764931
0.251191 0.243338 0.5030989311764931
-0.384594 0.119718 0.5030989311764931
-0.024253 0.203724 0.5030989311764931
-0.256239 0.149859 0.5059619311764931
-0.131657 0.159713 0.5059619311764931
-0.297728 0.074452 0.5059619311764931
0.276352 0.075838 0.5059619311764931
-0.176875 0.219046 0.5059619311764931
0.178969 0.238943 0.5059619311764931
-0.030208 0.290747 0.5400399311764931
0.007 0.068625 0.5059619311764931
0.346187 0.070913 0.5059619311764931
-0.360496 0.108887 0.5400399311764931
0.131258 0.270483 0.5030989311764931
0.387993 0.194897 0.5030989311764931
0.111034 0.305112 0.5059619311764931
-0.062222 0.114885 0.5059619311764931
-0.186942 0.158874 0.5400399311764931
0.233134 0.094165 0.5400399311764931
0.159183 0.119137 0.5059619311764931
0.408154 0.005241 0.5059619311764931
-0.393293 0.021841 0.5400399311764931
-0.084473 0.253972 0.5400399311764931
0.556499 0.181969 0.5400399311764931
-0.236797 0.11948 0.5030989311764931
0.346683 0.14431 0.5400399311764931
-0.361497 0.067742 0.5059619311764931
0.016012 0.17209 0.5030989311764931
-0.202746 0.075631 0.48038093117649305
0.091009 0.079986 0.5400399311764931
-0.507058 0.057245 0.5400399311764931
0.261725 0.266856 0.48038093117649305
0.312038 0.170982 0.5030989311764931
0.431801 0.229416 0.48038093117649305
-0.110191 0.02824 0.5400399311764931
0.281005 0.200318 0.5400399311764931
0.200072 0.012793 0.5059619311764931
0.097373 0.100885 0.48038093117649305
0.180872 -0.017088 0.5390939311764931
-0.524656 0.130281 0.5386699311764931
0.03399 0.207902 0.5059619311764931
0.439571 0.043073 0.5059619311764931
-0.265003 0.224937 0.5030989311764931
0.129168 0.137038 0.48038093117649305
-0.157956 0.248417 0.5400399311764931
0.286736 0.121742 0.48038093117649305
0.373428 0.248795 0.5059619311764931
0.363776 -0.017088 0.5382569311764931
0.546389 0.254668 0.5059619311764931
-0.159627 0.082465 0.48038093117649305
0.066834 0.273426 0.4902139311764931
0.091777 0.246146 0.5030989311764931
0.138325 0.088352 0.5059619311764931
0.326643 0.212933 0.48038093117649305
-0.281496 0.183234 0.5059619311764931
-0.050517 0.039648 0.5059619311764931
-0.061292 0.075686 0.5400399311764931
0.244914 0.202842 0.5030989311764931
-0.256284 0.011848 0.5059619311764931
-0.05294 0.259018 0.5059619311764931
-0.225048 0.165827 0.5030989311764931
0.285156 -0.017088 0.5090719311764931
0.202358 0.080408 0.5400399311764931
0.197966 0.107625 0.5030989311764931
0.070351 0.200055 0.5059619311764931
0.020046 0.112831 0.5030989311764931
0.445921 0.119435 0.5059619311764931
-0.129796 0.244222 0.5030989311764931
-0.292004 0.150223 0.48038093117649305
-0.171731 0.190742 0.48038093117649305
-0.178103 -0.017088 0.5204669311764931
0.041371 0.152742 0.48038093117649305
0.429272 -0.017088 0.5328829311764931
-0.057337 0.170069 0.5059619311764931
0.17084 0.275918 0.5059619311764931
-0.480184 0.072545 0.5400399311764931
-0.086771 0.063932 0.48038093117649305
0.047586 0.244765 0.5059619311764931
-0.308142 0.009068 0.5059619311764931
0.445885 0.155694 0.48038093117649305
-0.420127 0.161157 0.5059619311764931
0.324073 0.04146 0.5059619311764931
0.044392 0.060691 0.5400399311764931
-0.15332 0.308091 0.5059619311764931
-0.366592 0.132072 0.48038093117649305
-0.120316 0.026261 0.5059619311764931
-0.156829 0.102728 0.5030989311764931
0.470628 0.141534 0.5400399311764931
-0.274249 0.093483 0.5059619311764931
-0.116919 0.11079 0.48038093117649305
0.516426 0.133084 0.5400399311764931
-0.455964 0.105076 0.5059619311764931
0.029029 0.141957 0.5400399311764931
0.081952 0.068781 0.48038093117649305
0.131842 -0.017088 0.5167509311764931
-0.410194 0.090296 0.48038093117649305
-0.246094 0.138767 0.48038093117649305
-0.227095 0.224675 0.5400399311764931
0.443179 0.182245 0.5030989311764931
0.292224 0.290751 0.5059619311764931
0.52042 0.044956 0.5400399311764931
0.265121 0.141962 0.5400399311764931
0.041265 0.232215 0.5400399311764931
0.284643 0.145912 0.5059619311764931
-0.352971 0.100759 0.48038093117649305
0.373783 -0.001711 0.5059619311764931
0.377566 0.176143 0.48038093117649305
0.464527 0.028252 0.5059619311764931
-0.065966 0.26326 0.48038093117649305
-0.18439 0.115676 0.5400399311764931
0.418629 0.106128 0.48038093117649305
0.417138 0.120988 0.5059619311764931
0.095168 0.185699 0.5030989311764931
-0.44798 0.176123 -0.40381006882350695
-0.44798 0.051014 -0.4479790688235069
-0.44798 0.215472 -0.1290840688235069
-0.44798 0.26152 -0.30828206882350695
-0.44798 0.191375 0.2751839311764931
-0.44798 0.186997 0.0025259311764931
-0.450315 0.046238 -0.012744068823506899
-0.44798 0.15424 0.1366489311764931
-0.470699 0.058063 0.2002119311764931
-0.44798 0.244823 0.3488789311764931
-0.44798 0.204308 -0.2102270688235069
-0.44798 0.087754 0.3576969311764931
-0.44798 0.132372 -0.33490806882350693
-0.44798 0.161286 0.38954193117649305
-0.44798 0.059901 -0.3714100688235069
-0.44798 0.192252 -0.2860440688235069
-0.44798 0.108869 -0.2498640688235069
-0.44798 0.142087 -0.1132660688235069
-0.470699 0.265519 -0.1661280688235069
-0.470699 0.20471 -0.0683160688235069
-0.470699 0.160538 0.2128889311764931
-0.470699 0.193932 0.08289893117649311
-0.44798 0.108913 0.2376509311764931
-0.470699 0.223686 -0.3569360688235069
-0.470699 0.190396 0.33146493117649306
-0.470699 0.050039 -0.2164240688235069
-0.44798 0.168506 -0.1674660688235069
-0.448113 0.046238 0.39197093117649306
-0.470699 0.133206 -0.0618270688235069
-0.44798 0.144806 0.29971093117649306
-0.44798 0.125092 0.4329339311764931
-0.44798 0.142783 0.0855859311764931
-0.470699 0.189788 0.4692569311764931
-0.458555 0.046238 -0.0639610688235069
-0.44798 0.2556 -0.2114080688235069
-0.44798 0.117502 -0.1701150688235069
-0.44798 0.151137 -0.2242780688235069
-0.470699 0.172801 -0.35111606882350693
-0.470699 0.091334 -0.3441210688235069
-0.44798 0.109744 0.0237609311764931
-0.470699 0.167137 0.0375039311764931
-0.44798 0.089534 0.1088019311764931
-0.44798 0.21481 0.38269293117649306
-0.470699 0.1502 -0.2635140688235069
-0.44798 0.09036 0.29450093117649306
-0.470699 0.178062 -0.1309120688235069
-0.44798 0.099571 -0.025427068823506902
-0.44798 0.130512 0.1918349311764931
-0.44798 0.175179 0.1742559311764931
-0.44798 0.087631 0.40128293117649305
-0.470699 0.208908 0.0325979311764931
-0.44798 0.089882 -0.2012150688235069
-0.44798 0.235755 -0.0082670688235069
-0.44798 0.221809 -0.2477140688235069
-0.44798 0.094102 -0.1115990688235069
-0.44798 0.2315 -0.1783810688235069
-0.470699 0.050952 -0.33577706882350694
-0.44798 0.234433 0.27813093117649307
-0.44798 0.055984 0.2522009311764931
-0.44798 0.168749 0.42842293117649305
-0.44798 0.189565 -0.0991900688235069
-0.44798 0.20892 0.2290309311764931
-0.44798 0.101945 -0.0673100688235069
-0.470699 0.113347 -0.28268406882350694
-0.44798 0.093604 -0.31293006882350693
-0.44798 0.216931 -0.31542606882350693
-0.44798 0.081504 0.4406319311764931
-0.44798 0.233255 -0.059685068823506895
-0.470699 0.121979 -0.21932506882350689
-0.44798 0.087111 0.1956729311764931
-0.470699 0.236448 -0.28713406882350695
-0.470699 0.166374 -0.1991280688235069
-0.470699 0.117377 0.3137329311764931
-0.44798 0.07399 -0.27441606882350694
-0.470699 0.202141 0.1862499311764931
-0.470496 0.046238 -0.1444120688235069
-0.470699 0.12828 0.1369839311764931
-0.44798 0.251786 -0.1450390688235069
-0.470699 0.16572 -0.010162068823506901
-0.44798 0.092989 -0.43957306882350694
-0.470699 0.16667 0.1021269311764931
-0.44798 0.228299 -0.40893106882350694
-0.470699 0.227813 -0.2145450688235069
-0.44798 0.254216 -0.0992510688235069
-0.44798 0.169195 0.0612039311764931
-0.44798 0.089561 -0.1529160688235069
-0.470699 0.194635 -0.26261706882350694
-0.470699 0.055152 0.1532699311764931
-0.467279 0.046238 -0.3005760688235069
-0.44798 0.079309 -0.2373200688235069
-0.470699 0.118103 0.2639329311764931
-0.44798 0.180072 -0.0688720688235069
-0.44798 0.103741 -0.36205206882350693
-0.449349 0.046238 0.1806289311764931
-0.470699 0.161965 0.31184593117649306
-0.44798 0.133778 0.37547893117649306
-0.44798 0.144432 0.2690659311764931
-0.44798 0.133095 -0.1961670688235069
-0.44798 0.126616 -0.1391520688235069
-0.470699 0.139939 -0.4293080688235069
-0.470699 0.183506 0.1279879311764931
-0.470699 0.186954 -0.4428170688235069
-0.470699 0.049604 0.2349719311764931
-0.44798 0.123705 -0.39106306882350694
-0.470699 0.233301 -0.1254370688235069
-0.470699 0.068499 -0.44298206882350694
-0.470699 0.259387 -0.2291450688235069
-0.470699 0.07308 -0.0620180688235069
0.506208 0.163513 0.4365669311764931
0.483489 0.094649 -0.1584990688235069
0.483489 0.05253 -0.2832160688235069
0.506208 0.127449 -0.040508068823506896
0.506208 0.189781 0.3339929311764931
0.483489 0.269533 0.45085693117649306
0.483489 0.198477 -0.11383506882350689
0.483489 0.143819 -0.3397860688235069
0.483489 0.047554 -0.0654480688235069
0.490876 0.046238 0.1851299311764931
0.483489 0.121072 0.3592619311764931
0.483489 0.095136 0.1272939311764931
0.483489 0.177498 0.2628249311764931
0.506208 0.07984 -0.35214906882350694
0.506208 0.103016 0.4688049311764931
0.506208 0.140587 -0.13220806882350689
0.485577 0.046238 -0.1286940688235069
0.483489 0.145512 0.30752893117649305
0.506208 0.090205 -0.2512480688235069
0.483489 0.126288 0.0820899311764931
0.483489 0.117533 -0.0888580688235069
0.483489 0.183727 0.38002493117649305
0.483489 0.206501 0.44991493117649306
0.506208 0.179206 -0.1593540688235069
0.483489 0.059975 0.0864309311764931
0.488422 0.046238 -0.37598006882350693
0.491672 0.046238 0.4348489311764931
0.483489 0.109982 -0.31376006882350693
0.483489 0.115482 -0.2072620688235069
0.483489 0.04725 -0.3242280688235069
0.496653 0.046238 -0.4209050688235069
0.483489 0.136539 -0.16542806882350689
0.483489 0.215421 0.35455893117649306
0.506208 0.052398 -0.24473606882350687
0.483489 0.118396 -0.4265940688235069
0.483489 0.153153 0.4009519311764931
0.483489 0.082562 -0.1220630688235069
0.483489 0.10161 -0.3943360688235069
0.483489 0.161213 -0.40572306882350695
0.483489 0.123569 0.0464179311764931
0.483489 0.082896 0.45007693117649306
0.494325 0.046238 -0.2037660688235069
0.483489 0.084385 0.1825939311764931
0.506208 0.168836 -0.1039380688235069
0.483489 0.250761 0.42322693117649307
0.506208 0.246413 0.44864893117649307
0.483489 0.100496 -0.0539170688235069
0.483489 0.122652 0.44545793117649307
0.483489 0.064322 0.1213439311764931
0.483489 0.137588 -0.0648000688235069
0.506208 0.218595 -0.0907630688235069
0.506208 0.048875 -0.1520930688235069
0.483489 0.077092 -0.0757240688235069
0.483489 0.115849 -0.27995406882350693
0.483489 0.16687 -0.1235920688235069
0.483489 0.165368 -0.1737160688235069
0.483489 0.071737 -0.2421290688235069
0.483489 0.12556 -0.36327006882350693
0.483489 0.175994 0.4230649311764931
0.483489 0.088475 -0.42022806882350694
-0.054974 0.254424 -0.45108806882350694
0.124543 0.198817 -0.45108806882350694
0.010755 0.175049 -0.45108806882350694
-0.270273 0.175735 -0.45108806882350694
-0.140751 0.22303 -0.4738070688235069
0.307838 0.126889 -0.45108806882350694
0.195943 0.191159 -0.45108806882350694
-0.139089 0.13624 -0.45108806882350694
0.167329 0.102242 -0.45108806882350694
0.083703 0.134309 -0.45108806882350694
0.083303 0.252794 -0.45108806882350694
-0.462551 0.120766 -0.45108806882350694
-0.055652 0.182914 -0.45108806882350694
0.385507 0.122111 -0.45108806882350694
0.016537 0.250981 -0.45108806882350694
-0.194259 0.166553 -0.45108806882350694
0.270164 0.178236 -0.45108806882350694
-0.05916 0.121717 -0.45108806882350694
-0.235693 0.123713 -0.45108806882350694
0.4155 0.061196 -0.45108806882350694
0.151095 0.046238 -0.4662450688235069
0.095915 0.068811 -0.45108806882350694
-0.303126 0.127518 -0.45108806882350694
0.220186 0.140504 -0.45108806882350694
0.022968 0.117463 -0.45108806882350694
-0.411288 0.092286 -0.45108806882350694
-0.157084 0.069402 -0.4738070688235069
-0.303469 0.05403 -0.45108806882350694
0.420712 0.183915 -0.45108806882350694
0.201575 0.058466 -0.45108806882350694
0.461098 0.100089 -0.45108806882350694
-0.110614 0.188897 -0.45108806882350694
0.351563 0.046238 -0.4713220688235069
-0.10335 0.046238 -0.4646830688235069
-0.368153 0.111689 -0.45108806882350694
-0.382191 0.046238 -0.45277706882350693
0.006696 0.046238 -0.46710906882350695
-0.124872 0.260972 -0.45108806882350694
0.063662 0.2104 -0.45108806882350694
0.136106 0.136174 -0.45108806882350694
0.061678 0.049541 -0.4738070688235069
0.050514 0.154551 -0.4738070688235069
0.338831 0.090987 -0.45108806882350694
0.248552 0.214852 -0.45108806882350694
-0.088956 0.219157 -0.4738070688235069
0.230451 0.089219 -0.45108806882350694
-0.038848 0.152551 -0.4738070688235069
0.003744 0.086866 -0.4738070688235069
-0.022409 0.191467 -0.4738070688235069
0.073162 0.102638 -0.4738070688235069
-0.344025 0.155623 -0.45108806882350694
-0.160638 0.187236 -0.45108806882350694
-0.019756 0.117961 -0.4738070688235069
-0.02327 0.231823 -0.45108806882350694
0.371781 0.094258 -0.4738070688235069
0.16193 0.173317 -0.45108806882350694
0.501478 0.080334 -0.45108806882350694
0.465918 0.070513 -0.4738070688235069
0.130297 0.098255 -0.45108806882350694
-0.207995 0.099022 -0.45108806882350694
-0.121943 0.103695 -0.45108806882350694
0.17525 0.140368 -0.4738070688235069
0.30295 0.046238 -0.45364606882350694
0.38961 0.159807 -0.4738070688235069
-0.167982 0.231422 -0.45108806882350694
-0.43473 0.145181 -0.45108806882350694
0.08947 0.199288 -0.4738070688235069
0.242367 0.175006 -0.4738070688235069
-0.007731 0.142612 -0.45108806882350694
0.172547 0.073452 -0.4738070688235069
-0.340527 0.092102 -0.4738070688235069
-0.437827 0.092061 -0.4738070688235069
-0.302437 0.172843 -0.4738070688235069
-0.259503 0.145872 -0.4738070688235069
-0.079357 0.148929 -0.45108806882350694
-0.423252 0.046238 -0.4734200688235069
0.151437 0.195302 -0.4738070688235069
0.05029 0.240672 -0.45108806882350694
-0.179138 0.060943 -0.45108806882350694
-0.324993 0.139081 -0.4738070688235069
-0.245614 0.185609 -0.4738070688235069
0.415261 0.13468 -0.45108806882350694
0.275803 0.123637 -0.45108806882350694
-0.346737 0.046969 -0.45108806882350694
0.106231 0.135448 -0.4738070688235069
0.0283 0.201778 -0.45108806882350694
-0.065763 0.212899 -0.45108806882350694
0.198751 0.102778 -0.45108806882350694
-0.035148 0.101607 -0.45108806882350694
-0.189282 0.259477 -0.4738070688235069
-0.292695 0.072003 -0.4738070688235069
0.124753 0.049157 -0.45108806882350694
0.051322 0.106809 -0.45108806882350694
0.330721 0.062436 -0.45108806882350694
0.421889 0.079118 -0.4738070688235069
-0.450429 0.064402 -0.4738070688235069
-0.335623 0.124286 -0.45108806882350694
-0.131315 0.057598 -0.0667380688235069
0.17336 0.057598 0.21370793117649312
0.155268 0.057598 -0.2891360688235069
-0.24428 0.057598 0.25032293117649307
-0.387191 0.068957 -0.3304020688235069
0.207434 0.057598 -0.038205068823506896
0.136806 0.057598 0.4505929311764931
-0.10908 0.057598 -0.29344606882350693
-0.028629 0.068957 0.30424993117649307
-0.318256 0.057598 0.0423849311764931
0.025923 0.068957 0.0680529311764931
0.357536 0.068957 -0.31565206882350694
0.331903 0.057598 0.1153229311764931
-0.291205 0.057598 -0.17125706882350689
0.030355 0.057598 -0.1560780688235069
-0.247316 0.057598 0.43162593117649306
-0.152973 0.068957 0.09905293117649311
-0.416448 0.068957 0.2726609311764931
0.378233 0.057598 -0.043543068823506906
0.262652 0.068957 -0.18385506882350688
-0.39763 0.057598 0.41986993117649307
0.020212 0.057598 -0.3534130688235069
-0.250671 0.068957 -0.3802980688235069
0.233992 0.068957 -0.40438506882350694
-0.401869 0.068957 0.14501793117649311
-0.076172 0.057598 0.4222969311764931
0.207362 0.068957 0.3350589311764931
0.209324 0.057598 0.0904529311764931
0.408314 0.068957 0.2157039311764931
0.444451 0.068957 0.0656059311764931
-0.12282 0.068957 0.2253719311764931
-0.363122 0.068957 -0.0747060688235069
-0.414287 0.057598 -0.1993350688235069
-0.062876 0.057598 -0.43984506882350694
-0.011944 0.068957 0.18317793117649311
-0.016884 0.068957 -0.0468670688235069
0.091005 0.068957 0.32947493117649307
-0.154927 0.057598 0.33912893117649306
0.297487 0.057598 0.24093493117649312
-0.159255 0.068957 -0.1919100688235069
0.376519 0.068957 -0.1862620688235069
-0.31855 0.068957 0.3395079311764931
-0.253035 0.068957 -0.06376006882350689
0.412068 0.057598 0.43905793117649305
0.125706 0.068957 -0.3960270688235069
0.104163 0.068957 -0.008390068823506902
0.138064 0.057598 -0.1641480688235069
-0.27173 0.057598 0.1461219311764931
-0.253961 0.068957 -0.2709900688235069
0.46121 0.068957 -0.4069800688235069
-0.002784 0.068957 -0.2544850688235069
0.279567 0.068957 0.4348349311764931
0.342435 0.057598 -0.4233430688235069
-0.158346 0.057598 -0.4155190688235069
-0.089879 0.057598 0.0249869311764931
-0.349392 0.057598 -0.4209570688235069
0.110722 0.068957 0.1161289311764931
0.295704 0.057598 0.0255199311764931
0.025982 0.057598 0.40018493117649306
0.434216 0.057598 0.3076329311764931
0.296424 0.068957 -0.0842370688235069
-0.20085 0.057598 0.0213189311764931
-0.060636 0.057598 -0.14980106882350688
0.266287 0.068957 -0.31931806882350694
-0.332701 0.057598 0.2398659311764931
0.051259 0.068957 0.24573493117649312
-0.164659 0.057598 0.45638593117649306
-0.195877 0.068957 0.1820949311764931
-0.353492 0.068957 -0.2545390688235069
-0.18487 0.068957 -0.32489106882350693
0.417908 0.057598 -0.1173980688235069
0.083335 0.057598 -0.25224506882350695
0.080543 0.068957 -0.08545106882350689
0.306653 0.057598 -0.2498800688235069
-0.231632 0.068957 0.35113393117649305
-0.056636 0.068957 -0.3500560688235069
-0.429258 0.057598 -0.1104700688235069
-0.216414 0.057598 -0.1446240688235069
-0.083446 0.068957 -0.2202900688235069
0.241293 0.057598 0.1828019311764931
0.158011 0.068957 -0.0932400688235069
-0.034123 0.057598 0.1104969311764931
0.204127 0.057598 -0.2280460688235069
-0.087639 0.068957 0.1604549311764931
0.042646 0.057598 -0.4299910688235069
0.416097 0.057598 0.14382493117649311
-0.386806 0.068957 0.0133849311764931
0.220034 0.057598 -0.1273160688235069
0.163075 0.068957 0.0321939311764931
0.189137 0.068957 0.4038229311764931
-0.246379 0.068957 0.0738169311764931
0.419038 0.068957 -0.34930906882350693
0.271503 0.057598 0.3094129311764931
-0.078389 0.057598 0.3527009311764931
0.458594 0.057598 -0.2118890688235069
0.388997 0.057598 -0.25501306882350694
0.379506 0.068957 0.0245349311764931
0.057983 0.057598 0.4664369311764931
0.20101 0.068957 -0.3370930688235069
-0.180601 0.068957 0.2783039311764931
-0.222052 0.057598 -0.2111420688235069
0.157004 0.068957 0.27727893117649305
-0.233071 0.057598 -0.4430560688235069
-0.173089 0.068957 -0.2559500688235069
0.050226 0.057598 0.1660159311764931
0.104307 0.068957 0.39355393117649307
-0.357473 0.057598 0.0983189311764931
0.319511 0.068957 -0.1450430688235069
-0.36318 0.057598 -0.15912706882350688
-0.285294 0.057598 -0.3259000688235069
0.23257 0.068957 0.0288159311764931
-0.12141 0.068957 -0.3643500688235069
-0.058844 0.068957 0.2291749311764931
-0.388802 0.068957 0.3303499311764931
-0.326628 0.057598 -0.0208820688235069
0.115962 0.068957 0.18850793117649312
0.222728 0.057598 0.2537769311764931
0.10452 0.057598 0.0547199311764931
-0.114395 0.057598 0.2852759311764931
-0.157853 0.057598 -0.1261210688235069
0.011257 0.068957 0.0073289311764931
0.270015 0.057598 0.0948309311764931
0.361674 0.068957 0.40712893117649307
-0.194509 0.068957 -0.0477420688235069
0.143451 0.057598 -0.2282370688235069
0.107621 0.057598 -0.33983506882350695
-0.075591 0.068957 -0.034480068823506904
-0.013662 0.068957 -0.4015500688235069
0.33606 0.057598 0.1950959311764931
-0.331773 0.057598 -0.3636150688235069
-0.349472 0.057598 0.1712139311764931
-0.408509 0.068957 0.2140849311764931
0.079589 0.057598 -0.1879290688235069
0.000553 0.068957 -0.10779106882350689
-0.345221 0.057598 0.3960259311764931
-0.036353 0.057598 0.045863931176493095
-0.278049 0.057598 0.2032059311764931
-0.29315 0.068957 -0.10485006882350689
-0.145331 0.068957 0.0139179311764931
-0.252239 0.068957 9.293117649309887e-05
0.248958 0.068957 -0.2654460688235069
0.277964 0.057598 0.36540393117649306
0.277998 0.068957 -0.43950706882350693
-0.016875 0.068957 -0.3089780688235069
0.293793 0.057598 -0.3666150688235069
0.291324 0.068957 0.1609999311764931
-0.028448 0.068957 0.39609193117649305
-0.146337 0.068957 0.40540093117649306
0.371059 0.068957 -0.37750906882350693
0.475168 0.068957 0.2414979311764931
0.381217 0.057598 0.0916349311764931
-0.433278 0.057598 -0.30222406882350694
0.285283 0.068957 -0.0265280688235069
-0.145362 0.068957 0.16383593117649312
-0.273798 0.068957 0.30985593117649307
0.156125 0.068957 -0.029231068823506897
-0.088167 0.068957 0.1072799311764931
0.370573 0.068957 -0.0948810688235069
-0.060015 0.057598 -0.27326506882350693
0.108709 0.057598 0.2396549311764931
0.02852 0.068957 -0.2122560688235069
-0.410667 0.068957 -0.05346506882350689
-0.33834 0.057598 0.29135993117649306
-0.326375 0.057598 -0.2088450688235069
0.248276 0.057598 -0.07021406882350689
0.337377 0.068957 0.0539309311764931
0.159782 0.068957 0.0945029311764931
-0.201268 0.057598 -0.3832030688235069
0.014703 0.057598 0.2784019311764931
0.437005 0.057598 -0.0490580688235069
-0.199882 0.068957 0.3900719311764931
0.065909 0.057598 -0.0388050688235069
-0.401981 0.057598 -0.2484320688235069
0.33084 0.057598 -0.2036310688235069
-0.28338 0.068957 0.3994349311764931
0.232698 0.068957 0.4518159311764931
0.446956 0.057598 0.4732429311764931
0.046177 0.068957 0.34853393117649306
0.110855 0.057598 -0.1237630688235069
0.435914 0.057598 -0.3050720688235069
-0.29245 0.068957 -0.4061140688235069
-0.358977 0.057598 0.45202893117649307
-0.110297 0.057598 -0.13442806882350689
-0.295599 0.068957 0.08341493117649311
-0.290078 0.068957 0.2601859311764931
0.005543 0.057598 0.1378049311764931
0.172545 0.057598 -0.4127220688235069
0.442465 0.068957 0.0176369311764931
0.084815 0.068957 0.28209993117649307
0.059896 0.068957 -0.3774580688235069
0.176213 0.068957 0.1676539311764931
0.153596 0.068957 -0.3581230688235069
-0.319462 0.068957 -0.2956670688235069
-0.42605 0.057598 0.46053793117649305
-0.012077 0.068957 0.2334289311764931
-0.225161 0.057598 0.2931329311764931
0.205188 0.068957 -0.2908040688235069
-0.230805 0.068957 -0.3301660688235069
-0.112366 0.057598 -0.1862560688235069
-0.209132 0.057598 0.0982549311764931
-0.371162 0.068957 -0.2103640688235069
0.451234 0.057598 0.4154789311764931
-0.317362 0.068957 0.4303679311764931
-0.399871 0.068957 0.0857749311764931
-0.045632 0.057598 -0.1926000688235069
-0.379585 0.057598 0.2494469311764931
0.452491 0.068957 0.1820459311764931
0.348809 0.068957 -0.2702050688235069
0.319226 0.057598 0.4011159311764931
0.459933 0.057598 -0.1639730688235069
-0.289843 0.057598 -0.2482990688235069
-0.254232 0.057598 -0.12096206882350691
0.043819 0.068957 0.1077649311764931
-0.11584 0.057598 -0.24684206882350687
0.084415 0.057598 -0.3031960688235069
-0.108983 0.057598 0.45054193117649305
-0.321677 0.057598 -0.07025506882350689
-0.197221 0.057598 0.3276689311764931
0.265827 0.068957 0.26799393117649306
0.367897 0.057598 0.1390449311764931
-0.159018 0.068957 0.0546949311764931
0.038916 0.057598 -0.0923430688235069
-0.182253 0.057598 0.2210649311764931
0.067857 0.057598 0.41293693117649305
0.040564 0.057598 -0.2527810688235069
0.272906 0.068957 -0.2252280688235069
0.207487 0.068957 0.29188893117649306
-0.016657 0.068957 0.43917393117649306
0.260715 0.057598 -0.1158740688235069
-0.389864 0.057598 -0.40912406882350694
-0.430066 0.057598 -0.1602580688235069
0.007981 0.057598 0.32115993117649305
-0.332704 0.068957 0.1347819311764931
0.252376 0.057598 0.39817293117649305
-0.057342 0.068957 0.2706669311764931
0.130421 0.057598 0.33574293117649306
-0.118018 0.068957 -0.0172040688235069
0.266211 0.068957 0.2136399311764931
0.175939 0.068957 0.45546893117649306
-0.162359 0.068957 -0.3658540688235069
0.224604 0.057598 -0.1679460688235069
-0.002784 0.068957 0.36437293117649305
0.176093 0.068957 -0.1734070688235069
-0.273499 0.057598 0.0461679311764931
0.248118 0.057598 -0.015742068823506903
0.348748 0.057598 0.2456869311764931
0.196202 0.057598 -0.3803500688235069
0.420796 0.057598 0.0970749311764931
-0.044335 0.068957 0.0084129311764931
-0.204042 0.057598 0.45081993117649305
0.287545 0.057598 -0.28771306882350695
-0.230098 0.057598 -0.030779068823506898
0.118148 0.068957 -0.0731610688235069
-0.146291 0.068957 0.2586229311764931
-0.055122 0.068957 0.45376993117649306
-0.249547 0.057598 -0.1660000688235069
0.333564 0.068957 0.1545239311764931
0.249452 0.057598 0.1443859311764931
-0.080868 0.057598 -0.3205350688235069
0.429504 0.057598 0.2464689311764931
0.318185 0.068957 -0.04745606882350689
-0.160334 0.057598 -0.0330490688235069
0.449248 0.068957 0.35729593117649305
-0.290414 0.068957 -0.012744068823506899
-0.352037 0.068957 0.2083429311764931
0.283996 0.068957 0.060570931176493106
-0.371564 0.068957 0.36494993117649305
0.089918 0.068957 0.4478869311764931
0.414294 0.068957 -0.0199650688235069
-0.299873 0.068957 0.1734429311764931
-0.031878 0.057598 0.34190293117649306
0.400868 0.068957 0.056479931176493095
-0.3656 0.068957 -0.12251806882350691
0.169565 0.068957 0.3284369311764931
0.056188 0.068957 0.044485931176493104
-0.061395 0.057598 -0.40157006882350693
0.118784 0.068957 -0.2892910688235069
-0.425236 0.057598 0.3285819311764931
-0.256103 0.057598 -0.2284570688235069
-0.04987 0.068957 0.1863409311764931
0.056114 0.057598 -0.3408680688235069
-0.424437 0.068957 0.0185459311764931
0.031383 0.068957 -0.0248140688235069
-0.095586 0.057598 0.31896493117649305
-0.391829 0.057598 -0.022700068823506902
-0.14087 0.068957 -0.2757350688235069
0.388147 0.057598 0.2455469311764931
0.429617 0.068957 -0.38631006882350694
-0.358732 0.068957 -0.037232068823506895
-0.016793 0.057598 -0.36576606882350693
-0.059438 0.057598 -0.0664370688235069
-0.089893 0.057598 0.0715439311764931
0.31072 0.068957 -0.4068200688235069
0.141938 0.057598 0.061004931176493096
0.222498 0.068957 0.2131339311764931
-0.001541 0.057598 -0.1934980688235069
0.133722 0.057598 0.4132819311764931
0.179857 0.068957 -0.06313606882350689
0.108562 0.068957 -0.2225100688235069
-0.114705 0.068957 0.13507993117649308
-0.109856 0.057598 -0.0968350688235069
0.405082 0.068957 -0.28625906882350693
0.045528 0.068957 0.2951219311764931
0.087317 0.057598 -0.39925806882350695
-0.047418 0.068957 -0.2279060688235069
0.021408 0.057598 0.47010193117649307
0.466259 0.057598 0.32677193117649306
0.448584 0.068957 0.1312459311764931
0.019477 0.068957 -0.3129950688235069
-0.414026 0.057598 -0.3584720688235069
0.157739 0.057598 -0.1335690688235069
0.442987 0.068957 -0.0830460688235069
-0.141081 0.057598 -0.33645106882350695
-0.254157 0.057598 0.38193593117649305
-0.169949 0.057598 0.37384993117649307
-0.390025 0.057598 0.0471629311764931
0.101559 0.057598 -0.043670068823506894
-0.122272 0.068957 0.3478459311764931
-0.223206 0.068957 0.046627931176493095
0.327793 0.057598 -0.3560630688235069
-0.398089 0.057598 -0.2837990688235069
0.075824 0.057598 -0.11877306882350688
0.355215 0.068957 -0.019190068823506903
0.377991 0.057598 0.44814093117649306
-0.243091 0.057598 0.1992009311764931
-0.24159 0.068957 0.46438193117649307
0.23438 0.057598 0.0658769311764931
0.255674 0.068957 -0.1494600688235069
-0.225711 0.057598 -0.2538340688235069
0.477032 0.057598 0.0340329311764931
0.157573 0.057598 0.1273559311764931
-0.300631 0.057598 0.36709693117649306
0.299228 0.068957 -0.3342680688235069
0.146241 0.057598 0.0020319311764931004
0.205496 0.068957 0.36965893117649307
0.230229 0.057598 -0.2052780688235069
0.366466 0.068957 0.1830859311764931
-0.205527 0.068957 0.1488959311764931
0.063537 0.068957 0.0793729311764931
0.22595 0.068957 -0.0940200688235069
0.325419 0.057598 -0.3102690688235069
0.129608 0.057598 0.3730939311764931
-0.434233 0.057598 0.1481089311764931
-0.346524 0.068957 0.058395931176493096
-0.155772 0.057598 0.1312729311764931
0.189748 0.057598 0.2445889311764931
0.072345 0.057598 0.36739993117649306
-0.033165 0.068957 -0.1332140688235069
0.191085 0.068957 -0.11355306882350691
-0.190058 0.068957 -0.21307906882350688
-0.160808 0.068957 -0.0791400688235069
0.061964 0.068957 -0.1606780688235069
0.415525 0.057598 -0.4174510688235069
