-0.492902 -0.334824 0.249459
0.047744 -0.351761 -0.30293
0.068131 -0.351761 0.244702
0.55601 -0.334824 0.166891
0.360101 -0.351761 -0.123417
-0.514283 -0.351761 0.334609
0.112068 -0.334824 0.023841
-0.177529 -0.334824 -0.212898
-0.371625 -0.334824 -0.224732
-0.075177 -0.334824 0.099421
0.48855 -0.334824 -0.374346
0.084717 -0.351761 0.331623
-0.29638 -0.351761 -0.233333
0.353916 -0.334824 -0.283481
-0.641529 -0.334824 -0.252064
0.524976 -0.351761 -0.070416
0.201765 -0.351761 -0.23837
-0.131019 -0.351761 -0.177176
0.09949 -0.351761 -0.368392
-0.047105 -0.334824 0.153618
-0.405047 -0.334824 0.289289
-0.405511 -0.351761 8e-06
0.296593 -0.334824 -0.171668
-0.481572 -0.334824 -0.10153
0.43475 -0.351761 0.318601
0.273147 -0.351761 -0.368035
-0.338141 -0.334824 -0.2259
0.105339 -0.351761 -0.117321
0.026435 -0.334824 0.268937
-0.65396 -0.351761 -0.335929
0.389656 -0.334824 0.21052
0.113108 -0.351761 -0.182165
0.401084 -0.334824 0.152338
-0.214505 -0.334824 -0.312247
-0.581668 -0.351761 -0.274638
-0.369352 -0.351761 0.054055
-0.382399 -0.351761 0.151531
0.029402 -0.334824 -0.054702
-0.587551 -0.334824 -0.203891
0.566039 -0.334824 -0.265119
-0.440291 -0.334824 -0.213113
-0.569252 -0.334824 0.052707
0.325122 -0.334824 0.132185
-0.219108 -0.351761 -0.189023
-0.213918 -0.351761 0.143391
0.499278 -0.334824 0.103142
-0.365391 -0.334824 -0.065351
0.681376 -0.351761 -0.36891
-0.285 -0.351761 0.091775
0.120209 -0.351761 0.314352
-0.395244 -0.351761 0.204246
0.664773 -0.351761 0.080091
0.671984 -0.334824 -0.247419
0.137155 -0.351761 -0.065212
-0.633205 -0.334824 0.100465
-0.146411 -0.334824 -0.025857
-0.572831 -0.334824 0.240521
0.023436 -0.351761 0.067588
-0.475458 -0.334824 -0.238581
0.360173 -0.334824 -0.047408
-0.463903 -0.351761 -0.007456
-0.197067 -0.351761 0.002338
0.202856 -0.351761 0.038543
-0.246138 -0.351761 -0.184864
-0.575306 -0.351761 0.020072
0.206516 -0.334824 -0.149087
-0.289264 -0.334824 -0.078877
0.338381 -0.351761 0.185788
0.625624 -0.334824 0.243565
0.182499 -0.334824 0.199106
-0.283656 -0.351761 -0.164648
0.136541 -0.351761 -0.21727
-0.05005 -0.334824 -0.223033
-0.359121 -0.334824 0.014461
-0.068952 -0.351761 -0.383933
0.081366 -0.334824 -0.167821
-0.478768 -0.351761 0.245566
0.306851 -0.334824 -0.045292
0.545141 -0.334824 -0.077271
-0.003806 -0.334824 0.226786
0.223427 -0.334824 -0.077858
-0.441321 -0.334824 -0.32908
0.005502 -0.334824 -0.134647
0.403836 -0.334824 0.11513
-0.574454 -0.334824 -0.331676
0.536688 -0.351761 0.236509
0.004818 -0.334824 -0.169676
0.035223 -0.351761 0.330987
0.53409 -0.334824 -0.237459
-0.283248 -0.351761 -0.207973
0.592186 -0.334824 0.172184
0.422388 -0.351761 -0.145461
-0.262119 -0.351761 -0.270838
0.411797 -0.334824 -0.372327
-0.123265 -0.351761 -0.274688
0.441088 -0.334824 -0.058485
0.215172 -0.351761 0.103105
0.641827 -0.334824 0.181232
-0.396915 -0.334824 0.008429
-0.549629 -0.334824 0.154666
0.213759 -0.334824 -0.325841
0.339493 -0.351761 -0.061969
0.714331 -0.351761 -0.251658
-0.066677 -0.334824 0.268366
-0.555074 -0.334824 -0.206193
0.342289 -0.334824 0.259598
0.187162 -0.334824 0.226473
0.53853 -0.351761 -0.159846
-0.105419 -0.334824 0.147425
-0.052341 -0.351761 0.024837
0.515425 -0.334824 -0.358345
0.621898 -0.334824 0.024537
0.208245 -0.334824 0.271316
0.312504 -0.351761 -0.186215
0.457228 -0.334824 0.171842
0.487353 -0.334824 -0.151374
0.375678 -0.334824 -0.323266
-0.581152 -0.351761 -0.131555
0.621285 -0.351761 0.056502
0.703866 -0.351761 -0.220077
-0.612028 -0.351761 -0.204154
0.442915 -0.351761 0.338469
0.013953 -0.351761 0.005203
-0.258558 -0.351761 -0.360901
-0.146822 -0.334824 0.338195
0.632389 -0.351761 0.307627
-0.224727 -0.351761 0.016427
-0.110642 -0.351761 0.175892
-0.265593 -0.334824 -0.157104
-0.379729 -0.334824 0.270152
-0.111412 -0.351761 -0.031381
0.232137 -0.351761 -0.277589
-0.03971 -0.334824 0.113293
-0.588214 -0.351761 0.328614
0.340911 -0.334824 -0.257702
0.648651 -0.351761 -0.270269
-0.024335 -0.351761 0.297947
-0.098919 -0.351761 0.207611
-0.338905 -0.351761 0.054206
-0.143285 -0.334824 0.221008
-0.535604 -0.334824 0.26072
-0.502237 -0.351761 0.056674
0.228145 -0.334824 -0.23366
0.049699 -0.351761 -0.210903
0.078017 -0.334824 0.351949
0.199479 -0.351761 0.058624
-0.10064 -0.351761 -0.385383
-0.317363 -0.334824 -0.279064
-0.281568 -0.351761 -0.038722
0.67269 -0.351761 -0.02579
-0.504642 -0.334824 0.095612
0.050776 -0.334824 -0.195345
-0.393633 -0.334824 0.161781
-0.442197 -0.334824 0.254303
0.249454 -0.351761 0.104546
0.609591 -0.334824 -0.131158
0.181297 -0.334824 -0.378586
0.46148 -0.351761 -0.135266
-0.252069 -0.334824 -0.134669
0.159364 -0.334824 -0.336391
-0.034331 -0.334824 -0.205038
-0.257292 -0.351761 0.331434
0.172824 -0.334824 -0.248422
-0.545972 -0.351761 -0.200276
0.420862 -0.351761 0.154075
0.610656 -0.334824 -0.221371
0.617686 -0.351761 -0.329942
-0.223565 -0.351761 -0.015708
0.627613 -0.334824 -0.143694
0.050575 -0.351761 -0.051404
0.017961 -0.334824 0.347694
-0.466669 -0.351761 -0.3231
0.255809 -0.334824 0.138619
-0.466222 -0.334824 0.102834
0.35164 -0.334824 0.101768
0.046661 -0.334824 0.261871
-0.072539 -0.334824 -0.119191
-0.398671 -0.334824 -0.259558
-0.396351 -0.334824 -0.122722
0.235192 -0.351761 -0.350808
0.183256 -0.351761 0.003312
0.662242 -0.351761 -0.359009
-0.221674 -0.351761 -0.275883
0.232253 -0.334824 0.302909
-0.31879 -0.351761 0.339653
-0.337754 -0.334824 0.104623
-0.56181 -0.334824 -0.361664
-0.107811 -0.334824 0.319968
-0.582594 -0.351761 0.067042
-0.081787 -0.334824 -0.343466
-0.397639 -0.334824 0.112606
0.397788 -0.351761 0.022202
0.19774 -0.334824 -0.340285
0.533612 -0.351761 -0.01603
-0.546714 -0.334824 -0.288774
0.146347 -0.351761 -0.364277
-0.41588 -0.351761 0.193466
0.393202 -0.334824 0.088656
-0.564562 -0.334824 -0.133051
-0.106172 -0.351761 -0.259967
0.280339 -0.334824 -0.220205
0.213227 -0.334824 -0.247186
0.185074 -0.334824 -0.231565
-0.268018 -0.334824 0.03998
-0.517591 -0.351761 0.161087
-0.193954 -0.351761 0.213126
0.318785 -0.334824 0.185668
-0.367818 -0.351761 -0.092353
-0.645042 -0.334824 0.155215
-0.180549 -0.334824 -0.148941
0.376376 -0.351761 -0.39233
-0.521107 -0.351761 -0.007666
0.470726 -0.334824 0.040266
-0.244121 -0.334824 0.334996
0.248491 -0.334824 0.215454
0.506512 -0.334824 -0.325958
-0.588741 -0.334824 0.148943
0.641328 -0.351761 0.04801
0.177815 -0.334824 -0.033864
-0.033983 -0.351761 0.098576
-0.130744 -0.334824 0.057364
0.221536 -0.351761 0.142565
0.38397 -0.351761 -0.350698
-0.271246 -0.351761 -0.021349
0.51286 -0.351761 -0.043764
-0.585055 -0.334824 -0.31354
-0.122031 -0.351761 0.287329
0.397345 -0.334824 -0.319325
-0.290524 -0.351761 -0.003656
-0.462155 -0.351761 -0.083129
0.538203 -0.334824 -0.213518
0.546084 -0.334824 -0.382278
-0.501649 -0.351761 0.024305
0.299958 -0.334824 0.202787
0.120744 -0.334824 0.354991
0.398455 -0.351761 0.163836
-0.538265 -0.351761 -0.349253
-0.425058 -0.351761 -0.282832
-0.077914 -0.351761 -0.273903
0.571983 -0.334824 0.282783
-0.001857 -0.334824 -0.366746
0.571443 -0.334824 0.202626
0.197936 -0.351761 -0.186179
-0.583639 -0.351761 0.134427
-0.091653 -0.351761 -0.205664
-0.046689 -0.334824 -0.245348
-0.502324 -0.334824 0.27501
-0.357105 -0.334824 -0.12183
0.515213 -0.351761 -0.26587
-0.440376 -0.351761 0.110156
-0.480627 -0.351761 -0.253532
-0.182918 -0.334824 0.119555
0.636707 -0.334824 -0.373131
0.505415 -0.351761 -0.3872
-0.01151 -0.351761 0.013758
-0.653445 -0.351761 0.07379
0.423628 -0.351761 0.29712
-0.651289 -0.351761 -0.156833
-0.3055 -0.334824 -0.355982
0.312379 -0.334824 0.322327
0.642724 -0.334824 -0.255272
0.359507 -0.351761 0.284926
-0.095118 -0.351761 0.058814
-0.408993 -0.351761 0.115753
-0.463931 -0.334824 -0.116626
0.610654 -0.334824 -0.021204
-0.460372 -0.334824 -0.071138
-0.198567 -0.334824 0.06536
0.061288 -0.351761 -0.129488
-0.278994 -0.351761 0.162896
0.472349 -0.351761 -0.039694
-0.394509 -0.351761 -0.058771
0.668883 -0.351761 -0.173577
-0.50401 -0.334824 0.35405
0.501654 -0.351761 -0.082318
0.693159 -0.334824 -0.340326
0.604507 -0.351761 0.233415
-0.266087 -0.334824 0.018163
-0.464634 -0.334824 0.034142
-0.678791 0.138547 0.376132
-0.672072 0.289649 0.35885
-0.678791 -0.362012 0.362341
-0.62798 -0.134792 0.361331
-0.640861 0.192578 0.35885
-0.678791 0.07156 0.378624
-0.635564 0.411785 0.384256
-0.678791 -0.043769 0.368968
-0.635596 -0.324056 0.35885
-0.62798 0.571906 0.365233
-0.662912 -0.096764 0.35885
-0.678791 -0.290686 0.359758
-0.676959 0.58039 0.35885
-0.632748 0.133996 0.35885
-0.678791 0.220898 0.359089
-0.675938 0.340192 0.35885
-0.634931 0.088202 0.35885
-0.678791 0.416534 0.376863
-0.678791 -0.144195 0.366988
-0.650674 0.629157 0.384256
-0.678791 -0.207878 0.366432
-0.634781 -0.364178 0.35885
-0.678791 0.5445 0.378083
-0.677411 0.263002 0.384256
-0.645329 -0.029629 0.35885
-0.62798 -0.100523 0.376525
-0.678791 0.180655 0.365451
-0.678791 0.103707 0.360482
-0.62798 0.449012 0.367524
-0.62798 0.165235 0.375232
-0.662322 0.379821 0.384256
-0.658454 -0.124568 0.384256
-0.638459 0.107947 0.384256
-0.678791 0.483367 0.375125
-0.633897 -0.165635 0.35885
-0.646778 0.076181 0.384256
-0.652956 0.445214 0.384256
-0.676524 0.639046 0.374363
-0.652363 -0.193827 0.35885
-0.659896 0.149813 0.35885
-0.668296 0.162948 0.384256
-0.634091 0.591002 0.384256
-0.643845 -0.01301 0.384256
-0.658513 0.389009 0.35885
-0.62798 0.42262 0.359176
-0.62798 0.377057 0.383293
-0.678791 0.357945 0.378716
-0.678791 0.235983 0.381147
-0.678791 0.04494 0.377461
-0.674962 -0.012893 0.35885
-0.668783 0.095275 0.384256
-0.62859 0.289179 0.35885
-0.655032 -0.129691 0.35885
-0.678791 -0.170101 0.368745
-0.640008 -0.084891 0.35885
-0.639307 0.50571 0.384256
-0.653797 0.416893 0.35885
-0.675465 -0.024229 0.384256
-0.676856 0.455334 0.35885
-0.647781 0.215506 0.35885
-0.642472 0.112532 0.35885
-0.650611 0.324563 0.35885
-0.678791 0.305397 0.374457
-0.629979 -0.301777 0.35885
-0.63808 0.637752 0.35885
-0.648586 0.169516 0.35885
-0.678791 -0.121215 0.374843
-0.667929 0.070989 0.35885
-0.678791 -0.088079 0.371176
-0.678791 -0.338236 0.372477
-0.672547 0.497703 0.35885
-0.678791 0.516636 0.369685
-0.678791 0.365577 0.359032
-0.671752 0.465865 0.384256
-0.648016 0.262294 0.35885
-0.642143 0.466913 0.384256
-0.678791 0.337418 0.382327
-0.678791 -0.278268 0.376441
-0.630989 0.46739 0.35885
-0.647055 -0.094377 0.384256
-0.660437 0.031048 0.384256
-0.678791 0.405431 0.359934
0.075732 -0.08867 0.35885
-0.018253 -0.21126 0.359783
0.011775 0.05468 0.35885
0.024455 0.294444 0.35885
0.080163 -0.198827 0.35885
-0.010672 0.157252 0.35885
0.010216 -0.028048 0.384256
-0.012448 0.545794 0.35885
0.037557 0.462232 0.35885
0.060965 0.218329 0.35885
0.038591 0.36434 0.35885
0.024484 -0.152933 0.35885
0.083369 0.318265 0.362071
-0.018253 -0.092312 0.360727
0.057577 0.124082 0.35885
0.050697 0.007758 0.35885
0.066892 -0.314593 0.35885
-0.018253 0.258471 0.362839
0.030559 -0.24155 0.35885
-0.018253 0.104085 0.362171
-0.015805 0.484944 0.35885
0.081462 -0.250788 0.35885
0.028252 -0.105916 0.384256
-0.018253 -0.270705 0.364758
-0.018253 0.007486 0.368131
0.037696 0.181958 0.384256
0.083369 -0.147826 0.369873
0.02625 -0.065985 0.35885
0.081322 0.479819 0.35885
0.083369 -0.023147 0.363616
-0.018253 0.305824 0.366633
-0.018253 0.200604 0.367456
0.034309 0.514283 0.35885
0.027763 0.258925 0.384256
-0.018253 -0.314342 0.381665
-0.017404 -0.156519 0.35885
0.02196 -0.199507 0.35885
0.050194 0.071105 0.35885
0.029254 0.55939 0.384256
-0.016767 -0.044789 0.35885
0.01978 0.228305 0.35885
0.06448 0.163669 0.35885
0.031918 -0.295554 0.35885
0.001931 0.349119 0.35885
0.020739 0.111676 0.35885
0.023267 0.00998 0.384256
0.080616 0.236408 0.384256
-0.01437 0.443143 0.384256
0.041301 -0.035085 0.35885
0.064437 0.252152 0.35885
-0.018253 0.519646 0.379511
-0.018253 -0.123519 0.373182
0.066963 0.344545 0.384256
-0.018253 0.072119 0.370369
0.079187 0.522079 0.35885
-0.018253 -0.183629 0.377552
0.083369 0.071939 0.361578
0.018637 0.090033 0.384256
0.024707 0.496313 0.384256
0.083369 0.556931 0.369042
0.083369 0.007679 0.373765
0.055807 0.300728 0.35885
0.083369 0.117221 0.376227
0.048672 0.546713 0.35885
0.036401 0.332088 0.384256
0.035649 0.212825 0.384256
-0.006314 0.363697 0.384256
0.014315 0.023459 0.35885
0.053892 0.461914 0.384256
-0.010671 0.228247 0.35885
-0.000121 -0.095174 0.384256
0.068173 -0.10614 0.384256
0.036732 0.198208 0.35885
0.038149 0.434314 0.384256
0.067252 0.044544 0.35885
0.010351 -0.308318 0.384256
0.044299 -0.300512 0.384256
0.081207 0.140168 0.35885
0.079341 -0.121987 0.35885
0.018422 -0.11385 0.35885
0.056103 -0.068223 0.35885
0.033848 -0.045155 0.384256
0.017382 0.55693 0.35885
0.067072 0.273647 0.384256
-0.018253 -0.065009 0.377817
0.067286 -0.16763 0.35885
0.050951 -0.265759 0.384256
0.069157 0.310059 0.384256
0.01633 -0.069113 0.384256
0.050903 -0.017801 0.384256
0.052814 -0.199916 0.35885
0.009386 0.1971 0.35885
-0.009602 -0.237207 0.35885
-0.007861 -0.158324 0.384256
0.016591 0.268471 0.35885
0.010519 0.461988 0.35885
0.054829 0.496801 0.35885
0.045036 0.334016 0.35885
0.056494 0.161988 0.384256
0.037995 0.248726 0.35885
0.013519 -0.042571 0.35885
0.012969 0.344741 0.384256
0.002705 -0.285856 0.35885
0.011568 0.136319 0.35885
0.046639 -0.154704 0.384256
0.045428 -0.227038 0.384256
0.062537 0.569105 0.35885
0.012326 0.175643 0.384256
-0.018253 -0.018544 0.368648
0.001904 0.5243 0.35885
-0.005278 -0.238831 0.384256
-0.01369 0.446727 0.35885
0.07347 0.09584 0.384256
0.039466 0.049121 0.35885
0.083369 0.211097 0.365077
-0.018253 -0.295504 0.36548
0.068242 0.340109 0.35885
0.003408 -0.267096 0.384256
0.034274 -0.319098 0.35885
0.051488 -0.230512 0.35885
-0.018253 0.56849 0.365564
0.039748 0.5385 0.384256
0.012478 0.503633 0.35885
-0.018253 -0.318448 0.358863
0.060809 0.101173 0.35885
0.045617 0.244612 0.384256
-0.006291 -0.06847 0.35885
0.023653 0.179476 0.35885
0.002731 0.302723 0.35885
0.010234 -0.11946 0.384256
0.083369 -0.03512 0.382629
-0.000833 -0.009103 0.35885
0.065478 0.015231 0.384256
0.083369 0.281287 0.366332
0.051696 -0.015903 0.35885
0.026301 0.537197 0.35885
0.068688 0.019353 0.35885
0.083369 0.189711 0.365735
0.083369 -0.281272 0.383518
-0.005207 0.18179 0.35885
0.06888 0.559005 0.384256
-0.018253 0.496232 0.376437
0.083369 -0.07524 0.380976
0.076013 -0.231095 0.35885
0.083369 0.446615 0.364334
0.083369 -0.303658 0.364675
-0.007245 0.201681 0.384256
-0.010651 -0.111642 0.35885
0.046695 0.26517 0.384256
0.015274 0.195308 0.384256
0.038405 0.089866 0.384256
0.064805 0.249332 0.384256
-0.00027 0.120524 0.35885
0.015208 -0.181077 0.35885
-0.016902 -0.178229 0.35885
-0.018253 0.325235 0.365068
0.002145 0.569025 0.35885
0.077709 0.502712 0.35885
-0.1085 0.368056 0.38421
0.280061 0.404696 0.35885
-0.227068 0.390809 0.35885
-0.477869 0.408162 0.384256
0.479267 0.388575 0.35885
0.668712 0.385467 0.35885
-0.335717 0.368759 0.35885
0.366644 0.368056 0.369272
0.09106 0.409727 0.35885
-0.049774 0.418867 0.368641
0.167728 0.413016 0.35885
-0.399898 0.41662 0.35885
0.210164 0.368056 0.371122
-0.152916 0.415449 0.35885
-0.558005 0.38877 0.35885
0.602276 0.371585 0.35885
0.430603 0.418867 0.363436
0.133433 0.371367 0.35885
-0.295906 0.418867 0.359239
0.627756 0.418867 0.365697
-0.452605 0.369482 0.35885
-0.508938 0.369161 0.35885
-0.000179 0.418867 0.363466
0.329642 0.407634 0.35885
0.52519 0.405485 0.35885
-0.102973 0.418867 0.365118
-0.36203 0.400724 0.384256
0.387705 0.409391 0.384256
-0.615101 0.372908 0.35885
0.437001 0.368056 0.366554
-0.268507 0.368056 0.359312
0.237559 0.418867 0.361931
0.255325 0.368056 0.365793
0.545535 0.368056 0.369868
-0.513283 0.413316 0.35885
0.041322 0.411334 0.35885
-0.058627 0.378895 0.35885
-0.602218 0.413783 0.35885
-0.158101 0.374794 0.35885
-0.339538 0.417498 0.35885
-0.431319 0.418867 0.380967
-0.280801 0.393173 0.384256
0.074423 0.369588 0.35885
0.403191 0.370129 0.35885
-0.324965 0.398117 0.384256
0.638757 0.368056 0.363049
0.155826 0.390848 0.384256
0.503355 0.415132 0.384256
-0.421645 0.39159 0.35885
0.230219 0.395536 0.384256
0.465967 0.418867 0.359857
-0.366707 0.377983 0.35885
0.604531 0.400575 0.384256
0.665182 0.418867 0.378081
-0.185857 0.368056 0.371175
-0.478299 0.377094 0.384256
0.032663 0.394364 0.384256
0.358593 0.395763 0.35885
0.319291 0.394219 0.384256
-0.446657 0.392886 0.384256
0.568058 0.38464 0.35885
-0.050091 0.392443 0.384256
0.536917 0.416326 0.384256
0.402167 0.403026 0.35885
-0.124539 0.368056 0.359207
-0.011616 0.40119 0.384256
-0.46428 0.401426 0.35885
-0.528174 0.418183 0.384256
-0.171641 0.411741 0.384256
0.40929 0.383557 0.384256
0.187119 0.391874 0.35885
-0.086365 0.385985 0.35885
0.209625 0.414996 0.35885
0.102473 0.368056 0.360746
-0.269117 0.410226 0.35885
-0.391732 0.407336 0.384256
-0.213645 0.368056 0.374877
0.666634 0.368056 0.380583
-0.236267 0.384604 0.384256
-0.027899 0.405141 0.35885
0.448591 0.413344 0.384256
-0.582968 0.375588 0.35885
0.082572 0.372571 0.384256
0.299753 0.386652 0.35885
-0.240532 0.413792 0.35885
0.021872 0.384923 0.35885
0.571049 0.414348 0.35885
-0.161773 0.380475 0.384256
0.523936 0.379293 0.35885
-0.48991 0.39654 0.35885
-0.03067 0.373467 0.384256
0.64004 0.382446 0.384256
0.16712 0.415471 0.384256
0.123131 0.377085 0.384256
0.423974 0.387822 0.35885
0.115921 0.409159 0.35885
0.617206 0.391257 0.35885
-0.522096 0.389998 0.35885
0.145095 0.418867 0.365962
0.411661 0.414013 0.384256
0.538 0.390573 0.384256
0.344441 0.380449 0.384256
-0.064626 0.37344 0.384256
0.685373 0.40249 0.35885
0.345351 0.369432 0.35885
-0.133247 0.368056 0.381274
0.321185 0.417845 0.384256
0.244077 0.38739 0.35885
0.561351 0.400887 0.384256
0.204262 0.386894 0.384256
0.606373 0.412542 0.35885
-0.377749 0.418867 0.36545
0.383142 0.390072 0.35885
-0.229161 0.40641 0.384256
0.547832 0.408897 0.35885
0.161631 0.391317 0.35885
0.59656 0.371576 0.384256
0.653852 0.417492 0.35885
-0.258465 0.381976 0.384256
-0.429245 0.41789 0.35885
-0.246614 0.368056 0.36111
-0.205969 0.384802 0.35885
0.375273 0.410398 0.35885
0.477953 0.418867 0.37786
-0.568161 0.418867 0.368228
0.502945 0.38368 0.35885
0.193049 0.418867 0.37592
-0.057419 0.401598 0.35885
0.486425 0.368816 0.35885
0.061866 0.408002 0.35885
0.370108 0.418867 0.378492
-0.112247 0.401426 0.35885
0.062458 0.386467 0.35885
0.258673 0.399223 0.384256
0.50657 0.418867 0.364459
-0.025761 0.415846 0.384256
0.320261 0.389728 0.35885
-0.089807 0.382809 0.384256
-0.080847 0.418867 0.364303
0.007431 0.368056 0.370538
0.194574 0.369506 0.35885
-0.379854 0.392449 0.35885
0.280914 0.381479 0.35885
-0.302004 0.400406 0.35885
-0.14729 0.639046 0.359952
0.518008 0.639046 0.378911
-0.450737 0.638577 0.384256
0.174391 0.639046 0.378998
-0.00992 0.639046 0.361927
0.392359 0.639046 0.376023
-0.560741 0.639046 0.380135
0.648291 0.639046 0.376992
0.264211 0.639046 0.362536
0.450963 0.588235 0.360416
-0.370708 0.639046 0.359034
-0.236144 0.631099 0.35885
-0.417349 0.589696 0.35885
-0.501904 0.613377 0.35885
-0.085301 0.635298 0.35885
0.060748 0.600306 0.35885
0.578961 0.639046 0.369572
-0.189577 0.603439 0.35885
-0.358003 0.588235 0.371086
0.648027 0.588235 0.359953
0.395501 0.588235 0.360095
-0.615214 0.638492 0.35885
-0.040073 0.591001 0.35885
0.103478 0.637302 0.35885
-0.118764 0.597147 0.35885
0.532716 0.588235 0.364223
-0.462214 0.588235 0.374532
0.157619 0.597696 0.35885
0.457507 0.635058 0.35885
0.217359 0.639046 0.360237
0.601263 0.588235 0.369
0.319748 0.591051 0.35885
-0.265179 0.593233 0.35885
-0.411168 0.639046 0.369963
-0.1536 0.588235 0.379908
0.002432 0.601019 0.35885
0.362058 0.619183 0.35885
0.213479 0.592202 0.35885
0.49161 0.616315 0.35885
0.61396 0.627605 0.35885
-0.33182 0.613124 0.35885
-0.548011 0.610098 0.35885
0.420951 0.625696 0.35885
0.486524 0.591564 0.384256
-0.270555 0.639046 0.362268
-0.083544 0.595263 0.35885
0.565591 0.599754 0.35885
-0.506398 0.63777 0.384256
0.141678 0.639046 0.366611
-0.46876 0.617299 0.35885
0.0234 0.639046 0.362565
-0.174013 0.639046 0.383665
0.071138 0.639046 0.364655
-0.43666 0.621015 0.35885
-0.293297 0.588235 0.373495
0.314233 0.639046 0.359015
-0.580141 0.588235 0.375436
-0.497755 0.592238 0.384256
-0.322836 0.639046 0.376177
0.551784 0.638435 0.384256
0.669376 0.618113 0.384256
0.274887 0.614275 0.384256
0.130729 0.588235 0.369441
0.097412 0.607615 0.35885
0.293949 0.606251 0.35885
0.390262 0.604738 0.384256
0.685302 0.588235 0.379491
0.346153 0.639046 0.373124
-0.407351 0.607925 0.384256
-0.161632 0.610788 0.35885
0.511949 0.611463 0.384256
-0.589057 0.639046 0.377052
0.073468 0.60123 0.384256
0.246986 0.619514 0.384256
0.155858 0.618376 0.384256
-0.201194 0.639046 0.3627
-0.54311 0.63837 0.35885
-0.11266 0.635561 0.35885
0.638875 0.596798 0.384256
0.173871 0.588235 0.378674
0.423701 0.588685 0.35885
0.468687 0.638633 0.384256
-0.602247 0.614258 0.35885
0.041895 0.618839 0.35885
-0.116386 0.618929 0.384256
-0.081946 0.630687 0.384256
-0.404836 0.612875 0.35885
-0.128202 0.595289 0.384256
0.007851 0.598329 0.384256
-0.205418 0.599227 0.384256
0.551109 0.634614 0.35885
-0.429956 0.61981 0.384256
0.588148 0.604836 0.384256
-0.239955 0.592385 0.35885
0.234353 0.597949 0.384256
-0.482402 0.596755 0.35885
0.368051 0.588235 0.383569
0.424972 0.639046 0.382227
-0.531395 0.638684 0.384256
-0.014337 0.607486 0.384256
-0.284596 0.638371 0.384256
-0.377205 0.595029 0.35885
-0.257109 0.639046 0.381566
0.519067 0.626873 0.35885
0.000569 0.639046 0.382538
-0.569391 0.637837 0.35885
0.595071 0.614489 0.35885
0.236102 0.639046 0.379664
0.152817 0.594953 0.384256
-0.144968 0.639046 0.38321
0.19144 0.588235 0.361023
-0.587687 0.607807 0.384256
0.033951 0.588911 0.384256
0.268688 0.637384 0.384256
-0.253516 0.588235 0.377105
0.597205 0.63285 0.384256
0.083491 0.63692 0.384256
-0.50927 0.615501 0.384256
0.181484 0.633731 0.35885
0.67009 0.639046 0.376631
-0.087787 0.60132 0.384256
-0.026488 0.639046 0.383993
-0.392066 0.638513 0.35885
0.378423 0.632781 0.35885
0.234447 0.593292 0.35885
0.546769 0.61796 0.384256
0.135327 0.614531 0.384256
-0.346783 0.627426 0.35885
0.348128 0.588235 0.373559
-0.013579 0.588235 0.361637
-0.056565 0.639044 0.384256
-0.06329 0.592147 0.35885
0.68772 0.599309 0.35885
-0.21692 0.639046 0.377224
0.063965 0.62098 0.35885
0.464896 0.602652 0.35885
-0.345056 0.614313 0.384256
-0.521603 0.617237 0.35885
-0.170071 0.588235 0.367583
0.437468 0.602934 0.35885
0.155178 0.639046 0.383485
0.255457 0.621788 0.35885
-0.189667 0.613665 0.384256
-0.091305 0.616585 0.35885
0.671643 0.606549 0.308322
0.707045 0.596704 0.352723
0.71135 0.601917 0.268615
0.707295 0.613641 0.297218
0.672321 0.596704 0.343718
0.640914 0.607319 0.339051
0.623895 0.603123 0.35885
0.722736 0.603185 0.320535
0.686597 0.596704 0.323156
0.693367 0.613641 0.344819
0.692176 0.596704 0.292769
0.651611 0.611064 0.35885
0.722736 0.603341 0.340294
-0.623417 0.605127 0.291432
-0.585171 0.596704 0.345762
-0.644139 0.604263 0.35885
-0.65762 0.597705 0.273043
-0.595253 0.604132 0.319596
-0.641426 0.613641 0.32232
-0.624347 0.613641 0.342128
-0.593916 0.613641 0.339939
-0.575835 0.613641 0.349137
-0.56874 0.596704 0.356141
-0.622311 0.613641 -0.357046
-0.570086 0.606101 -0.389222
-0.59359 0.608112 -0.365718
-0.63874 0.613641 -0.397078
-0.653367 0.613641 -0.308514
-0.65502 0.613641 -0.356951
-0.629319 0.596704 -0.341276
-0.611099 0.613641 -0.380771
-0.631164 0.596704 -0.369416
-0.638784 0.607506 -0.320524
0.667488 0.613641 -0.359681
0.712496 0.613641 -0.37762
0.635788 0.607343 -0.388636
0.693253 0.596704 -0.369804
0.70936 0.608546 -0.403309
0.697415 0.596704 -0.339155
0.663777 0.613641 -0.384375
0.706808 0.613641 -0.333214
0.65769 0.596704 -0.392616
0.6599 0.596704 -0.366554
0.680887 0.613641 -0.37394
-0.105225 -0.372947 0.35885
0.361904 -0.377167 0.383331
0.624902 -0.377167 0.359981
-0.593694 -0.377167 0.36522
0.181104 -0.377167 0.383574
0.28337 -0.377167 0.382049
0.065062 -0.377167 0.363878
0.444668 -0.375578 0.384256
-0.531876 -0.377167 0.370453
-0.394078 -0.375646 0.35885
0.545842 -0.377167 0.380565
0.130061 -0.351698 0.35885
0.021139 -0.344474 0.384256
-0.180082 -0.373953 0.384256
-0.146329 -0.32675 0.35885
0.23225 -0.358166 0.384256
0.60685 -0.326356 0.359915
0.334728 -0.330741 0.384256
0.684944 -0.369302 0.35885
-0.485114 -0.326356 0.365396
-0.301419 -0.363345 0.35885
-0.225123 -0.377167 0.367089
-0.004208 -0.372891 0.35885
-0.101632 -0.326356 0.370989
-0.053185 -0.377167 0.361255
0.319023 -0.36896 0.35885
-0.434802 -0.377167 0.363974
-0.264722 -0.377167 0.376273
0.4341 -0.326356 0.364846
-0.360005 -0.375601 0.384256
-0.402819 -0.33744 0.35885
0.576275 -0.354282 0.35885
0.465709 -0.33775 0.384256
-0.180341 -0.326356 0.371257
0.093331 -0.35269 0.35885
-0.08015 -0.367914 0.384256
0.26019 -0.335652 0.384256
0.11995 -0.326356 0.381816
-0.509066 -0.352964 0.35885
-0.001888 -0.336624 0.35885
0.421468 -0.373537 0.35885
-0.150218 -0.361691 0.35885
-0.334571 -0.364951 0.35885
0.660328 -0.377167 0.381986
0.160865 -0.344488 0.384256
0.354476 -0.356347 0.35885
0.230099 -0.32884 0.35885
0.456924 -0.353229 0.35885
0.185394 -0.349369 0.35885
0.575029 -0.326356 0.370812
-0.179135 -0.354854 0.35885
0.632774 -0.326356 0.374432
-0.47995 -0.356223 0.35885
0.155044 -0.377167 0.371657
0.525149 -0.326986 0.35885
0.045997 -0.33048 0.384256
-0.113364 -0.364601 0.384256
0.115747 -0.377167 0.374992
-0.197179 -0.375383 0.35885
0.255904 -0.376844 0.384256
0.6105 -0.377167 0.38303
0.019547 -0.377167 0.3704
-0.246253 -0.344102 0.384256
0.243781 -0.351549 0.35885
0.197142 -0.377167 0.362877
-0.207608 -0.355577 0.384256
0.066571 -0.350048 0.35885
-0.276844 -0.352619 0.35885
0.64681 -0.356762 0.35885
0.159556 -0.347728 0.35885
0.419431 -0.339251 0.384256
0.526597 -0.377167 0.364421
0.499276 -0.374631 0.35885
-0.2263 -0.326356 0.361784
0.286743 -0.368409 0.35885
-0.276413 -0.326356 0.372629
0.316945 -0.348513 0.384256
-0.345023 -0.327896 0.35885
-0.132312 -0.377167 0.364538
0.288791 -0.344851 0.384256
-0.370367 -0.377167 0.360521
0.494793 -0.328348 0.35885
0.081856 -0.377167 0.381898
-0.384313 -0.354229 0.35885
0.575296 -0.377167 0.36212
0.100505 -0.338083 0.384256
-0.580388 -0.358074 0.35885
-0.329873 -0.377167 0.377089
-0.074796 -0.371604 0.35885
0.471291 -0.377167 0.376941
0.66564 -0.337996 0.35885
0.055418 -0.377167 0.383634
-0.327777 -0.344171 0.35885
0.461241 -0.326356 0.366428
-0.25084 -0.350926 0.35885
0.338554 -0.374641 0.384256
-0.070227 -0.326356 0.365923
0.065672 -0.326356 0.377205
-0.280463 -0.373495 0.35885
-0.033128 -0.326356 0.372637
0.145089 -0.363412 0.384256
0.519756 -0.347554 0.35885
0.184207 -0.326356 0.382453
0.215712 -0.368878 0.35885
0.003895 -0.326356 0.376573
0.339763 -0.326953 0.35885
-0.098098 -0.348665 0.35885
0.162715 -0.326356 0.375057
0.545121 -0.354355 0.384256
0.437641 -0.356467 0.384256
0.651608 -0.326356 0.367408
-0.199381 -0.326356 0.364853
0.362666 -0.377167 0.363275
0.281622 -0.326356 0.381711
-0.473184 -0.375004 0.35885
-0.13087 -0.356816 0.35885
0.107376 -0.366861 0.35885
-0.512005 -0.377167 0.371108
-0.614991 -0.364639 0.35885
0.124618 -0.345407 0.384256
0.270131 -0.377167 0.364544
0.588049 -0.334808 0.35885
-0.58072 0.639046 -0.426348
0.088278 0.63371 -0.428715
-0.411112 0.639046 -0.420365
0.24254 0.609998 -0.403309
-0.120818 0.639046 -0.414859
-0.345996 0.553166 -0.428715
-0.011944 0.624597 -0.428715
0.481531 0.639046 -0.409648
0.328155 0.639046 -0.403346
-0.318689 0.633085 -0.403309
0.023093 0.544405 -0.428715
0.646476 0.630692 -0.428715
-0.143725 0.561386 -0.428715
-0.210452 0.639046 -0.419525
-0.504171 0.635863 -0.403309
0.172651 0.63506 -0.428715
0.106527 0.563887 -0.428715
0.329439 0.57361 -0.428715
0.45621 0.561894 -0.428715
-0.552064 0.576454 -0.428715
0.237604 0.537425 -0.415583
0.614231 0.574801 -0.428715
-0.614786 0.588456 -0.428715
0.181784 0.577782 -0.428715
-0.263719 0.620896 -0.428715
0.394928 0.639046 -0.428289
0.536574 0.624909 -0.428715
0.592186 0.637476 -0.428715
0.139512 0.60066 -0.403309
0.550447 0.558229 -0.428715
-0.629054 0.637982 -0.403309
0.686362 0.595629 -0.428715
-0.299412 0.582348 -0.428715
-0.0672 0.559828 -0.428715
0.059793 0.576982 -0.428715
-0.488869 0.583566 -0.428715
0.288457 0.634159 -0.428715
-0.056737 0.639046 -0.427814
-0.161896 0.621202 -0.428715
-0.110663 0.593773 -0.428715
-0.353301 0.61629 -0.428715
0.440561 0.605056 -0.428715
0.278902 0.55232 -0.428715
0.033811 0.623408 -0.428715
0.68511 0.638023 -0.403309
0.36811 0.604095 -0.428715
0.509294 0.538417 -0.428715
-0.462037 0.639046 -0.414391
-0.389733 0.550821 -0.428715
0.365745 0.55012 -0.428715
-0.454795 0.537425 -0.424022
-0.527184 0.611919 -0.428715
0.125742 0.639046 -0.411564
-0.535473 0.537425 -0.412824
0.205278 0.637321 -0.403309
0.507418 0.595691 -0.428715
-0.397724 0.594719 -0.428715
-0.547119 0.635624 -0.403309
0.403631 0.537425 -0.421846
0.652154 0.57716 -0.428715
0.223532 0.578033 -0.428715
-0.235713 0.616085 -0.403309
-0.433691 0.61031 -0.428715
-0.450368 0.574222 -0.428715
0.150355 0.558267 -0.428715
0.421987 0.623838 -0.403309
0.264434 0.586544 -0.428715
0.568183 0.60768 -0.428715
0.343819 0.537425 -0.403387
-0.044407 0.605547 -0.428715
-0.205391 0.589503 -0.428715
0.709607 0.537425 -0.403453
-0.582281 0.542482 -0.428715
-0.573218 0.604631 -0.428715
0.560023 0.639046 -0.406607
0.333252 0.608607 -0.428715
0.072068 0.601662 -0.403309
0.010292 0.632347 -0.403309
0.59905 0.54368 -0.428715
0.179444 0.539687 -0.428715
0.602771 0.605033 -0.403309
-0.08067 0.635919 -0.403309
-0.498385 0.547123 -0.428715
-0.028028 0.537425 -0.420257
0.374598 0.627706 -0.403309
0.224595 0.624051 -0.428715
-0.650758 0.627348 -0.428715
0.515233 0.630663 -0.403309
-0.119036 0.537425 -0.4265
0.489525 0.566265 -0.428715
0.297555 0.586897 -0.428715
-0.468458 0.609923 -0.428715
-0.374681 0.639046 -0.418405
0.061856 0.544438 -0.428715
-0.341471 0.586036 -0.428715
-0.233843 0.548419 -0.428715
0.393301 0.572685 -0.428715
-0.003205 0.593809 -0.428715
0.650661 0.545221 -0.428715
-0.187903 0.563081 -0.428715
-0.025392 0.637527 -0.403309
0.210169 0.549612 -0.428715
-0.242444 0.598203 -0.428715
0.090964 0.537425 -0.420292
0.694003 0.550191 -0.428715
-0.125351 0.610674 -0.403309
0.439327 0.639046 -0.423637
0.470577 0.600668 -0.428715
0.131349 0.586641 -0.428715
0.193752 0.609528 -0.403309
0.695838 0.626205 -0.428715
-0.604371 0.62089 -0.428715
-0.43212 0.62684 -0.403309
-0.270453 0.573628 -0.428715
0.122296 0.538968 -0.428715
0.034595 0.594019 -0.428715
0.102844 0.608208 -0.428715
-0.490212 0.631385 -0.428715
0.499465 0.623861 -0.428715
-0.072107 0.597012 -0.428715
-0.420126 0.57657 -0.428715
0.401368 0.602447 -0.428715
0.306994 0.546129 -0.428715
-0.292423 0.621721 -0.403309
-0.591441 0.620846 -0.403309
0.281472 0.619416 -0.403309
-0.294805 0.542013 -0.428715
0.440672 0.538643 -0.428715
-0.041912 0.571373 -0.428715
-0.345659 0.624504 -0.403309
-0.387551 0.616156 -0.403309
0.577478 0.563169 -0.428715
-0.159274 0.599556 -0.403309
-0.522708 0.638903 -0.428715
0.613272 0.602067 -0.428715
0.60105 0.634288 -0.403309
0.00436 0.563583 -0.428715
-0.546695 0.608875 -0.403309
-0.638631 0.603526 -0.428715
0.620529 0.637085 -0.428715
0.632485 0.629131 -0.403309
0.527009 0.578007 -0.428715
-0.589645 0.581692 -0.428715
0.198782 0.537425 -0.408713
-0.13005 0.611361 -0.428715
-0.557025 0.537425 -0.427642
0.153709 0.622155 -0.403309
-0.204327 0.615133 -0.428715
-0.048495 0.626671 -0.403309
0.034795 0.625258 -0.403309
0.316253 0.639046 -0.425865
0.282981 0.609533 -0.428715
-0.142209 0.636922 -0.428715
-0.378414 0.614581 -0.428715
0.254892 0.631835 -0.403309
0.158221 0.537425 -0.415708
-0.19558 0.62748 -0.403309
-0.300441 0.598213 -0.403309
-0.270108 0.639046 -0.413155
-0.472036 0.554316 -0.428715
-0.075093 0.537425 -0.422823
0.586957 0.592 -0.428715
0.654585 0.639046 -0.405829
-0.546993 0.637671 -0.428715
0.052368 0.639046 -0.428529
0.546033 0.597894 -0.428715
0.397141 0.636485 -0.403309
0.356119 0.639046 -0.413891
0.150452 0.639046 -0.420309
-0.329388 0.614904 -0.428715
0.081615 0.567433 -0.428715
0.467459 0.637848 -0.428715
0.373161 0.599209 -0.403309
-0.404123 0.537425 -0.415492
-0.138707 0.584403 -0.428715
-0.268381 0.617759 -0.403309
0.422816 0.620324 -0.428715
-0.232002 0.639046 -0.428333
0.473175 0.546009 -0.428715
-0.238809 0.5711 -0.428715
0.433062 0.561765 -0.428715
0.094037 0.608887 -0.403309
0.415695 0.577696 -0.428715
-0.093225 0.579184 -0.428715
-0.24992 0.598409 -0.403309
0.63878 0.595469 -0.428715
0.714884 0.634724 -0.403309
-0.572112 0.632215 -0.403309
-0.536795 0.560056 -0.428715
0.104687 0.639046 -0.404044
-0.033377 0.630867 -0.428715
-0.324326 0.548548 -0.428715
-0.612346 0.639046 -0.417753
0.544894 0.537425 -0.425283
-0.015694 0.555071 -0.428715
-0.264093 0.596991 -0.428715
-0.398557 0.622598 -0.428715
-0.284894 0.625372 -0.428715
-0.315854 0.568651 -0.428715
0.119063 0.62813 -0.428715
-0.163649 0.554186 -0.428715
-0.619175 0.567755 -0.428715
0.670758 0.616585 -0.403309
-0.629023 0.621488 -0.428715
0.381715 0.537492 -0.428715
0.418608 0.639046 -0.421928
0.276772 0.639046 -0.404858
0.055571 0.537425 -0.410881
-0.107519 0.620052 -0.403309
0.308177 0.639046 -0.404565
-0.503651 0.537425 -0.412123
0.004882 0.537425 -0.41378
-0.29038 0.600076 -0.428715
0.257248 0.537425 -0.418403
0.420726 0.537425 -0.412448
0.528906 0.639046 -0.414408
0.662635 0.560593 -0.428715
-0.504942 0.614731 -0.403309
-0.076136 0.639046 -0.428159
-0.554643 -0.247367 -0.403309
-0.539984 -0.316594 -0.403309
-0.538779 -0.208713 -0.403309
-0.593345 -0.244159 -0.403309
-0.523693 -0.252462 -0.403309
-0.563868 -0.223523 -0.403309
-0.514511 -0.19549 -0.403309
-0.631243 -0.271976 -0.403309
-0.515647 -0.310315 -0.403309
-0.654303 -0.277542 -0.403309
-0.623279 -0.318469 -0.403309
-0.606566 -0.258753 -0.403309
0.743907 0.628891 0.37944
0.743907 0.280208 0.365848
0.743739 -0.169894 0.384256
0.743907 0.448539 0.37155
0.713092 -0.257577 0.384256
0.693097 0.078785 0.359404
0.700318 -0.122493 0.384256
0.743907 0.114147 0.364198
0.697652 -0.201077 0.35885
0.743907 -0.027069 0.374099
0.743907 0.058807 0.375705
0.738649 -0.306855 0.35885
0.743907 0.506142 0.363355
0.743907 0.39322 0.364321
0.694521 0.020756 0.35885
0.743907 -0.097526 0.368245
0.693097 0.142819 0.363714
0.693097 0.559484 0.380981
0.693097 -0.079892 0.367139
0.693097 0.424497 0.363462
0.693097 0.63877 0.369024
0.742531 0.162113 0.35885
0.69514 0.317891 0.35885
0.697899 -0.290822 0.35885
0.743907 0.585928 0.374683
0.743907 0.237138 0.36851
0.736564 -0.349039 0.35885
0.705806 -0.031638 0.35885
0.702165 0.510783 0.35885
0.743907 0.546123 0.364351
0.693097 0.358052 0.374131
0.693097 -0.161674 0.360022
0.699006 0.231584 0.35885
0.743907 -0.251541 0.363912
0.743907 0.342323 0.372416
0.700117 -0.343935 0.384256
0.701355 -0.236179 0.35885
0.717442 0.480101 0.35885
0.743907 -0.060755 0.359753
0.739022 -0.204061 0.384256
0.711932 0.168356 0.384256
0.716569 0.0486 0.35885
0.704486 0.110981 0.384256
0.730167 0.315716 0.35885
0.743907 -0.133099 0.376964
0.738052 0.142765 0.384256
0.713518 0.596181 0.384256
0.696443 0.264078 0.35885
0.743907 0.208433 0.382672
0.713021 0.390911 0.35885
0.693097 0.448745 0.383175
0.693097 -0.322334 0.362941
0.73186 -0.370465 0.384256
0.705449 0.033754 0.384256
0.724679 0.016193 0.35885
0.70678 0.214947 0.384256
0.720087 0.464692 0.384256
0.710365 -0.052678 0.384256
0.73131 -0.278092 0.35885
0.729944 0.520707 0.384256
0.717436 0.261127 0.384256
0.739781 0.174537 0.384256
0.743907 0.03105 0.372746
0.703523 -0.300132 0.384256
0.696166 0.16939 0.35885
0.737268 0.364634 0.35885
0.696351 0.110405 0.35885
0.737886 -0.235669 0.384256
0.709176 0.139184 0.384256
0.695882 -0.26193 0.35885
0.721816 -0.162405 0.35885
0.70899 0.428436 0.384256
0.700338 0.549928 0.35885
0.717676 0.571388 0.384256
0.701421 -0.377167 0.376086
0.739402 -0.058945 0.384256
0.705558 -0.056348 0.35885
0.743907 -0.18438 0.362719
0.721169 -0.030872 0.384256
0.699456 -0.138426 0.35885
0.721085 0.456248 0.35885
0.723311 -0.146884 0.384256
0.696131 0.086772 0.384256
0.693097 0.047193 0.36226
0.734941 0.259363 0.35885
0.719294 0.161953 0.35885
0.738084 -0.229843 0.35885
0.743907 -0.337226 0.377027
0.693097 0.23685 0.380311
0.712801 0.548497 0.384256
0.693097 -0.197335 0.384184
0.713467 0.433264 0.35885
0.715652 0.639046 0.368184
0.73579 0.558129 0.384256
0.740985 0.567668 0.35885
0.743907 -0.303553 0.380266
0.712708 -0.182622 0.35885
0.743907 0.255839 0.38019
0.732225 0.279481 0.384256
0.743907 0.426591 0.382686
0.701435 0.003921 0.384256
0.693097 -0.351118 0.365866
0.740101 -0.327843 0.35885
0.740763 -0.009095 0.384256
0.713725 0.578377 0.35885
0.693097 -0.100291 0.36703
0.743907 0.138335 0.365281
0.743907 0.075908 0.364722
0.710224 0.249215 0.35885
0.693097 0.174735 0.381605
0.719639 -0.205796 0.35885
0.743907 0.506536 0.383067
0.73596 0.296508 0.35885
0.693097 0.271169 0.376598
0.735439 -0.509917 0.002176
0.735439 -0.520357 0.249319
0.735439 -0.5249 -0.21932
0.735439 -0.402939 -0.131104
0.722736 -0.444506 0.13299
0.735439 -0.398907 -0.017525
0.722736 -0.484667 -0.331457
0.735439 -0.415226 -0.423495
0.722736 -0.504106 -0.113153
0.722736 -0.43455 -0.227885
0.728376 -0.529599 0.103815
0.722736 -0.449562 0.052351
0.735439 -0.399582 0.197579
0.722736 -0.506763 0.168999
0.722736 -0.45181 -0.058903
0.735439 -0.471062 -0.16774
0.722736 -0.41655 -0.360458
0.735439 -0.480088 -0.267282
0.730346 -0.377167 -0.075538
0.735439 -0.458131 0.215733
0.722736 -0.477122 -0.396491
0.722736 -0.514286 -0.054816
0.731951 -0.529599 -0.370901
0.735439 -0.395625 -0.188667
0.725238 -0.529599 -0.297822
0.722736 -0.429676 -0.301876
0.722736 -0.458016 -0.004196
0.722736 -0.527365 -0.167566
0.722736 -0.507891 0.053357
0.722736 -0.389791 0.148522
0.735439 -0.475784 0.092409
0.735439 -0.444544 -0.107279
0.735439 -0.406534 0.105543
0.722736 -0.499768 0.213722
0.735439 -0.385188 -0.229757
0.722736 -0.410318 0.236544
0.730744 -0.377167 -0.348207
0.735439 -0.430745 -0.160785
0.722736 -0.49272 0.127002
0.722736 -0.416038 -0.263382
0.735439 -0.423107 0.166696
0.735439 -0.486889 -0.225035
0.735439 -0.451506 -0.352369
0.722736 -0.416044 0.013538
0.735439 -0.41256 -0.084047
0.735439 -0.478351 0.03336
0.722736 -0.469316 -0.131129
0.722736 -0.451849 0.248857
0.735439 -0.466498 0.180895
0.723878 -0.377167 -0.26194
0.735439 -0.415556 -0.0492
0.735439 -0.436642 0.088982
0.735439 -0.528045 0.145224
0.723653 -0.377167 0.220837
0.722736 -0.406146 -0.392997
0.722736 -0.486789 -0.084404
0.735439 -0.405069 0.064294
0.732751 -0.4787 -0.428715
0.735439 -0.496527 -0.145284
0.735439 -0.511121 -0.255518
0.722736 -0.49882 -0.184399
0.734618 -0.529599 0.216498
0.722736 -0.490366 -0.367528
0.735439 -0.498539 0.272454
0.735439 -0.505202 -0.402856
0.722736 -0.516012 -0.329936
0.735439 -0.525532 -0.081173
0.726478 -0.529599 0.031314
0.722736 -0.501382 -0.026743
0.735439 -0.451291 -0.385311
0.735439 -0.401428 -0.329879
0.735439 -0.468042 0.148188
0.722736 -0.46952 -0.034256
0.722736 -0.464009 -0.245049
0.735439 -0.383118 0.042662
0.735439 -0.495614 -0.292495
0.722736 -0.459926 -0.212925
0.735439 -0.452137 -0.287974
0.735439 -0.418752 0.132362
0.735439 -0.417761 0.260853
0.735439 -0.514013 0.078022
0.722736 -0.408637 -0.21628
0.735439 -0.392649 -0.372341
0.735439 -0.522144 -0.134754
0.735439 -0.48787 0.067687
0.731941 -0.528204 0.2784
0.723398 -0.529599 -0.401169
0.722736 -0.417209 -0.17967
0.722736 -0.445897 -0.322664
0.735439 -0.394785 -0.106046
0.722736 -0.454792 0.102967
0.735439 -0.511128 -0.352963
0.735439 -0.392535 -0.154828
0.722736 -0.447203 -0.144494
0.735439 -0.501396 0.190738
0.722736 -0.483591 -0.006462
0.734894 -0.377167 -0.321761
0.722736 -0.425714 -0.029746
0.735439 -0.471391 0.12235
0.722736 -0.464596 -0.096353
0.724179 -0.529599 -0.007932
0.735439 -0.440222 0.007314
0.735439 -0.399071 -0.275865
0.735439 -0.429344 0.06094
0.722736 -0.452884 0.165312
0.735439 -0.528025 0.0581
0.735439 -0.528768 0.169392
0.722736 -0.496287 0.092573
0.722736 -0.467419 0.068961
0.735439 -0.449191 -0.038593
0.735439 -0.410244 -0.243745
0.735439 -0.454457 0.030807
0.735439 -0.391819 0.005433
0.735439 -0.477611 -0.312746
0.735439 -0.470698 -0.064905
0.722736 -0.412113 0.212933
0.735439 -0.395469 0.167502
0.722736 -0.393324 0.08002
0.735439 -0.438625 0.113707
0.722736 -0.528432 -0.200463
0.735439 -0.490937 -0.202533
0.722736 -0.471863 0.228762
0.722736 -0.438531 -0.266663
0.735439 -0.49755 -0.063467
0.735439 -0.52056 0.123821
0.722736 -0.481848 0.263065
0.735439 -0.513888 -0.310436
0.7335 -0.431713 0.2784
0.722736 -0.442385 -0.088876
0.722736 -0.497762 0.033344
0.735439 -0.422824 -0.336482
0.722736 -0.380029 -0.023769
0.722736 -0.434664 0.035782
0.722736 -0.455283 -0.407998
0.735439 -0.416495 0.042979
0.722736 -0.432488 0.238361
0.722736 -0.403113 0.123673
0.735439 -0.390295 -0.40105
0.735439 -0.506831 0.106995
0.735439 -0.434234 -0.372203
0.722736 -0.512019 0.231269
0.722736 -0.41109 0.150288
0.722736 -0.485626 0.166578
0.735439 -0.487987 -0.101149
0.735439 -0.451183 -0.128232
0.735439 -0.45028 -0.170026
0.722736 -0.414402 -0.119781
0.735439 -0.379247 -0.119374
0.735439 -0.432539 -0.183906
0.722736 -0.455493 -0.304884
0.722736 -0.404898 -0.31471
0.722736 -0.483256 -0.116693
0.735439 -0.44434 -0.418997
0.735439 -0.398619 0.246591
0.735439 -0.424013 -0.215706
0.735439 -0.446562 0.199611
0.735439 -0.423326 -0.276771
0.722736 -0.387576 -0.090569
0.735439 -0.492177 -0.17074
0.722736 -0.509061 -0.373733
0.735439 -0.508516 0.142714
0.735439 -0.498859 -0.272845
0.735439 -0.474219 0.005039
0.722736 -0.381839 0.249969
0.722736 -0.452975 -0.370652
0.735439 -0.458405 -0.231434
0.722736 -0.529264 -0.42865
-0.128312 -0.529599 -0.424572
0.255347 -0.525673 -0.428715
-0.3977 -0.481894 -0.403309
0.492091 -0.395573 -0.428715
0.058105 -0.388665 -0.403309
-0.299405 -0.33059 -0.420504
-0.495734 -0.33059 -0.415019
0.567086 -0.529599 -0.4223
0.401712 -0.520315 -0.403309
0.278006 -0.379341 -0.428715
0.083167 -0.529599 -0.417941
0.63251 -0.397017 -0.403309
-0.099248 -0.391282 -0.428715
-0.267314 -0.529599 -0.410054
-0.525834 -0.525123 -0.403309
-0.618033 -0.391879 -0.428715
-0.216436 -0.414617 -0.428715
0.166307 -0.459083 -0.428715
-0.008147 -0.469072 -0.428715
0.395081 -0.35412 -0.428715
-0.483124 -0.432997 -0.428715
0.3496 -0.438147 -0.403309
-0.313047 -0.448021 -0.428715
-0.181022 -0.331069 -0.403309
-0.380155 -0.388372 -0.428715
0.644296 -0.48403 -0.403309
0.481559 -0.487532 -0.403309
-0.591595 -0.47772 -0.428715
0.564787 -0.429518 -0.428715
0.245821 -0.451221 -0.403309
-0.020031 -0.383491 -0.403309
-0.054693 -0.528696 -0.403309
0.114832 -0.344325 -0.428715
-0.34272 -0.529599 -0.420736
-0.203698 -0.487655 -0.428715
0.219801 -0.334364 -0.428715
0.422533 -0.443641 -0.403309
0.063555 -0.456933 -0.428715
0.323038 -0.521587 -0.403309
0.179184 -0.529599 -0.418469
-0.423316 -0.33059 -0.428588
-0.448476 -0.52557 -0.428715
0.696452 -0.350456 -0.428715
-0.554288 -0.365138 -0.428715
-0.121543 -0.455831 -0.428715
-0.276653 -0.391664 -0.403309
0.199985 -0.404746 -0.403309
-0.545187 -0.440448 -0.403309
0.114157 -0.415657 -0.403309
0.300909 -0.469986 -0.428715
0.002722 -0.529599 -0.428315
-0.611969 -0.529578 -0.403309
-0.445017 -0.393662 -0.403309
-0.063175 -0.468956 -0.403309
-0.164934 -0.38767 -0.403309
-0.248602 -0.455857 -0.403309
-0.65762 -0.439441 -0.428671
-0.242496 -0.354135 -0.428715
0.530781 -0.479761 -0.428715
-0.013755 -0.334815 -0.428715
0.602181 -0.351333 -0.428715
0.154659 -0.38916 -0.428715
0.01698 -0.413927 -0.428715
0.661761 -0.528634 -0.428715
0.128017 -0.503242 -0.403309
0.51319 -0.529599 -0.417469
-0.332511 -0.387643 -0.403309
-0.0465 -0.422587 -0.428715
-0.358996 -0.445032 -0.403309
0.041946 -0.500737 -0.403309
0.506683 -0.345428 -0.428715
-0.439721 -0.461968 -0.428715
0.582014 -0.471198 -0.403309
0.68873 -0.4079 -0.403309
0.439564 -0.395228 -0.403309
0.214061 -0.493406 -0.428715
-0.615056 -0.340881 -0.428715
-0.150964 -0.489424 -0.403309
-0.396989 -0.529599 -0.420193
0.665913 -0.445004 -0.428715
0.373728 -0.487218 -0.428715
0.513966 -0.432568 -0.403309
-0.064409 -0.33059 -0.424392
0.439592 -0.48254 -0.428715
-0.600075 -0.436803 -0.403309
-0.138855 -0.33206 -0.428715
0.322606 -0.397916 -0.403309
-0.526112 -0.48468 -0.428715
-0.158029 -0.43858 -0.403309
0.61552 -0.521815 -0.403309
-0.638985 -0.489026 -0.403309
-0.21568 -0.524695 -0.403309
0.173711 -0.340084 -0.428715
0.401135 -0.411497 -0.428715
0.069431 -0.335749 -0.428715
-0.524083 -0.388867 -0.403309
0.104543 -0.46382 -0.403309
0.290559 -0.425771 -0.428715
0.020689 -0.369223 -0.428715
-0.089304 -0.432601 -0.403309
0.445212 -0.529599 -0.407631
-0.563043 -0.529599 -0.427633
-0.398546 -0.420091 -0.403309
-0.463499 -0.362188 -0.428715
-0.410052 -0.364637 -0.403309
-0.486983 -0.469218 -0.403309
0.533666 -0.390811 -0.403309
-0.34332 -0.486172 -0.403309
0.365415 -0.385713 -0.428715
0.4798 -0.440599 -0.428715
-0.568048 -0.413907 -0.428715
-0.171514 -0.529599 -0.423745
0.259255 -0.407753 -0.403309
0.618507 -0.427577 -0.428715
0.359307 -0.529599 -0.423162
0.711868 -0.45278 -0.428715
-0.294048 -0.498259 -0.403309
-0.052545 -0.377426 -0.428715
0.690694 -0.512931 -0.403309
0.261982 -0.484147 -0.428715
0.56958 -0.37661 -0.428715
-0.084818 -0.359489 -0.403309
-0.277799 -0.427656 -0.428715
-0.204401 -0.379428 -0.403309
0.20556 -0.452716 -0.428715
-0.44977 -0.490438 -0.403309
0.222011 -0.529599 -0.408179
-0.126095 -0.404555 -0.403309
0.430381 -0.336521 -0.428715
0.284404 -0.527531 -0.403309
0.590926 -0.416703 -0.403309
0.4552 -0.367101 -0.428715
0.60837 -0.483172 -0.428715
0.22874 -0.408055 -0.428715
0.168262 -0.430215 -0.403309
0.040555 -0.439463 -0.403309
-0.338067 -0.332848 -0.428715
0.095127 -0.394079 -0.428715
-0.58699 -0.393407 -0.403309
-0.10442 -0.509707 -0.403309
0.545346 -0.453231 -0.403309
-0.304169 -0.394424 -0.428715
0.047473 -0.528229 -0.428715
0.336799 -0.486073 -0.428715
-0.163816 -0.46474 -0.428715
-0.491501 -0.529599 -0.416001
-0.002173 -0.443086 -0.403309
0.246202 -0.335219 -0.403309
0.138229 -0.366233 -0.403309
-0.253817 -0.491992 -0.403309
0.406547 -0.377235 -0.403309
-0.513882 -0.365208 -0.428715
0.390545 -0.446095 -0.428715
0.169483 -0.484548 -0.403309
0.681242 -0.383452 -0.428715
0.633269 -0.449933 -0.403309
0.398601 -0.470296 -0.403309
0.446772 -0.42772 -0.428715
-0.376982 -0.353102 -0.428715
-0.349893 -0.422161 -0.428715
-0.427687 -0.440519 -0.403309
-0.581321 -0.33059 -0.426544
-0.374595 -0.490147 -0.428715
-0.525123 -0.426561 -0.428715
0.315532 -0.446319 -0.403309
0.207623 -0.370621 -0.403309
0.142122 -0.433993 -0.428715
-0.287908 -0.475273 -0.428715
-0.63133 -0.452018 -0.403309
-0.146431 -0.365709 -0.428715
-0.209539 -0.33059 -0.422704
0.55364 -0.33059 -0.426129
-0.077942 -0.528324 -0.428715
0.355476 -0.331286 -0.428715
0.682661 -0.460604 -0.403309
0.145056 -0.529599 -0.42057
-0.069918 -0.404543 -0.403309
-0.158247 -0.409306 -0.428715
-0.472009 -0.48685 -0.428715
-0.302248 -0.529599 -0.41345
-0.238123 -0.420629 -0.403309
-0.116557 -0.490763 -0.428715
-0.59752 -0.512461 -0.428715
0.355502 -0.473789 -0.403309
0.101705 -0.441749 -0.428715
0.40851 -0.49525 -0.428715
0.54555 -0.495798 -0.403309
0.339052 -0.419141 -0.428715
-0.619617 -0.427356 -0.428715
0.632919 -0.509255 -0.428715
-0.448872 -0.414762 -0.428715
0.125847 -0.465707 -0.428715
-0.183982 -0.438421 -0.428715
0.704799 -0.497087 -0.428715
-0.105474 -0.357979 -0.428715
0.471883 -0.505745 -0.428715
-0.534106 -0.357744 -0.403309
0.03678 -0.335674 -0.428715
-0.572137 -0.483968 -0.403309
0.663038 -0.410444 -0.428715
-0.50789 -0.494142 -0.403309
-0.381045 -0.431418 -0.428715
0.258476 -0.374187 -0.403309
-0.417605 -0.383235 -0.428715
-0.075164 -0.453017 -0.428715
0.500628 -0.46832 -0.428715
0.52331 -0.373899 -0.428715
-0.043365 -0.46955 -0.428715
0.339176 -0.367102 -0.428715
-0.035098 -0.526377 -0.428715
0.065508 -0.489026 -0.428715
-0.61011 -0.363815 -0.403309
-0.182974 -0.489214 -0.403309
-0.507884 -0.399586 -0.428715
-0.223796 -0.480972 -0.403309
0.465921 -0.45392 -0.403309
0.316179 -0.341606 -0.428715
0.300784 -0.489188 -0.403309
0.564172 -0.47821 -0.428715
-0.331835 -0.428557 -0.403309
-0.465292 -0.43922 -0.403309
0.199715 -0.475253 -0.403309
0.268527 -0.34921 -0.428715
0.02276 -0.463231 -0.428715
0.540929 -0.407739 -0.428715
0.263892 -0.448097 -0.428715
0.495294 -0.365241 -0.403309
0.644091 -0.383382 -0.428715
-0.205758 -0.42889 -0.403309
-0.63626 -0.529599 -0.422427
0.539901 -0.512473 -0.428715
0.362684 -0.36834 -0.403309
