0.7067 -0.526313 -0.170441
0.7067 0.2967 -0.081361
0.7067 -0.300759 0.019174
0.7067 -0.500693 -0.080658
0.7067 -0.205729 0.155302
0.7067 0.232433 -0.160657
0.726421 0.218764 0.068635
0.7067 -0.433017 -0.122
0.7067 -0.476305 -0.173068
0.726421 -0.403089 0.153897
0.726421 -0.320413 -0.185586
0.7067 0.529036 0.192597
0.7067 -0.26592 0.165335
0.7067 0.400014 0.19755
0.7067 0.059569 -0.037177
0.7067 -0.357659 0.009304
0.726421 0.1409 -0.153784
0.726421 0.253747 -0.066445
0.726421 -0.042451 -0.183782
0.7067 -0.276509 -0.021017
0.726421 0.036601 0.028062
0.726421 -0.276009 -0.126352
0.7067 -0.200783 0.016893
0.726421 0.163914 -0.077463
0.7067 -0.047065 0.081847
0.726421 -0.159159 0.085278
0.726421 0.454556 -0.094551
0.726421 0.07612 -0.086627
0.7067 0.540194 0.027426
0.7067 0.135101 0.013991
0.726421 -0.274203 -0.204522
0.7067 -0.495368 0.003535
0.7067 0.241376 0.192898
0.726421 0.014301 -0.122234
0.726421 -0.451278 0.024697
0.7067 -0.156326 -0.143642
0.7067 0.318245 -0.167813
0.726421 -0.057515 0.17119
0.7067 -0.150152 -0.190196
0.726421 -0.363284 -0.074337
0.7067 0.432997 0.045196
0.726421 0.482287 -0.137584
0.7067 0.572893 0.070055
0.726421 0.376552 -0.088532
0.726421 0.197695 0.203563
0.726421 -0.398988 -0.001063
0.7067 -0.423391 0.095556
0.7067 -0.540179 -0.008791
0.726421 -0.174278 -0.07256
0.7067 -0.144699 -0.012806
0.7067 -0.429936 -0.216253
0.726421 0.128738 -0.200924
0.726421 0.416407 -0.173936
0.726421 -0.126878 0.122393
0.7067 -0.30792 0.069203
0.726421 -0.353106 -0.131109
0.7067 -0.531571 0.144793
0.726421 0.340424 -0.00022
0.726421 0.397534 -0.050589
0.7067 0.462566 -0.004623
0.726421 -0.030997 -0.004219
0.726421 -0.089892 -0.03937
0.726421 -0.336869 0.099354
0.726421 0.31678 -0.206129
0.726421 0.152187 0.201465
0.7067 -0.02559 -0.124133
0.7067 0.325176 0.122986
0.726421 0.176605 -0.20694
0.726421 0.453657 -0.188444
0.726421 0.02826 0.103018
0.726421 0.105575 -0.135456
0.7067 -0.011391 -0.03749
0.726421 0.410034 0.012773
0.726421 -0.410689 -0.076518
0.7067 -0.328176 0.152887
0.726421 0.275702 0.020781
0.726421 0.417158 -0.116685
0.7067 0.00082 0.023195
0.7067 -0.287763 -0.167108
0.7067 0.362439 0.065171
0.7067 -0.107988 -0.121485
0.7067 -0.487971 0.134812
0.726421 -0.223981 -0.206292
0.7067 0.206864 0.154485
0.7067 0.095164 -0.008793
0.7067 -0.343286 -0.046477
0.7067 -0.398905 -0.163252
0.726421 -0.113061 0.024963
0.726421 -0.461419 -0.202234
0.726421 0.263836 0.145869
0.726421 0.568198 -0.139122
0.7067 0.469592 -0.042293
0.7067 -0.226642 0.094115
0.7067 0.047779 -0.172132
0.726421 -0.029545 0.034115
0.726421 -0.086901 0.069976
0.7067 -0.533299 -0.054392
0.7067 -0.083733 0.152332
0.7067 0.058757 0.122784
0.7067 -0.171727 0.171491
0.726421 0.556952 -0.023791
0.726421 -0.213674 -0.137303
0.7067 0.144675 -0.051657
0.7067 0.286599 -0.146997
0.726421 0.452629 0.070061
0.7067 -0.241268 -0.009345
0.726421 0.012221 -0.191273
0.7067 -0.28909 -0.083677
0.7067 0.045006 0.058257
0.7067 0.235672 0.094971
0.7067 0.188742 -0.000972
0.726421 0.322687 -0.127731
0.726421 0.490579 0.121453
0.726421 -0.014016 0.106785
0.726421 0.233021 -0.104674
0.726421 -0.453564 0.162677
0.726421 0.031499 0.181209
0.726421 0.494108 0.065567
0.726421 0.09485 0.068687
0.7067 0.179885 0.130461
0.726421 -0.198159 0.104771
0.7067 0.517666 -0.038834
0.726421 -0.465928 -0.095599
0.7067 0.105347 -0.081125
0.7067 0.316223 -0.025632
0.726421 0.33705 0.150492
0.726421 -0.016654 0.175281
0.726421 0.235398 0.034731
0.726421 0.112771 0.157335
0.726421 0.489566 -0.099869
0.726421 -0.481572 0.053579
0.7067 0.541343 0.117903
0.726421 -0.138582 0.056714
0.7067 0.145975 0.093332
0.7067 -0.121732 -0.08485
0.726421 0.356182 0.030767
0.726421 -0.224563 -0.068794
0.7067 0.241254 -0.035932
0.726421 0.443758 -0.057451
0.726421 -0.406164 -0.192454
0.7067 0.199072 -0.186103
0.7067 0.332685 0.195237
0.7067 0.038272 -4e-06
0.726421 -0.352941 -0.018316
0.7067 -0.511145 0.07386
0.7067 0.39676 -0.018288
0.726421 -0.410227 0.120153
0.726421 0.091077 0.187872
0.7067 0.161719 -0.172179
0.726421 -0.296191 0.163055
0.726421 0.389787 0.144645
0.726421 0.041536 -0.057946
0.726421 0.42725 0.194196
0.726421 0.295648 -0.054006
0.726421 -0.254604 -0.037885
0.7067 -0.535152 -0.203338
0.7067 0.422454 0.098249
0.7067 0.54567 -0.068766
0.726421 -0.236711 0.059637
0.7067 0.163406 -0.118554
0.7067 0.366718 -0.058388
0.726421 -0.178122 -0.118357
0.726421 0.376383 0.090167
0.726421 -0.417159 0.061066
0.7067 0.00444 0.125635
0.726421 0.516963 -0.197441
0.7067 -0.528965 0.105405
0.726421 0.326049 -0.068074
0.7067 -0.070295 -0.11403
0.726421 -0.265559 0.002443
0.7067 0.055146 -0.11479
0.7067 -0.221033 -0.04336
0.7067 0.246698 0.058848
0.726421 0.311844 0.101112
0.7067 0.323501 0.077405
0.726421 0.520482 -0.111152
0.726421 -0.121298 0.18916
0.726421 -0.053112 0.139322
0.726421 -0.246044 -0.114673
0.726421 0.084141 0.108539
0.726421 -0.389379 0.043103
0.7067 -0.276827 -0.053207
0.726421 0.553806 -0.186024
0.726421 -0.467336 -0.020573
0.726421 0.295212 -0.106384
0.7067 -0.245875 -0.184263
0.7067 -0.199077 -0.070606
0.7067 0.509137 -0.159163
0.726421 -0.123062 -0.0385
0.726421 -0.040896 -0.057168
0.7067 0.350053 -0.173621
0.726421 -0.033738 -0.215663
0.726421 -0.276021 0.13428
0.726421 -0.085378 -0.133624
0.7067 -0.369863 0.113697
0.7067 0.13914 -0.017213
0.7067 -0.468586 0.106638
0.726421 -0.341201 0.176463
0.726421 -0.168731 -0.206035
0.726421 -0.210333 0.184054
0.726421 -0.482983 0.193238
0.726421 -0.354239 -0.214304
0.7067 0.14839 0.167731
0.726421 0.555099 0.160258
0.7067 -0.0416 -0.092025
0.726421 0.298515 0.182792
0.726421 -0.165582 -0.023663
0.726421 0.133521 -0.082148
0.7067 0.054354 0.157731
0.7067 -0.366731 0.061361
0.7067 -0.27287 0.099826
0.7067 -0.49976 -0.192699
0.726421 0.11523 0.025358
0.7067 -0.462262 0.183953
0.726421 -0.33144 0.003761
0.726421 0.386109 0.033351
0.7067 0.46355 0.179159
0.726421 0.255019 -0.162079
0.726421 -0.094197 0.131538
0.7067 -0.098435 -0.175782
0.726421 0.2551 -0.018245
0.7067 0.031709 -0.217709
0.7067 -0.342179 -0.180145
0.726421 -0.307819 -0.098124
0.7067 0.207125 -0.144907
0.726421 -0.510694 0.1369
0.7067 0.10929 0.092909
0.726421 0.143459 0.126846
0.7067 0.024921 0.080058
0.7067 0.259671 0.124194
0.7067 -0.219721 0.124409
0.7067 -0.182966 -0.006546
0.7067 0.337003 -0.21418
0.726421 0.179027 0.071181
0.726421 0.256044 0.084463
0.726421 0.267687 -0.092148
0.7067 -0.390787 -0.068171
0.726421 0.26401 0.187695
0.726421 -0.377932 -0.176138
0.7067 -0.337652 -0.116195
0.726421 0.434864 0.121914
0.7067 0.438708 0.011892
0.726421 -0.317942 0.134339
0.7067 0.403286 -0.190553
0.7067 -0.166527 -0.092115
0.726421 -0.001248 0.145833
0.726421 -0.518395 -0.12399
0.726421 -0.04606 -0.127926
0.7067 0.411979 0.12493
0.726421 0.183143 -0.106737
0.726421 -0.378081 -0.145009
0.726421 -0.197621 0.136389
0.726421 -0.042389 0.104341
0.7067 0.497303 0.021273
0.726421 0.227006 0.158092
0.7067 -0.020757 -0.064161
0.726421 0.010018 -0.09191
0.726421 -0.051245 0.062066
0.7067 0.03147 -0.039899
0.7067 -0.305997 -0.038955
0.7067 -0.348037 0.082677
0.726421 -0.070402 -0.180621
0.7067 -0.179105 0.083822
0.7067 0.08628 -0.140634
0.726421 0.532136 0.045695
0.726421 -0.420572 -0.018955
0.7067 -0.425358 -0.187243
0.7067 -0.018098 -0.183008
0.7067 0.020941 -0.140851
0.726421 0.077479 -0.01749
0.7067 0.458024 -0.127577
0.7067 -0.211818 0.051228
0.726421 -0.404179 -0.106308
0.726421 -0.440884 -0.140293
0.726421 -0.261552 0.047408
0.726421 0.218492 -0.12917
0.7067 0.55099 -0.00533
0.7067 -0.246803 0.145395
0.7067 -0.255919 -0.090318
0.726421 -0.398255 -0.050365
0.7067 0.512007 0.058523
0.7067 -0.013763 0.04654
0.726421 -0.238076 0.180023
0.726421 0.3241 0.05829
0.726421 0.389955 -0.156945
0.7067 0.518813 -0.092242
0.726421 -0.413405 0.200442
0.726421 0.558394 0.127936
0.726421 -0.269245 -0.163206
0.726421 -0.196075 0.035221
0.7067 0.462236 0.117301
0.726421 -0.366956 0.025711
0.7067 -0.318226 0.096936
0.726421 -0.521845 -0.012874
0.7067 0.147503 -0.200413
0.726421 0.559619 -0.083339
0.7067 -0.468716 -0.060759
0.726421 -0.141536 0.005577
0.726421 -0.325149 -0.218729
0.7067 -0.081954 0.088029
0.7067 -0.005268 -0.103112
0.7067 0.574303 0.100807
0.726421 -0.433743 0.144346
0.726421 0.284386 -0.176203
0.7067 -0.276381 -0.108101
0.726421 0.046145 -0.024828
0.7067 0.483116 0.147663
0.7067 -0.44854 0.046046
0.7067 0.282043 0.144207
0.726421 -0.289801 0.03368
0.7067 -0.307226 -0.117338
0.7067 -0.186246 -0.033099
0.726421 -0.087485 0.017175
0.7067 -0.031887 -0.150076
0.726421 0.075225 -0.113283
0.7067 0.359314 0.101757
0.7067 -0.483409 0.02736
0.726421 -0.095195 0.184183
0.7067 0.18602 -0.056541
0.7067 0.292735 0.025746
0.726421 0.019992 0.057686
0.7067 0.204798 0.057739
0.7067 -0.101857 -0.149574
0.7067 -0.407318 -0.138203
0.726421 0.197223 0.127583
0.726421 -0.058845 -0.095368
0.726421 0.544541 -0.213349
0.726421 -0.422315 0.173485
0.7067 0.550259 -0.14949
0.7067 -0.248607 -0.05737
0.7067 -0.257191 -0.208454
0.7067 -0.27427 0.021689
0.7067 0.258784 0.024859
0.7067 -0.036497 0.120674
0.726421 0.310639 -0.009239
0.7067 0.379707 -0.178154
0.726421 0.123428 -0.0575
0.7067 -0.334384 0.196008
0.7067 -0.499801 0.189628
0.726421 -0.511864 -0.161142
0.7067 -0.525976 -0.08714
0.7067 0.133517 -0.169192
0.7067 0.425531 -0.131552
0.7067 0.44129 -0.107649
0.7067 -0.458343 -0.116208
0.726421 0.116891 -0.111365
0.726421 -0.289683 -0.010503
0.7067 -0.296158 -0.191602
0.7067 -0.34704 -0.146602
0.726421 -0.540745 -0.075874
0.726421 0.227936 -0.045688
0.726421 -0.121134 -0.131457
0.7067 -0.25843 -0.13212
0.7067 -0.540625 0.082484
0.7067 -0.25601 0.062814
0.7067 -0.097181 -0.075483
0.726421 -0.455644 0.087283
0.7067 0.20115 0.179438
0.726421 0.533952 -0.0379
0.726421 -0.527221 0.07116
0.7067 -0.145699 0.094461
0.726421 0.302814 -0.145414
0.7067 -0.083368 -0.022862
0.726421 -0.112245 -0.185925
0.7067 0.355058 -0.028574
0.7067 0.532034 -0.171058
0.7067 0.4022 -0.11047
0.726421 0.36452 0.14201
0.726421 0.09335 -0.192696
0.726421 -0.179765 0.066182
0.7067 -0.125392 0.138257
0.726421 0.096966 -0.067628
0.7067 -0.018171 0.073475
0.7067 0.29331 0.102107
0.726421 0.387672 -0.005349
0.7067 -0.452669 -0.189072
0.726421 -0.213352 -0.096306
0.7067 -0.114818 -0.051643
0.7067 0.47672 -0.088909
0.7067 -0.282843 0.068665
0.726421 0.056442 0.043404
0.7067 0.221828 -0.196388
0.7067 -0.429043 0.07073
0.7067 0.439599 -0.182362
0.7067 0.118821 -0.14314
0.7067 0.542521 0.089178
0.726421 0.357209 -0.070303
0.7067 0.023853 0.168127
0.726421 0.072389 0.024295
0.7067 0.008224 0.101078
0.726421 0.575725 0.040024
0.726421 0.169972 0.141779
0.7067 0.210691 -0.079742
0.7067 0.121546 -0.042655
0.7067 -0.482142 -0.149017
0.7067 -0.231846 -0.119288
0.726421 0.33518 0.180522
0.726421 0.374471 -0.136423
0.7067 -0.152657 0.189473
0.7067 0.034578 0.127196
0.726421 0.50308 -0.037566
0.7067 -0.36654 0.146626
0.7067 -0.1729 -0.179206
0.7067 -0.422049 0.128679
0.7067 0.022874 -0.110475
0.7067 0.423461 -0.161226
0.726421 0.150067 0.032806
0.726421 0.561662 0.184381
0.7067 -0.135896 -0.130298
0.726421 0.463565 0.009711
0.726421 -0.340259 -0.087575
0.7067 -0.481175 -0.016236
0.7067 0.435212 0.167261
0.7067 -0.079324 -0.048893
0.7067 -0.408141 -0.092649
0.7067 -0.207816 -0.01176
0.726421 0.499872 -0.169898
0.726421 -0.514335 -0.076895
0.7067 0.364369 -0.11166
0.726421 0.118482 0.103587
0.7067 0.335755 -0.132962
0.726421 0.460967 -0.153951
0.7067 0.048255 0.095955
0.7067 0.409377 0.039994
0.726421 0.155283 -0.1888
0.726421 0.336325 -0.191934
0.7067 -0.303093 -0.004841
0.726421 0.052433 0.13513
0.7067 -0.08021 -0.201147
0.7067 -0.438884 -0.050824
0.7067 0.012439 -0.025133
0.726421 -0.089314 -0.008659
0.7067 0.349221 0.123802
0.726421 -0.062796 -0.042857
0.726421 -0.146849 -0.216999
0.7067 -0.410002 -0.009276
0.7067 -0.194744 0.123167
0.7067 -0.331094 -0.017965
0.726421 0.141515 0.180105
0.726421 0.318747 0.135181
0.726421 -0.475253 0.139138
0.726421 -0.489683 -0.173977
0.7067 -0.31706 -0.172605
0.7067 -0.180147 -0.144532
0.7067 0.251908 -0.198016
0.7067 -0.302771 0.199303
0.726421 0.421374 -0.065488
0.726421 -0.290157 0.086733
0.726421 0.466061 -0.065548
0.7067 -0.48799 0.068727
0.7067 -0.123059 0.109826
0.726421 -0.385324 -0.091988
0.7067 0.299114 0.201696
0.7067 -0.093436 -0.10281
0.7067 0.253041 -0.123295
0.7067 -0.122875 -0.021931
0.7067 0.08355 0.062454
0.726421 0.173892 0.192336
0.7067 -0.416766 0.161884
0.726421 0.421283 0.050486
0.7067 -0.269143 -0.187802
0.7067 -0.483256 -0.116866
0.726421 0.04707 -0.197165
0.7067 -0.517803 0.163721
0.7067 0.165563 -0.004133
0.726421 0.102589 0.122859
0.7067 -0.523099 0.188022
0.7067 0.441459 -0.06973
0.7067 -0.103523 0.123306
0.726421 -0.026328 0.127834
0.726421 -0.109122 -0.078941
0.726421 -0.023749 -0.036962
0.7067 -0.043152 -0.002133
0.7067 -0.360568 -0.112226
0.7067 -0.199605 -0.176974
0.7067 -0.163978 -0.053122
0.7067 -0.388693 0.153421
0.726421 0.031129 -0.101448
0.726421 0.006325 0.17772
0.7067 0.214142 0.07975
0.7067 -0.054115 -0.186758
0.726421 0.442524 -0.167864
0.7067 0.486041 -0.148989
0.726421 0.528745 0.180629
0.726421 -0.457735 0.000386
0.7067 0.102051 0.048093
0.726421 -0.51014 -0.198565
0.7067 -0.056685 0.108623
0.7067 0.225864 -0.116169
0.726421 0.392372 -0.186097
0.726421 0.418207 0.137719
0.726421 -0.231679 -0.036703
0.7067 0.557728 -0.04235
0.726421 0.056146 0.169267
0.726421 -0.285362 -0.061152
0.726421 -0.311261 0.02399
0.726421 0.395126 -0.216691
0.726421 0.257932 0.038268
0.726421 -0.285632 -0.147008
0.726421 -0.318198 -0.120422
0.726421 -0.225225 0.138636
0.726421 -0.319876 0.160448
0.726421 0.28812 0.133079
0.7067 -0.49051 0.167515
0.7067 0.09535 -0.03321
0.7067 0.383068 0.043988
0.726421 0.306249 -0.181937
0.726421 -0.111651 -0.11096
0.726421 -0.29836 0.063799
0.726421 -0.478926 0.102978
0.7067 0.305884 -0.057836
0.7067 0.312517 -0.12373
0.726421 0.173535 0.1007
0.726421 -0.350435 -0.108412
0.726421 0.257139 0.113676
0.726421 0.080046 -0.040503
0.7067 0.369819 0.193307
0.726421 -0.369483 -0.003097
0.7067 -0.15955 -0.11347
0.726421 0.118919 0.081135
0.726421 0.233852 0.105552
0.726421 0.467087 0.189279
0.7067 -0.390998 0.05365
0.7067 0.578394 0.174538
0.7067 0.319937 -0.003554
0.7067 -0.132363 -0.176652
0.7067 -0.151658 0.161668
0.726421 -0.434872 -0.111661
0.7067 0.522942 0.078002
0.7067 0.168392 -0.042847
0.726421 -0.360743 0.203019
0.7067 0.116864 -0.003807
0.726421 -0.251926 0.02088
0.7067 0.499326 -0.103121
0.7067 0.051156 -0.070713
0.7067 0.505532 -0.207872
0.726421 0.395895 0.166002
0.726421 -0.151037 -0.055151
0.726421 -0.389925 0.171685
0.726421 0.155287 -0.014554
0.726421 -0.410356 -0.169802
0.7067 -0.50978 -0.102132
0.726421 0.25911 0.003436
0.726421 0.028126 -0.147605
0.7067 -0.517482 -0.021711
0.726421 0.279893 0.160967
0.726421 -0.498346 -0.005833
0.726421 0.500419 -0.078764
0.7067 0.164611 0.18262
0.7067 0.217886 0.107947
0.726421 -0.497209 0.079546
0.7067 -0.503047 0.037285
0.7067 0.485738 0.002553
0.7067 0.23359 -0.061428
0.726421 0.073482 0.128748
0.726421 -0.136517 -0.018055
0.726421 0.577235 -0.015389
0.726421 0.051614 -0.163309
0.726421 0.444167 -0.000509
0.7067 -0.438414 0.169669
0.726421 -0.429505 0.027007
0.726421 0.480335 0.085313
0.7067 0.416102 0.182727
0.726421 0.477571 0.031403
-0.69022 0.109409 0.233986
0.095599 0.382473 0.233986
0.52312 0.330868 0.233986
-0.139005 0.260388 0.233986
-0.605792 0.336919 0.233986
0.17978 0.173309 0.233986
-0.32613 0.117716 0.233986
0.30556 0.368903 0.233986
-0.506782 0.127297 0.204404
-0.252028 0.391605 0.217115
0.554052 0.172992 0.204404
0.013282 0.249179 0.204404
0.674502 0.343895 0.233986
-0.468953 0.391605 0.22573
-0.147246 0.119384 0.204404
-0.116721 0.390466 0.233986
0.26941 0.08218 0.204404
-0.288159 0.256805 0.233986
0.20277 0.300773 0.204404
-0.499943 0.249912 0.233986
-0.660217 0.226599 0.204404
-0.718226 0.376572 0.204404
0.646288 0.241182 0.204404
0.463028 0.226953 0.233986
0.432894 0.391605 0.23175
-0.36099 0.38394 0.233986
-0.060796 0.178154 0.233986
-0.015407 0.350727 0.204404
-0.41902 0.172394 0.233986
-0.23331 0.174883 0.204404
0.278192 0.200071 0.233986
0.102499 0.276279 0.233986
0.089506 0.155692 0.204404
0.643282 0.135034 0.204404
0.383467 0.311411 0.233986
0.198543 0.391605 0.22863
-0.573805 0.184693 0.233986
0.596078 0.391605 0.231288
-0.426434 0.299529 0.233986
-0.221653 0.307159 0.204404
0.430656 0.149902 0.204404
0.288032 0.282838 0.204404
-0.589351 0.1004 0.233986
0.164494 0.098737 0.204404
0.55199 0.261317 0.204404
-0.088989 0.317902 0.204404
-0.688264 0.303284 0.204404
0.575741 0.076061 0.20738
-0.538542 0.361608 0.204404
-0.05508 0.25687 0.233986
0.608306 0.311326 0.233986
0.339686 0.156006 0.204404
0.001882 0.154897 0.204404
-0.320357 0.315145 0.204404
-0.274836 0.076061 0.204406
-0.597076 0.2528 0.233986
-0.331923 0.199698 0.233986
0.446205 0.293123 0.204404
-0.643532 0.153139 0.204404
0.240297 0.146347 0.204404
-0.158698 0.338454 0.204404
0.466068 0.087612 0.204404
0.062119 0.324775 0.204404
0.493486 0.151531 0.233986
-0.170991 0.199781 0.233986
-0.367546 0.264641 0.233986
-0.476067 0.193522 0.204404
0.075987 0.221815 0.204404
-0.063515 0.117806 0.204404
0.222509 0.222894 0.204404
0.612301 0.187437 0.233986
0.161277 0.245291 0.233986
0.493386 0.391196 0.204404
-0.655243 0.391605 0.217641
-0.542338 0.302718 0.233986
0.141243 0.329568 0.233986
-0.232898 0.241793 0.204404
0.04261 0.092649 0.204404
-0.432533 0.24432 0.204404
-0.115915 0.193066 0.204404
-0.690637 0.181133 0.233986
-0.488466 0.303235 0.204404
0.383709 0.19778 0.233986
0.407913 0.255811 0.233986
-0.194578 0.381851 0.233986
0.292335 0.136205 0.233986
0.261014 0.32638 0.233986
-0.592351 0.391605 0.216596
0.040487 0.391605 0.215477
0.255743 0.378542 0.204404
-0.31038 0.383477 0.204404
0.334863 0.242754 0.233986
0.663715 0.079412 0.204404
-0.437547 0.114653 0.204404
-0.067131 0.391605 0.206054
-0.289585 0.1663 0.204404
0.594924 0.132254 0.233986
0.550849 0.372531 0.204404
-0.547124 0.254633 0.204404
-0.530133 0.086296 0.233986
0.655248 0.391605 0.213587
-0.635349 0.278672 0.204404
-0.274126 0.344357 0.233986
-0.186619 0.143325 0.233986
0.500378 0.278853 0.204404
-0.01083 0.210429 0.233986
-0.230902 0.120324 0.204404
0.524263 0.09174 0.204404
0.394855 0.081008 0.204404
0.45602 0.336926 0.233986
-0.197129 0.076061 0.209603
0.095491 0.099967 0.204404
-0.443478 0.340434 0.204404
0.381344 0.134415 0.233986
0.130871 0.14243 0.233986
0.237967 0.263223 0.233986
0.049125 0.170192 0.233986
-0.5509 0.135551 0.233986
-0.046404 0.313618 0.233986
0.596004 0.227863 0.204404
0.514922 0.230033 0.233986
-0.369943 0.15539 0.233986
0.018099 0.3245 0.233986
0.411303 0.353395 0.204404
-0.177937 0.246866 0.204404
0.219071 0.076838 0.204404
0.42221 0.217649 0.204404
0.653115 0.2812 0.233986
-0.422969 0.386272 0.204404
-0.691942 0.345901 0.233986
0.174219 0.35529 0.204404
0.116103 0.21984 0.233986
-0.328858 0.253928 0.204404
-0.581902 0.290305 0.204404
0.318065 0.201336 0.204404
-0.492706 0.348798 0.233986
0.210844 0.11975 0.233986
-0.130967 0.156476 0.233986
0.463176 0.186488 0.204404
-0.181034 0.306594 0.233986
-0.522173 0.209722 0.204404
-0.465055 0.156939 0.233986
0.684675 0.307367 0.204404
-0.260673 0.216534 0.233986
-0.109686 0.090074 0.204404
-0.407328 0.352625 0.233986
0.562064 0.30075 0.233986
-0.329594 0.080417 0.204404
0.608584 0.354626 0.204404
-0.619601 0.196252 0.233986
0.378424 0.369329 0.233986
0.648565 0.191538 0.204404
0.127461 0.365883 0.204404
0.057329 0.266844 0.233986
-0.378581 0.200662 0.233986
-0.324994 0.351518 0.233986
-0.086358 0.352801 0.233986
-0.024762 0.384448 0.233986
0.616411 0.277421 0.204404
-0.267065 0.302223 0.204404
-0.583614 0.151331 0.204404
0.21598 0.333694 0.233986
0.159866 0.2106 0.204404
-0.123191 0.321993 0.233986
0.514364 0.195782 0.204404
-0.098322 0.279491 0.233986
-0.625619 0.112138 0.204404
0.131757 0.083353 0.233986
0.561973 0.205458 0.233986
-0.394611 0.283588 0.204404
-0.255775 0.141371 0.233986
-0.333498 0.163832 0.204404
0.54565 0.11614 0.233986
0.584223 0.261578 0.233986
-0.635088 0.350045 0.204404
0.020909 0.126311 0.233986
-0.164753 0.168394 0.204404
-0.453274 0.215785 0.233986
0.609791 0.104281 0.204404
-0.100505 0.14012 0.204404
0.148517 0.2865 0.233986
-0.151769 0.29536 0.204404
-0.696447 0.150695 0.204404
-0.145738 0.380563 0.204404
-0.214141 0.277462 0.233986
0.26252 0.236505 0.204404
-0.173108 0.103325 0.233986
-0.423486 0.086611 0.233986
-0.532835 0.169124 0.204404
-0.096979 0.215967 0.233986
0.293864 0.251249 0.233986
0.190451 0.141244 0.204404
-0.027649 0.268034 0.204404
0.563374 0.345723 0.233986
0.090131 0.334289 0.233986
-0.064124 0.076061 0.20631
-0.384501 0.24055 0.204404
-0.303141 0.205799 0.204404
-0.50749 0.389439 0.204404
-0.688743 0.232795 0.233986
0.522036 0.377135 0.233986
0.255691 0.116752 0.233986
-0.659617 0.262659 0.233986
0.667693 0.213372 0.233986
-0.005499 0.286678 0.233986
0.487148 0.309951 0.233986
0.425407 0.177878 0.233986
-0.225475 0.347996 0.204404
-0.415209 0.200403 0.204404
0.139166 0.182363 0.233986
0.24757 0.289463 0.204404
-0.030217 0.179858 0.204404
-0.473595 0.241814 0.204404
0.163291 0.313337 0.204404
0.317997 0.297769 0.233986
-0.72617 0.32376 0.204404
-0.547807 0.217604 0.233986
-0.208323 0.205755 0.204404
0.041521 0.145038 0.204404
-0.022662 0.145806 0.233986
-0.498496 0.18041 0.233986
0.42083 0.299129 0.233986
0.125586 0.243614 0.204404
0.390041 0.274121 0.204404
0.184964 0.213751 0.233986
0.483822 0.367869 0.233986
0.622418 0.233808 0.233986
-0.095455 0.111562 0.233986
-0.25449 0.275893 0.233986
0.381129 0.159353 0.204404
-0.375495 0.307639 0.233986
0.531312 0.277521 0.233986
0.009758 0.192597 0.204404
-0.402845 0.12033 0.233986
0.256116 0.164921 0.233986
-0.652628 0.076061 0.211978
-0.558276 0.391515 0.233986
0.202445 0.181776 0.204404
0.121651 0.315493 0.204404
-0.583273 0.345356 0.204404
-0.470008 0.273397 0.233986
0.686719 0.19941 0.204404
-0.58855 0.231106 0.204404
-0.358159 0.211809 0.204404
0.03287 0.281253 0.204404
-0.618086 0.316608 0.204404
0.07946 0.276881 0.204404
0.634008 0.111436 0.233986
0.349284 0.183008 0.233986
-0.107307 0.362172 0.204404
-0.347266 0.286513 0.204404
0.239432 0.333826 0.204404
0.453395 0.147981 0.233986
0.36174 0.273529 0.233986
-0.710263 0.307913 0.233986
0.452655 0.262569 0.233986
0.490872 0.188506 0.233986
0.449868 0.373415 0.204404
0.495238 0.114605 0.233986
-0.355349 0.361898 0.204404
-0.377738 0.178923 0.204404
-0.718373 0.259455 0.204404
0.180004 0.256233 0.204404
0.303302 0.158882 0.204404
0.582725 0.295977 0.204404
0.396681 0.391605 0.206123
-0.073388 0.267165 0.204404
-0.460673 0.311442 0.233986
-0.404725 0.235529 0.233986
0.243148 0.225456 0.233986
-0.274076 0.365138 0.204404
-0.663341 0.14727 0.233986
-0.498491 0.076061 0.22001
-0.214509 0.387225 0.204404
-0.442672 0.286882 0.204404
-0.330715 0.274398 0.233986
0.038301 0.204482 0.233986
0.576445 0.117664 0.204404
0.035581 0.357786 0.204404
-0.162341 0.35847 0.233986
0.055939 0.107958 0.233986
-0.624642 0.382562 0.233986
0.601479 0.170401 0.204404
-0.656137 0.345213 0.233986
-0.577469 0.31523 0.233986
-0.21033 0.18592 0.233986
0.279173 0.351695 0.204404
0.438571 0.110175 0.204404
0.16753 0.375211 0.233986
-0.591845 0.076061 0.208294
0.529786 0.31251 0.204404
0.446041 0.244346 0.204404
0.139544 0.125121 0.204404
0.392147 0.238547 0.204404
0.215586 0.257526 0.204404
-0.664249 0.297656 0.233986
-0.297705 0.09698 0.233986
-0.050327 0.354596 0.204404
0.27729 0.316231 0.204404
-0.653512 0.209055 0.233986
-0.683676 0.370984 0.204404
-0.523277 0.379784 0.233986
0.273665 0.136269 0.204404
0.656079 0.344479 0.204404
-0.440599 0.362691 0.233986
-0.357739 0.230034 0.233986
-0.726831 0.227983 0.233986
-0.097358 0.076061 0.233629
-0.567472 0.12065 0.204404
-0.545846 0.32044 0.204404
0.238734 0.384611 0.233986
0.484521 0.135907 0.204404
-0.304795 0.226506 0.233986
0.667813 0.159385 0.204404
0.40454 0.306329 0.204404
-0.661714 0.182362 0.204404
-0.143445 0.243459 0.204404
-0.706745 0.187373 0.204404
-0.498558 0.142379 0.233986
-0.289062 0.391605 0.229848
0.297675 0.234842 0.204404
-0.31678 0.163644 0.233986
0.22226 0.387037 0.204404
-0.177538 0.272881 0.233986
-0.375204 0.341845 0.233986
0.066359 0.076061 0.229298
0.395936 0.126797 0.204404
-0.062852 0.234242 0.204404
-0.615373 0.125001 0.233986
-0.224486 0.364397 0.233986
-0.700064 0.27567 0.233986
-0.284787 0.330934 0.204404
0.641893 0.314393 0.233986
0.063883 0.308696 0.233986
-0.471182 0.141981 0.204404
-0.35053 0.106793 0.204404
0.182106 0.284647 0.233986
0.34556 0.123745 0.233986
0.046725 0.245921 0.204404
0.078641 0.188442 0.204404
-0.109432 0.291419 0.204404
-0.041755 0.22315 0.233986
0.35374 0.326694 0.233986
0.222254 0.292724 0.233986
0.517946 0.245089 0.204404
0.467247 0.318938 0.204404
0.622987 0.359465 0.233986
-0.566057 0.197632 0.204404
-0.00421 0.242958 0.233986
0.652932 0.177323 0.233986
0.354687 0.254789 0.204404
-0.086712 0.145221 0.233986
0.370311 0.305109 0.204404
-0.695765 0.22004 0.204404
0.205638 0.082377 0.233986
-0.537411 0.098871 0.204404
0.658954 0.248781 0.233986
-0.199783 0.21719 0.233986
0.17357 0.341359 0.233986
0.417374 0.146112 0.233986
-0.051233 0.154877 0.204404
0.493652 0.254763 0.233986
0.476671 0.228525 0.204404
-0.358385 0.122006 0.233986
-0.294506 0.268471 0.204404
-0.434332 0.128062 0.233986
-0.631853 0.317644 0.233986
0.511164 0.154335 0.204404
-0.411207 0.133389 0.204404
0.158491 0.151303 0.204404
0.113417 0.207184 0.204404
0.507409 0.362121 0.204404
0.101659 0.111297 0.233986
0.044236 0.181818 0.204404
-0.564387 0.279406 0.233986
0.407403 0.189184 0.204404
0.034665 0.243447 0.233986
-0.63134 0.153658 0.233986
-0.193849 0.155085 0.204404
0.060904 0.375375 0.233986
0.321443 0.311368 0.204404
-0.14529 0.218726 0.233986
0.686926 0.373258 0.233986
0.20522 0.109379 0.204404
0.374566 0.084877 0.233986
0.163678 0.386053 0.204404
0.168774 0.076061 0.226118
0.266692 0.276593 0.233986
0.090574 0.166938 0.233986
0.010447 0.110787 0.204404
-0.568529 0.076061 0.23202
0.618213 0.153694 0.233986
-0.256875 0.109787 0.233986
-0.160272 0.090665 0.204404
-0.714659 0.391605 0.231888
-0.657092 0.124732 0.204404
-0.320231 0.3906 0.233986
0.313228 0.219969 0.233986
-0.044993 0.121846 0.233986
-0.226781 0.316397 0.233986
0.624441 0.307767 0.204404
-0.312277 0.106484 0.204404
0.013395 0.183413 0.233986
-0.121351 0.331523 0.204404
0.569815 0.338566 0.204404
-0.233102 0.252858 0.233986
-0.444348 0.213126 0.204404
0.09079 0.390385 0.204404
-0.544827 0.17381 0.233986
-0.089382 0.208967 0.204404
-0.665559 0.344969 0.204404
0.068946 0.227163 0.233986
0.539029 0.121947 0.204404
0.600938 0.138612 0.204404
0.563916 0.213947 0.204404
0.327447 0.108569 0.204404
-0.414808 0.306704 0.204404
0.455068 0.185807 0.233986
-0.502284 0.171626 0.204404
-0.019592 0.3284 0.233986
-0.264117 0.315434 0.233986
-0.295307 0.322295 0.233986
-0.633199 0.193395 0.204404
-0.445575 0.245345 0.233986
-0.1103 0.250125 0.233986
0.437046 0.322968 0.204404
-0.497809 0.274289 0.204404
-0.333502 0.304652 0.233986
-0.185021 0.312243 0.204404
-0.248894 0.272136 0.204404
-0.226769 0.132475 0.233986
-0.520123 0.240803 0.204404
0.228527 0.152346 0.233986
0.413054 0.225931 0.233986
-0.26184 0.223045 0.204404
0.557571 0.375449 0.233986
0.460845 0.109407 0.233986
-0.176644 0.240739 0.233986
-0.618744 0.231859 0.233986
0.255403 0.080788 0.233986
0.379975 0.362476 0.204404
0.583565 0.256548 0.204404
0.058546 0.338227 0.233986
-0.195522 0.349383 0.204404
0.680533 0.305027 0.233986
-0.437886 0.076061 0.209927
0.29082 0.172941 0.233986
0.3577 0.212545 0.233986
-0.693524 0.14755 0.233986
0.410613 0.101508 0.233986
0.591883 0.336779 0.233986
-0.49127 0.294372 0.233986
0.450267 0.304178 0.233986
0.076005 0.12259 0.204404
-0.398058 0.281764 0.233986
-0.10377 0.391605 0.207065
-0.522679 0.301788 0.204404
-0.212077 0.276404 0.204404
0.168239 0.179246 0.204404
-0.358802 0.138561 0.204404
0.5482 0.231579 0.233986
-0.492508 0.100372 0.204404
-0.312915 0.142727 0.204404
0.630702 0.166622 0.204404
-0.348133 0.391605 0.208606
0.640839 0.076061 0.222656
-0.345781 0.173747 0.233986
0.520179 0.186645 0.233986
-0.528559 0.276792 0.233986
0.202832 0.349558 0.204404
-0.459588 0.310656 0.204404
0.668977 0.11063 0.204404
-0.686006 0.122935 0.204404
0.664059 0.150595 0.233986
-0.147089 0.391605 0.23112
0.372565 0.209562 0.204404
0.635946 0.208375 0.233986
-0.517773 0.341653 0.204404
-0.125607 0.293349 0.233986
-0.358926 0.253588 0.204404
-0.077735 0.346096 0.204404
0.28516 0.348835 0.233986
-0.050737 0.285543 0.233986
0.309955 0.086301 0.204404
0.193426 0.141954 0.233986
-0.676556 0.383037 0.233986
-0.60734 0.359828 0.204404
0.057009 0.136005 0.233986
0.124736 0.076061 0.207915
0.470379 0.284164 0.233986
-0.1284 0.141106 0.204404
0.569627 0.391605 0.212303
0.168468 0.102833 0.233986
-0.610009 0.248913 0.204404
-0.662488 0.284825 0.204404
0.070064 0.088339 0.204404
-0.451237 0.367094 0.204404
-0.386828 0.364266 0.204404
-0.042149 0.362829 0.233986
0.106533 0.26375 0.204404
-0.698636 0.087717 0.204404
0.490904 0.076061 0.221079
-0.564944 0.239255 0.233986
0.119187 0.313079 0.233986
-0.648603 0.17508 0.233986
-0.056394 0.146879 0.233986
-0.426132 0.391605 0.231188
0.174117 0.288092 0.204404
-0.674391 0.32469 0.233986
-0.36984 0.076061 0.20606
-0.071479 0.294516 0.204404
-0.529987 0.353405 0.233986
0.008205 0.076061 0.208619
-0.190783 0.331905 0.233986
0.153225 0.157658 0.233986
0.143069 0.218 0.233986
-0.665232 0.119665 0.233986
0.536982 0.286541 0.204404
0.373898 0.249604 0.233986
0.207457 0.359128 0.233986
-0.555892 0.283767 0.204404
0.094949 0.076061 0.219544
0.027904 0.349388 0.233986
-0.470073 0.338474 0.204404
0.231375 0.362018 0.204404
-0.202269 0.101663 0.204404
0.129185 0.391605 0.210853
0.322872 0.391605 0.220609
0.555627 0.179775 0.233986
-0.434507 0.18232 0.204404
0.193016 0.260558 0.233986
0.095264 0.301712 0.233986
-0.695735 0.207362 0.233986
-0.226275 0.146277 0.204404
-0.246297 0.084132 0.233986
0.491416 0.214758 0.233986
-0.454047 0.340202 0.233986
-0.547067 0.147163 0.204404
0.140937 0.264787 0.204404
-0.077364 0.154403 0.204404
0.039187 0.119012 0.204404
0.296667 0.186422 0.204404
0.655794 0.125667 0.233986
-0.635584 0.272627 0.233986
0.47403 0.162851 0.204404
0.613838 0.085062 0.233986
0.684234 0.235202 0.204404
-0.292331 0.362828 0.233986
-0.41743 0.258057 0.233986
0.2934 0.373225 0.204404
0.468169 0.391605 0.209847
0.389165 0.338379 0.204404
0.091668 0.242729 0.204404
0.575899 0.366835 0.204404
0.203871 0.196425 0.233986
-0.387205 0.076061 0.231565
-0.545985 0.106342 0.233986
-0.022934 0.260326 0.233986
0.48971 0.097237 0.204404
-0.071892 0.237773 0.233986
0.014061 0.215604 0.233986
0.304729 0.259267 0.204404
-0.704752 0.367855 0.233986
-0.718091 0.351181 0.204404
-0.256258 0.120363 0.204404
0.594507 0.169386 0.233986
0.597808 0.227787 0.233986
0.204633 0.22972 0.233986
0.292917 0.301117 0.233986
0.034393 0.277508 0.233986
-0.538741 0.241215 0.233986
-0.226396 0.094349 0.204404
0.015774 0.089186 0.233986
0.573502 0.157108 0.204404
-0.541448 0.38655 0.204404
0.630156 0.391605 0.214399
0.149215 0.358064 0.233986
0.52554 0.253172 0.233986
-0.457873 0.119634 0.233986
-0.014839 0.224176 0.204404
0.153 0.336072 0.204404
0.440431 0.176286 0.204404
-0.570626 0.172535 0.204404
0.305573 0.192944 0.233986
-0.317996 0.253094 0.233986
-0.047503 0.209819 0.204404
-0.529536 0.148098 0.233986
-0.519442 0.076061 0.206794
-0.042343 0.391605 0.217285
-0.30194 0.23048 0.204404
-0.153082 0.145515 0.233986
-0.064628 0.32178 0.204404
-0.695632 0.391605 0.210672
-0.088951 0.302253 0.233986
-0.467234 0.195572 0.233986
0.399786 0.179218 0.233986
0.127952 0.146758 0.204404
-0.39188 0.144387 0.233986
0.149075 0.125971 0.233986
0.246372 0.201132 0.233986
0.0132 0.347746 0.204404
0.521864 0.342324 0.204404
-0.637619 0.247486 0.233986
-0.619228 0.100838 0.233986
-0.266542 0.174423 0.204404
-0.083541 0.369823 0.204404
0.457542 0.213339 0.204404
-0.342371 0.252928 0.233986
0.241115 0.207148 0.204404
0.345429 0.315516 0.204404
0.50248 0.391605 0.233505
-0.106807 0.159341 0.233986
0.466279 0.384718 0.233986
-0.423648 0.334629 0.233986
0.639458 0.269786 0.204404
0.523658 0.105915 0.233986
0.311335 0.289368 0.204404
0.22171 0.130861 0.204404
0.242947 0.076061 0.208047
-0.181928 0.223088 0.204404
-0.027779 0.298429 0.233986
-0.027265 0.374708 0.204404
-0.146481 0.327749 0.233986
0.326423 0.076061 0.221343
-0.682574 0.240018 0.204404
-0.178393 0.177106 0.233986
0.319168 0.349319 0.233986
0.61385 0.212095 0.204404
0.095336 0.208202 0.233986
0.542352 0.152295 0.204404
0.307421 0.276504 0.233986
-0.636523 0.36202 0.233986
0.112258 0.347671 0.204404
-0.248163 0.155386 0.204404
-0.699765 0.323993 0.204404
-0.338647 0.327757 0.233986
0.063688 0.348367 0.204404
-0.020472 0.12229 0.233986
0.265956 0.231508 0.233986
0.392095 0.155414 0.233986
-0.719469 0.145699 0.204404
-0.530069 0.130876 0.204404
-0.262916 0.379377 0.233986
-0.430961 0.227065 0.233986
-0.2763 0.284351 0.233986
0.245386 0.289419 0.233986
0.084002 0.316618 0.204404
-0.394922 0.372386 0.233986
0.221686 0.160357 0.204404
0.597476 0.35937 0.233986
0.222391 0.2104 0.233986
0.655174 0.356691 0.233986
0.499529 0.224847 0.204404
0.667029 0.391605 0.233503
-0.710526 0.244332 0.233986
-0.097417 0.165842 0.204404
0.489345 0.312311 0.204404
0.478308 0.371676 0.204404
0.203289 0.374038 0.204404
0.283945 0.324975 0.233986
0.077305 0.391605 0.22358
0.256777 0.120755 0.204404
-0.239857 0.376923 0.204404
0.268915 0.214529 0.204404
-0.008254 0.163587 0.233986
0.339782 0.304605 0.233986
0.52314 0.222881 0.204404
0.411366 0.330609 0.204404
-0.463341 0.363718 0.233986
0.223128 0.193386 0.204404
-0.539683 0.195768 0.233986
-0.359906 0.334656 0.204404
-0.138062 0.087021 0.204404
0.258495 0.373837 0.233986
-0.312775 0.281563 0.204404
0.220076 0.286458 0.204404
-0.275446 0.14888 0.204404
0.183614 0.162942 0.204404
-0.248627 0.299242 0.233986
-0.324093 0.337226 0.204404
-0.146543 0.358196 0.204404
-0.167782 0.38358 0.233986
-0.466447 0.21653 0.204404
-0.252142 0.195872 0.233986
0.50309 0.356555 0.233986
0.123516 0.11526 0.233986
0.261516 0.335698 0.204404
-0.085823 0.080045 0.204404
-0.355651 0.193565 0.233986
0.377816 0.391605 0.217602
0.375515 0.225593 0.233986
-0.638515 0.23026 0.204404
-0.243656 0.159608 0.233986
-0.405208 0.304794 0.233986
0.364039 -0.202835 -0.079011
0.334457 0.307944 0.045772
0.334457 0.054711 0.015419
0.364039 -0.382556 0.048337
0.334457 -0.13532 0.103751
0.364039 0.489683 0.025272
0.334457 -0.497819 -0.072355
0.334457 0.318686 -0.130395
0.364039 0.229316 0.185053
0.364039 0.171301 -0.078756
0.364039 -0.268003 0.145087
0.364039 -0.067629 -0.054404
0.364039 -0.427293 0.17591
0.364039 -0.006477 0.129987
0.334457 0.175509 0.067632
0.364039 0.484397 0.196319
0.364039 -0.374095 -0.08057
0.364039 0.432719 -0.090424
0.364039 0.064889 -0.133128
0.334457 -0.138838 -0.1874
0.334457 -0.277679 0.012706
0.364039 0.388256 0.134049
0.364039 0.113749 0.149267
0.334457 -0.278699 -0.141837
0.334457 -0.17771 0.013126
0.334457 0.524111 -0.07121
0.364039 0.265914 -0.037167
0.364039 -0.044639 0.042395
0.364039 -0.441972 -0.153737
0.364039 0.374394 -0.019341
0.334457 -0.465345 0.013484
0.334457 0.228707 -0.144908
0.334457 0.497126 0.110098
0.364039 0.503202 -0.151768
0.334457 -0.466582 0.104075
0.358713 -0.34101 0.204404
0.334457 0.41565 0.054856
0.336154 0.030587 0.204404
0.364039 0.015887 -0.061908
0.334457 -0.34263 0.120881
0.334457 -0.067808 -0.132788
0.334457 0.288935 0.134994
0.364039 -0.078998 0.167269
0.334457 0.408472 -0.162672
0.364039 -0.208815 0.090869
0.334457 -0.301371 -0.063619
0.334457 0.14115 -0.002856
0.364039 -0.176663 0.178274
0.364039 0.553505 0.160187
0.364039 0.093067 -0.058138
0.334457 0.072118 0.08994
0.364039 0.137462 -0.153486
0.364039 -0.499044 0.16698
0.364039 -0.125661 -0.102092
0.361995 0.402288 0.204404
0.334457 0.230626 0.022278
0.334457 -0.21179 -0.164574
0.334457 0.001703 -0.124136
0.334457 -0.362898 -0.018103
0.334457 -0.106012 -0.004222
0.364039 0.255912 0.082137
0.334457 -0.281303 0.081494
0.334457 0.436272 -0.015508
0.334457 0.323135 -0.060683
0.334457 -0.524608 -0.157163
0.334457 -0.378149 -0.149221
0.334457 -0.010371 -0.006231
0.364039 0.544087 -0.015448
0.334457 0.00553 0.068891
0.364039 -0.150972 -0.038725
0.364039 -0.25085 -0.037146
0.364039 0.120305 0.062495
0.364039 -0.443827 -0.069419
0.364039 -0.410207 0.116813
0.364039 -0.068282 0.106824
0.364039 0.174531 0.147802
0.334457 -0.228645 0.188377
0.364039 0.344535 0.186325
0.364039 -0.115147 0.047275
0.334457 0.540008 0.040076
0.364039 -0.019793 0.189643
0.364039 -0.522985 -0.026159
0.364039 0.050985 0.144507
0.364039 0.270164 -0.115626
0.334457 -0.329427 0.03928
0.364039 0.288847 -0.180745
0.364039 -0.308675 -0.183329
0.334457 0.444999 0.166345
0.334457 0.124435 -0.106066
0.364039 -0.411798 -0.018492
0.334457 0.20551 -0.028946
0.364039 -0.174315 -0.134119
0.334457 -0.520656 0.12381
0.364039 0.378134 -0.105063
0.364039 0.321703 0.100596
0.334457 -0.120853 0.188848
0.334457 0.231721 -0.088492
0.364039 -0.315133 -0.108334
0.334457 0.092096 -0.170671
0.364039 0.573353 0.094987
0.364039 -0.233946 0.042373
0.364039 0.456336 0.0902
0.334457 -0.302268 0.175672
0.364039 -0.450935 0.056287
0.334457 0.36624 0.033508
0.334457 -0.465544 -0.115396
0.364039 0.225303 0.126046
0.334457 -0.377909 0.174517
0.334457 0.453445 -0.129525
0.364039 -0.253388 -0.178746
0.342469 0.285535 0.204404
0.334457 -0.460827 0.203892
0.364039 0.320106 0.004819
0.334457 -0.029854 -0.074197
0.334457 0.3816 -0.061298
0.364039 -0.103705 -0.163706
0.364039 0.535332 -0.111395
0.364039 0.207266 -0.193444
0.364039 0.382573 0.083272
0.334457 -0.257255 -0.088958
0.334457 0.078837 0.188641
0.334457 0.338191 -0.195091
0.334457 -0.200087 0.144983
0.357726 -0.411514 -0.204817
0.364039 0.368073 -0.160387
0.334457 0.47533 -0.080532
0.364039 0.486678 -0.02414
0.364039 -0.325811 0.078237
0.334457 -0.193539 -0.033258
0.334457 0.156872 0.112816
0.364039 0.268 0.012342
0.364039 0.190102 -0.145429
0.364039 -0.008014 -0.161307
0.364039 -0.473001 -0.023979
0.334457 0.071418 -0.095576
0.334457 -0.41108 0.019564
0.364039 -0.523512 0.036024
0.334457 -0.506247 0.072527
0.346328 0.43237 -0.204817
0.334457 0.087462 -0.021244
0.364039 -0.406951 -0.114541
0.364039 -0.178587 0.049888
0.364039 -0.035487 -0.115269
0.334457 -0.393723 0.083054
0.364039 0.507136 0.154912
0.364039 0.168899 -0.025661
0.364039 -0.483869 -0.181993
0.364039 0.032426 0.045555
0.334457 -0.232873 0.001733
0.364039 -0.16466 0.123444
0.334457 0.170883 -0.11396
0.334457 -0.081452 0.054932
0.334457 0.492172 0.059452
0.334457 0.138063 -0.047969
0.334457 0.539597 -0.156082
0.364039 0.444592 0.025397
0.334457 0.246356 0.155911
0.334457 -0.467131 0.156029
0.364039 0.02248 -0.013856
0.334457 0.045067 -0.045109
0.334457 0.092351 0.043825
0.364039 -0.342659 -0.044767
0.334457 0.296222 -0.023339
0.334457 0.417619 0.118315
0.364039 0.290274 -0.07609
0.334457 -0.035151 0.113806
0.364039 -0.521837 -0.112141
0.334457 0.35256 0.154581
0.335017 -0.232895 -0.204817
0.364039 0.421868 -0.04472
0.364039 -0.286545 0.043968
0.364039 0.455294 0.135633
0.364039 0.331305 -0.091727
0.364039 -0.057733 -0.012093
0.35776 0.113489 0.204404
0.334457 0.546987 0.129342
0.334457 -0.121626 -0.133357
0.334457 -0.048473 -0.18622
0.364039 -0.357995 -0.125133
0.334457 0.260268 -0.195391
0.364039 -0.338786 0.001783
0.334457 0.050197 -0.160946
0.334457 0.00957 0.166925
0.334457 0.225105 0.086628
0.336112 -0.055707 0.204404
0.364039 0.276568 0.163118
0.334457 -0.127291 0.145483
0.334457 -0.507782 0.000194
0.364039 0.195636 0.044853
0.334457 0.362054 0.105265
0.334457 -0.097306 -0.057119
0.334457 -0.071682 0.136336
0.364039 0.46748 -0.183331
0.364039 -0.528535 -0.196481
0.334457 -0.147265 0.06369
0.334457 -0.422168 0.146822
0.364039 -0.215779 -0.129189
0.364039 -0.346458 0.150056
0.364039 0.21657 -0.063341
0.364039 0.027044 -0.109353
0.334457 0.079346 0.130934
0.334457 -0.239698 0.08254
0.36341 -0.517017 0.204404
0.364039 -0.134395 0.01056
0.334457 0.544754 0.084968
0.364039 -0.018795 -0.039535
0.334457 -0.439567 -0.02522
0.356106 -0.2594 0.204404
0.364039 -0.348013 -0.166701
0.334457 0.568815 -0.044459
0.364039 0.222774 -0.004588
0.364039 -0.204576 0.005575
0.334457 0.207202 0.166739
0.334457 0.18919 0.017786
0.364039 -0.095977 0.204096
0.364039 0.015378 0.094799
0.334457 0.526519 0.187952
0.334457 -0.41669 -0.064682
0.342352 -0.408573 0.204404
0.334457 -0.366175 0.022097
0.364039 0.434548 -0.154485
0.364039 -0.270596 -0.115898
0.334457 0.511503 -0.124366
0.334457 0.284398 -0.153982
0.364039 0.31876 0.155724
0.364039 -0.226823 0.145923
0.364039 0.07393 0.063198
0.364039 0.389864 0.02113
0.364039 -0.371086 0.109361
0.334457 -0.183642 0.082271
0.364039 -0.306645 0.13618
0.364039 0.115647 -0.007556
0.364039 0.563975 0.051331
0.334457 0.257991 0.056329
0.334457 0.006779 0.029133
0.334457 -0.385048 0.133969
0.364039 -0.294477 -0.006669
0.334457 0.028563 0.132288
0.364039 0.498007 -0.092037
0.364039 0.184711 0.091164
0.364039 -0.038753 0.155804
0.364039 -0.09143 0.016082
0.364039 -0.177568 -0.17269
0.334457 -0.242188 -0.129392
0.334457 -0.381015 -0.104321
0.334457 0.152484 0.033984
0.334457 0.353141 -0.007211
0.334457 -0.097444 0.097525
0.334457 0.557194 -0.090642
0.364039 -0.506152 0.104155
0.364039 -0.11111 -0.028092
0.364039 0.100192 -0.103449
0.364039 0.279883 0.112392
0.334457 0.135728 0.159722
0.334457 0.007479 -0.084679
0.334457 0.262615 -0.061212
0.364039 -0.417301 0.077392
0.334457 -0.066835 -0.083806
0.334457 -0.349295 0.07255
0.364039 -0.115842 0.117945
0.364039 0.338042 -0.042157
0.334457 0.161174 -0.151873
0.334457 0.432888 -0.066674
0.334457 -0.283347 -0.182998
0.334457 0.502559 -0.006703
0.334457 -0.148936 -0.100456
0.364039 0.064954 -0.184734
0.334457 -0.539249 0.09028
0.334457 0.109546 0.090631
0.334457 -0.144948 -0.016811
0.334457 -0.432389 -0.133164
0.334457 0.174999 -0.052794
0.334457 -0.034393 0.062415
0.334457 -0.362548 -0.061279
0.364039 -0.488241 -0.096315
0.334457 0.3237 0.17797
0.360651 -0.142073 0.204404
0.334457 -0.196892 -0.100591
0.364039 0.090351 0.10277
0.352449 0.389082 -0.204817
0.334457 -0.406959 -0.172422
0.336457 0.375536 0.204404
0.334457 0.418223 -0.106994
0.364039 0.056995 0.186548
0.364039 -0.282447 0.10847
0.334457 0.308082 0.083713
0.334457 -0.469904 0.066796
0.334457 -0.499917 0.035958
0.334457 -0.333156 -0.119823
0.334457 0.561905 -0.004094
0.334457 -0.266703 0.168765
0.364039 0.494715 0.080017
0.334457 -0.420914 0.057133
0.364039 -0.282722 -0.055211
0.334457 -0.127259 0.030794
0.334457 -0.466081 -0.151197
0.364039 -0.209995 -0.187816
0.334457 -0.063442 -0.034842
0.364039 0.05142 0.090838
0.364039 0.024672 -0.147091
0.334457 -0.516883 0.175732
0.364039 0.081959 0.004014
0.334457 -0.033901 -0.143673
0.364039 -0.08767 0.07362
0.364039 0.235397 -0.108567
0.364039 -0.390138 0.159286
0.364039 -0.486298 -0.05693
0.364039 0.541289 -0.175086
0.364039 -0.141922 0.085858
0.334457 -0.539814 -0.014377
0.334457 0.350433 -0.145467
0.334457 -0.252267 0.037576
0.364039 0.328554 -0.146488
0.364039 -0.036607 0.091781
0.364039 0.237859 0.052108
0.334457 0.4232 0.199013
0.364039 0.541877 0.110143
0.334457 -0.156638 -0.13982
0.364039 0.302486 -0.040798
0.334457 0.283967 -0.10327
0.364039 0.263215 -0.157074
0.364039 0.354933 0.018951
0.334457 -0.244362 0.140316
0.334457 0.360444 -0.100175
0.334457 0.571119 0.167995
0.364039 -0.110524 -0.070912
0.364039 0.147157 -0.103536
0.364039 0.470292 -0.123395
0.334457 0.14894 -0.081658
0.364039 -0.465294 0.121903
0.334457 0.401741 -0.014253
0.364039 0.154825 0.063412
0.334457 -0.401757 -0.033062
0.364039 0.185722 0.180403
0.364039 -0.449452 0.021158
0.364039 0.32105 -0.198845
0.334457 -0.313283 0.093514
0.364039 0.155252 0.00653
0.364039 -0.240177 0.10418
0.364039 -0.143178 -0.171173
0.334457 0.111845 -0.069635
0.364039 -0.31674 0.027522
0.334457 0.416763 0.021071
0.364039 -0.173937 -0.013923
0.334457 -0.188412 -0.066642
0.334457 0.507811 -0.195765
0.334457 -0.494666 -0.038734
0.364039 -0.301749 -0.1504
0.364039 -0.125425 0.173516
0.364039 0.065289 -0.080821
0.364039 -0.214341 0.1814
0.364039 -0.101679 -0.125513
0.334457 -0.156261 -0.053476
0.334457 -0.212703 0.106027
0.364039 -0.063034 -0.191861
0.364039 0.355676 0.126482
0.364039 -0.005512 0.008593
0.334457 0.238026 -0.021205
0.364039 0.543714 0.024786
0.334457 -0.186047 -0.188549
0.334457 -0.152444 0.178363
0.364039 -0.466997 0.175882
0.334457 -0.064911 0.090671
0.334457 0.317554 0.118212
0.348032 -0.373105 0.204404
0.334457 0.514966 -0.039376
0.334457 0.112044 0.125709
0.334457 0.197477 -0.158337
0.334457 0.326653 0.018034
0.334457 0.376515 -0.172478
0.334457 -0.323068 -0.186173
0.364039 -0.380618 -0.171909
0.334457 0.279399 0.029274
0.334457 -0.225021 -0.082182
0.334457 0.197907 -0.076391
0.334457 0.261913 -0.12765
0.334457 -0.449977 -0.181053
0.334457 -0.530897 0.023886
0.334457 0.382763 -0.139996
0.334457 0.396898 0.145152
0.334457 -0.092174 -0.155893
0.334457 0.475858 0.025476
0.334457 -0.358471 -0.175721
0.334457 0.488694 -0.147704
0.357039 0.238781 -0.204817
0.364039 0.130583 -0.059334
0.334457 0.041406 0.173604
0.364039 0.392796 0.173402
0.334457 -0.494434 -0.169111
0.334457 -0.319544 0.204387
0.334457 -0.249088 -0.166307
0.364039 -0.496443 0.006827
0.334457 0.246174 0.123562
0.334457 0.501552 0.142131
0.364039 -0.511845 -0.157029
0.364039 0.549404 -0.080717
0.364039 -0.195715 0.133185
0.334457 0.471639 0.09051
0.334457 -0.297402 0.050081
0.334457 -0.019058 0.152455
0.364039 -0.067105 -0.109985
0.334457 0.311568 -0.177253
0.334457 -0.007722 -0.044681
0.364039 0.164433 -0.170703
0.364039 -0.363403 0.17847
0.364039 0.425687 0.099303
0.364039 0.456737 -0.013075
0.334457 -0.090322 0.163619
0.334457 -0.310612 -0.142586
0.364039 -0.242351 -0.101212
0.334457 -0.262541 -0.038149
0.364039 -0.411024 -0.161121
0.334457 -0.067511 0.026357
0.334457 0.455386 0.124293
0.364039 -0.300468 0.186592
0.364039 0.091628 0.182519
0.364039 0.276005 0.042861
0.364039 -0.455342 -0.119307
0.364039 -0.219486 -0.04041
0.334457 -0.207616 0.061788
0.364039 0.057904 0.02582
0.334457 0.05496 -0.128979
0.364039 0.191644 -0.000514
0.364039 0.403355 -0.079476
0.364039 0.568167 -0.109511
0.334457 -0.342684 0.159272
0.364039 -0.41457 -0.055093
0.364039 -0.432215 0.138734
0.334457 0.128579 -0.150279
0.364039 0.467058 -0.076247
0.364039 -0.349677 0.058456
0.364039 0.406861 0.057284
0.334457 0.189472 -0.192952
0.334457 0.397021 0.180888
0.334457 -0.525832 -0.104568
0.334457 -0.332458 0.007307
0.334457 -0.099757 -0.111769
0.364039 -0.514516 -0.069085
0.364039 -0.26166 0.06181
0.334457 0.315961 -0.090445
0.364039 0.010992 0.159239
0.364039 0.547151 0.191425
0.364039 0.374058 -0.05977
0.334457 -0.209844 -0.13394
0.334457 -0.003448 0.123166
0.364039 0.087613 -0.153452
0.364039 0.209659 0.159841
0.334457 0.06037 -0.19032
0.334457 -0.033962 -0.027249
0.364039 0.00258 0.039753
0.364039 0.495651 0.116894
0.334457 0.167703 0.146799
0.364039 -0.358078 0.025244
0.364027 -0.486665 0.204404
0.334457 -0.201217 0.201367
0.364039 -0.173823 -0.07025
0.334457 -0.31375 -0.096586
0.334457 -0.026001 0.189438
0.364039 -0.480463 0.062696
0.364039 0.284279 -0.013257
0.334457 -0.43269 0.177876
0.364039 -0.178932 0.087043
0.334457 0.47889 -0.025193
0.334457 0.163951 -0.024521
0.364039 0.404655 -0.159681
0.364039 -0.242494 -0.008379
0.334457 -0.488928 0.193551
0.334457 -0.281724 -0.106199
0.334457 0.364321 -0.036856
0.364039 0.119188 0.032592
0.364039 -0.25547 -0.067536
0.364039 0.538811 0.080394
0.334457 0.508793 0.022489
0.334457 0.03331 0.048465
0.334457 0.019851 -0.014336
0.334457 0.386227 0.010954
0.334457 -0.174744 0.042566
0.334457 -0.025932 -0.113656
0.364039 -0.471696 -0.143907
0.334457 -0.126917 -0.050868
0.334457 0.264362 0.185333
0.334457 0.036597 -0.088651
0.334457 0.550906 -0.190285
0.364039 -0.069013 -0.139178
0.334457 0.232145 0.181795
0.352403 0.510566 0.204404
0.334457 0.107391 0.166116
0.341615 -0.301103 -0.204817
0.364039 0.168956 -0.200848
0.334457 0.461317 0.000386
0.364039 -0.543046 -0.085106
0.364039 0.35307 -0.119475
0.334457 -0.221964 -0.028026
0.334457 0.570498 0.098058
0.364039 -0.447911 -0.009839
0.364039 0.238439 0.151636
0.334457 0.120171 -0.200798
0.364039 -0.097514 0.1455
0.364039 0.010626 -0.182946
0.334457 -0.110551 0.072224
0.334457 0.10088 0.003893
0.364039 0.36327 -0.188241
