0.38113 0.482561 -0.06096459435892414
0.388245 0.621466 0.46566740564107584
0.356163 0.612314 0.07251340564107585
0.356163 0.551597 0.19799540564107584
0.377514 0.482561 0.04721740564107585
0.356163 0.581556 0.3120404056410758
0.362529 0.621466 -0.015858594358924144
0.390889 0.55033 0.37876540564107586
0.390889 0.532865 0.08523240564107584
0.356163 0.536656 -0.08987059435892415
0.356163 0.504234 -0.010013594358924155
0.358413 0.482561 0.20195040564107586
0.390889 0.537785 0.29625340564107583
0.389179 0.482561 0.4270154056410758
0.356163 0.567712 -0.03550759435892416
0.390889 0.56352 0.24232340564107585
0.390889 0.567611 -0.13743259435892413
0.356163 0.621151 0.19959440564107583
0.356163 0.564309 0.12107640564107586
0.390889 0.601164 0.35089840564107583
0.364097 0.482561 0.10765440564107585
0.390889 0.564451 0.4344474056410758
0.390889 0.544073 0.15271740564107586
0.356163 0.550893 0.04888040564107585
0.390889 0.530317 -0.048594594358924145
0.390889 0.598554 0.02550140564107585
0.383963 0.621466 0.30120540564107584
0.356163 0.538046 0.34263040564107583
0.390889 0.591742 0.09976940564107585
0.356163 0.576916 0.40152340564107586
0.390889 0.523211 0.20868140564107585
0.368468 0.482561 0.30406340564107587
0.358184 0.621466 0.11560240564107585
0.356163 0.57412 0.26603740564107586
0.356163 0.576748 0.011738405641075852
0.390889 0.513801 -0.10087159435892416
0.356163 0.610776 0.42859540564107584
0.390889 0.621177 -0.10997759435892414
0.390889 0.527294 0.41553040564107585
0.390889 0.520224 0.47664940564107583
0.390889 0.580583 -0.018495594358924144
0.356163 0.591236 -0.11082659435892415
0.390889 0.556944 0.33754240564107585
0.356163 0.600383 0.16363940564107585
0.356163 0.488849 0.48528640564107584
0.356163 0.576377 0.22658440564107585
0.371464 0.482561 -0.11186259435892414
0.385402 0.482561 -0.001243594358924155
0.356163 0.610217 0.34030340564107586
0.356163 0.531062 0.09848440564107586
0.390889 0.520339 0.3312694056410759
0.356163 0.603693 0.46580040564107583
0.356163 0.57006 0.36590840564107585
0.356163 0.531361 0.018336405641075845
0.356163 0.589288 -0.07080859435892416
0.383 0.482561 0.39192140564107586
0.356163 0.562447 0.15664540564107585
0.356163 0.606831 0.029504405641075857
0.390889 0.565433 0.12443040564107585
0.374419 0.53842 -0.14627459435892415
0.390889 0.523183 0.24306740564107587
0.390889 0.570087 0.17469940564107583
0.356163 0.517934 0.30564640564107587
0.356163 0.490112 0.2712424056410758
0.390889 0.565815 0.46798040564107585
0.390889 0.497616 -0.030619594358924154
0.356163 0.577938 0.44481540564107586
0.390889 0.540015 -0.08062359435892415
0.387776 0.621466 0.07217940564107585
0.356163 0.585699 -0.14350459435892415
0.390889 0.514304 0.11191240564107585
0.380467 0.621466 -0.07903959435892415
0.390889 0.505639 0.02884640564107585
0.356163 0.487719 -0.08098059435892414
0.356163 0.59456 0.13232240564107584
0.362313 0.534738 0.5019474056410759
0.390889 0.612058 -0.005818594358924151
0.390889 0.591974 0.2927514056410758
0.356163 0.584347 0.05148140564107585
0.390889 0.566309 0.20861840564107587
0.356163 0.543402 0.3874044056410758
0.356163 0.548762 0.24764140564107584
0.356163 0.553918 -0.06347459435892415
0.356163 0.613406 0.2674144056410758
0.356163 0.502498 0.33650540564107584
0.357458 0.482561 0.15594440564107587
0.356233 0.482561 -0.13807659435892417
0.363515 0.482561 0.24316040564107583
0.383957 0.621466 0.16704540564107584
0.378172 0.580561 0.5019474056410759
0.390889 0.544531 -0.022700594358924145
0.390889 0.533855 0.18124640564107586
0.356163 0.60901 0.30167240564107584
0.390889 0.600044 0.32158540564107585
0.390889 0.576572 0.07471340564107584
0.390889 0.525305 0.05722540564107585
0.390889 0.568651 -0.09972159435892415
0.390889 0.496816 0.19699940564107585
0.390889 0.592248 -0.04482659435892415
0.390889 0.493204 0.32210540564107587
0.356163 0.535238 -0.04178759435892414
0.359322 0.482561 0.06858540564107585
0.356163 0.525698 0.40887540564107583
0.390889 0.523256 0.38514740564107586
0.356163 0.571932 0.47184340564107585
0.356163 0.528977 0.15077840564107586
0.390889 0.53911 0.2691634056410758
0.390889 0.527525 -0.12791259435892416
0.356163 0.528044 0.06439440564107585
0.390889 0.572305 0.35925640564107586
0.356163 0.608042 -0.09033659435892415
0.356163 0.538277 0.12459540564107585
0.390889 0.496719 0.28365840564107586
0.356163 0.530311 0.18277040564107586
0.37888 0.621466 -0.13494859435892415
0.365283 0.505491 -0.14627459435892415
0.357386 0.482561 0.39394340564107583
0.356163 0.510897 0.4595064056410758
0.390889 0.564539 -0.07410959435892416
0.356163 0.496132 0.01735540564107585
0.376161 0.482561 0.17266940564107586
0.369539 0.621466 0.44638840564107585
0.390889 0.517416 0.14897940564107584
0.356163 0.591548 0.28465640564107586
0.39007 0.621466 0.27766640564107586
0.390889 0.535789 0.03137140564107585
0.356163 0.582845 0.10577440564107585
0.362196 0.621466 0.04741640564107585
0.390889 0.526573 0.35417740564107586
0.390889 0.603846 0.18129540564107585
0.390889 0.612594 0.22778740564107586
0.356163 0.534787 -0.11445659435892415
-0.344149 0.566136 -0.012959594358924145
-0.354826 0.580888 -0.14627459435892415
-0.344149 0.581737 0.10396640564107584
-0.364649 0.482561 0.29701340564107587
-0.362934 0.482561 0.05427940564107585
-0.378875 0.482947 0.4157764056410758
-0.378875 0.495829 -0.09726159435892416
-0.344149 0.598888 0.4109194056410758
-0.34579 0.621466 0.5018914056410758
-0.378875 0.579569 0.19374640564107587
-0.378875 0.550488 0.34615240564107586
-0.378875 0.610762 -0.07592659435892414
-0.344149 0.5501 0.26687640564107584
-0.346436 0.621466 0.04319440564107585
-0.376634 0.482561 0.13339940564107586
-0.378875 0.556695 0.04732240564107585
-0.344149 0.490787 0.36366740564107586
-0.360662 0.482561 -0.039684594358924144
-0.344149 0.537345 0.40176440564107585
-0.378875 0.544489 0.14686240564107583
-0.376017 0.621466 0.15305440564107586
-0.36932 0.621466 -0.020342594358924146
-0.378875 0.519224 0.004718405641075854
-0.378875 0.510555 0.24641740564107584
-0.344149 0.552064 -0.08056059435892414
-0.344149 0.494245 0.4543274056410758
-0.378875 0.604531 0.4474604056410758
-0.378875 0.558068 0.43043140564107585
-0.376109 0.621466 -0.12789059435892414
-0.378875 0.529267 0.08569640564107585
-0.344149 0.574157 0.22665240564107586
-0.378875 0.543001 -0.10970759435892415
-0.344149 0.562579 0.31072540564107587
-0.344149 0.567267 0.16769940564107585
-0.372044 0.482561 0.20513040564107585
-0.378875 0.527197 -0.06557259435892414
-0.378875 0.60804 0.09507140564107586
-0.344149 0.597726 -0.04686259435892416
-0.378875 0.574574 0.25747340564107585
-0.378875 0.573727 0.3901674056410758
-0.344149 0.589089 0.35297440564107585
-0.358731 0.563645 0.5019474056410759
-0.378875 0.491005 0.3358254056410758
-0.345489 0.621466 0.11671940564107586
-0.357315 0.482561 0.001236405641075855
-0.344149 0.581742 0.034346405641075856
-0.344149 0.590464 0.28140140564107585
-0.378875 0.531721 0.4610604056410758
-0.378875 0.553782 0.22399840564107587
-0.370565 0.482561 0.48087740564107584
-0.378875 0.580285 0.31248340564107585
-0.378875 0.598814 0.48597740564107583
-0.378875 0.57188 -0.029286594358924153
-0.378875 0.601989 0.05067140564107585
-0.344149 0.531278 0.13707740564107584
-0.371035 0.52951 -0.14627459435892415
-0.344149 0.551245 -0.12263959435892414
-0.378875 0.491657 0.09002940564107585
-0.378875 0.516902 0.29738940564107585
-0.344149 0.5004 0.41137240564107586
-0.378875 0.526073 0.3968114056410758
-0.378875 0.564323 -0.07954059435892415
-0.344149 0.518793 -0.05715859435892416
-0.362718 0.482561 0.16713440564107584
-0.378875 0.519543 0.21106340564107584
-0.344149 0.522466 0.06742340564107585
-0.344149 0.527247 0.36699640564107583
-0.344149 0.51202 0.23711940564107586
-0.373061 0.621466 0.019455405641075854
-0.344149 0.617075 -0.07907159435892415
-0.346383 0.482561 0.26195440564107586
-0.378875 0.513539 0.03913340564107585
-0.344149 0.549831 0.20188040564107584
-0.378875 0.505866 0.3689514056410758
-0.344149 0.620678 0.07721140564107584
-0.344149 0.599051 -0.004376594358924152
-0.350377 0.482561 -0.11019259435892416
-0.378875 0.589522 0.14191340564107585
-0.378875 0.540689 0.2744104056410758
-0.378875 0.539294 -0.027855594358924138
-0.363448 0.621466 0.3022664056410759
-0.344149 0.543002 -0.03559459435892416
-0.378875 0.566135 0.46173340564107584
-0.348916 0.621466 -0.14469359435892415
-0.344149 0.565984 0.41451440564107583
-0.344149 0.534854 0.014171405641075843
-0.344149 0.491284 0.4961944056410758
-0.344149 0.486125 -0.06571159435892414
-0.378875 0.543922 0.11590440564107585
-0.378875 0.512229 0.14120440564107584
-0.344149 0.536999 0.32773640564107587
-0.344149 0.524861 0.4540374056410758
-0.378875 0.546273 0.018746405641075853
-0.378875 0.594648 0.41912140564107586
-0.351374 0.482561 0.08366340564107586
-0.344149 0.589768 0.20156540564107583
-0.378875 0.570332 -0.12069959435892415
-0.352752 0.482561 0.22714440564107585
-0.344149 0.565512 -0.05469759435892414
-0.378875 0.578854 0.028550405641075846
-0.361836 0.482561 -0.13687559435892416
-0.358223 0.482561 0.11155440564107585
-0.378875 0.486682 -0.061249594358924145
-0.378875 0.607971 -0.04348059435892414
-0.344149 0.514922 0.28249140564107583
-0.378875 0.610945 0.12429240564107585
-0.378875 0.586158 0.36586040564107586
-0.344149 0.576157 0.25819140564107584
-0.344149 0.619804 -0.03001559435892416
-0.378875 0.546804 0.37260140564107586
-0.378875 0.621141 0.4158284056410758
-0.344149 0.489677 0.31167240564107584
-0.378875 0.593294 0.23960240564107588
-0.378875 0.49579 0.39341540564107585
-0.378278 0.567173 -0.14627459435892415
-0.378875 0.497211 0.18076540564107585
-0.351278 0.482561 0.19021840564107584
-0.344149 0.601047 0.44986940564107586
-0.378875 0.599398 0.33167440564107586
-0.378875 0.495425 0.021784405641075852
-0.378875 0.48402 0.27675340564107587
-0.344149 0.52756 0.30382540564107585
-0.378875 0.514086 -0.12908659435892417
-0.369446 0.621466 0.46193040564107585
-0.344149 0.509696 0.43525140564107584
-0.356504 0.482561 0.4372084056410758
-0.344149 0.596954 0.07578640564107585
-0.344149 0.567137 0.33400340564107583
-0.378875 0.530294 0.23202440564107585
-0.344149 0.585748 0.12717540564107585
-0.370372 0.4996 0.5019474056410759
-0.17918 0.621466 -0.12917759435892417
0.270159 0.509319 -0.14627459435892415
-0.281228 0.488008 -0.14627459435892415
0.152189 0.621466 -0.12651459435892415
-0.117695 0.482561 -0.14535459435892417
-0.01593 0.621466 -0.14314359435892415
0.148621 0.482561 -0.13813659435892417
0.291597 0.621466 -0.11213759435892416
-0.274373 0.621466 -0.11924059435892416
-0.096059 0.567489 -0.11154859435892416
-0.195659 0.531995 -0.14627459435892415
0.077189 0.575863 -0.14627459435892415
0.335087 0.560665 -0.14627459435892415
0.220284 0.584804 -0.11154859435892416
-0.298224 0.554141 -0.11154859435892416
0.162339 0.545592 -0.11154859435892416
-0.012654 0.559573 -0.11154859435892416
0.333647 0.482738 -0.11154859435892416
0.069101 0.50958 -0.14627459435892415
0.352907 0.621466 -0.13770059435892418
0.212114 0.482688 -0.14627459435892415
-0.103293 0.620415 -0.14627459435892415
0.051818 0.620987 -0.11154859435892416
-0.249645 0.571426 -0.14627459435892415
-0.222524 0.488582 -0.11154859435892416
-0.34281 0.504115 -0.14627459435892415
-0.010555 0.50928 -0.14627459435892415
0.286566 0.558518 -0.11154859435892416
-0.158885 0.560725 -0.11154859435892416
-0.0582 0.54747 -0.14627459435892415
0.120178 0.540199 -0.14627459435892415
-0.327791 0.618075 -0.11154859435892416
-0.064044 0.60939 -0.11154859435892416
0.101117 0.621466 -0.12838059435892413
0.04133 0.567844 -0.11154859435892416
-0.213749 0.562631 -0.11154859435892416
-0.068136 0.486348 -0.14627459435892415
-0.166599 0.482561 -0.13709859435892413
-0.30261 0.587712 -0.14627459435892415
0.259821 0.61108 -0.14627459435892415
0.19144 0.569611 -0.14627459435892415
0.254322 0.559987 -0.14627459435892415
-0.135496 0.616353 -0.11154859435892416
-0.101312 0.517045 -0.11154859435892416
-0.312651 0.485039 -0.11154859435892416
0.085464 0.483514 -0.11154859435892416
-0.228639 0.621466 -0.12460059435892416
-0.123985 0.557016 -0.14627459435892415
0.032978 0.482561 -0.13944459435892415
0.025213 0.605653 -0.14627459435892415
0.252314 0.489384 -0.11154859435892416
0.083355 0.532114 -0.11154859435892416
0.190708 0.617391 -0.14627459435892415
0.131321 0.586494 -0.11154859435892416
0.33224 0.50835 -0.14627459435892415
0.178636 0.525789 -0.14627459435892415
0.298433 0.594964 -0.14627459435892415
-0.205496 0.594368 -0.14627459435892415
-0.023898 0.482561 -0.11190559435892415
0.298996 0.542299 -0.14627459435892415
0.105243 0.492787 -0.14627459435892415
0.02635 0.523504 -0.14627459435892415
0.004417 0.609388 -0.11154859435892416
0.258908 0.588983 -0.11154859435892416
0.232369 0.621466 -0.11162959435892415
-0.158242 0.511574 -0.11154859435892416
0.171485 0.592058 -0.11154859435892416
-0.035203 0.577591 -0.14627459435892415
-0.052496 0.561359 -0.11154859435892416
0.196171 0.504947 -0.11154859435892416
-0.260456 0.518996 -0.14627459435892415
-0.277573 0.585041 -0.11154859435892416
-0.157796 0.5739 -0.14627459435892415
0.125164 0.597326 -0.14627459435892415
0.230473 0.54945 -0.11154859435892416
0.306124 0.482561 -0.14392059435892413
-0.211694 0.492399 -0.14627459435892415
-0.078313 0.488875 -0.11154859435892416
-0.054075 0.609585 -0.14627459435892415
-0.092649 0.537131 -0.14627459435892415
0.07023 0.617181 -0.14627459435892415
-0.206371 0.527648 -0.11154859435892416
0.081077 0.57819 -0.11154859435892416
0.326567 0.619764 -0.11154859435892416
0.161549 0.501537 -0.11154859435892416
-0.340409 0.583587 -0.11154859435892416
-0.270202 0.482561 -0.11236259435892414
-0.150124 0.615414 -0.14627459435892415
0.059695 0.542229 -0.14627459435892415
0.237267 0.530603 -0.14627459435892415
0.116786 0.547987 -0.11154859435892416
-0.186193 0.582407 -0.11154859435892416
-0.304235 0.621466 -0.14338759435892418
-0.314377 0.522596 -0.14627459435892415
0.335701 0.549759 -0.11154859435892416
-0.127697 0.552115 -0.11154859435892416
-0.130712 0.512152 -0.14627459435892415
0.347262 0.513262 -0.11154859435892416
-0.072842 0.536762 -0.11154859435892416
0.034837 0.53357 -0.11154859435892416
-0.240102 0.544982 -0.11154859435892416
-0.320226 0.482561 -0.14307159435892414
-0.223946 0.544874 -0.14627459435892415
0.21629 0.599975 -0.14627459435892415
0.046421 0.575274 -0.14627459435892415
-0.098816 0.621466 -0.11631259435892415
0.161762 0.550319 -0.14627459435892415
-0.107658 0.482561 -0.11765959435892416
-0.266139 0.613157 -0.14627459435892415
-0.053594 0.511694 -0.14627459435892415
0.113836 0.568652 -0.14627459435892415
0.243253 0.523389 -0.11154859435892416
0.167066 0.600696 -0.14627459435892415
0.070479 0.482561 -0.13629359435892413
0.205994 0.51768 -0.14627459435892415
-0.205642 0.611078 -0.11154859435892416
0.282927 0.571179 -0.14627459435892415
-0.14484 0.585324 -0.11154859435892416
-0.236768 0.60515 -0.14627459435892415
0.273168 0.482561 -0.13799859435892414
0.247254 0.493082 -0.14627459435892415
-0.085458 0.599002 -0.14627459435892415
0.117621 0.486808 -0.11154859435892416
0.135312 0.517052 -0.14627459435892415
0.223389 0.554479 -0.14627459435892415
-0.185783 0.482561 -0.11745559435892415
0.191794 0.482561 -0.12679159435892418
-0.210875 0.621201 -0.14627459435892415
0.081843 0.61221 -0.11154859435892416
0.306562 0.483565 -0.11154859435892416
-0.034156 0.541596 -0.11154859435892416
0.176934 0.621466 -0.11584659435892415
-0.297383 0.61036 -0.11154859435892416
0.017439 0.5536 -0.11154859435892416
0.204564 0.606124 -0.11154859435892416
-0.227758 0.596616 -0.11154859435892416
0.013369 0.486607 -0.11154859435892416
-0.021718 0.607487 -0.11154859435892416
0.307224 0.515514 -0.14627459435892415
-0.321037 0.541792 -0.11154859435892416
-0.042184 0.482561 -0.12999459435892413
0.068881 0.555609 -0.11154859435892416
-0.253427 0.546267 -0.14627459435892415
-0.175249 0.555429 -0.14627459435892415
0.046774 0.482561 -0.11821859435892414
-0.251079 0.51522 -0.11154859435892416
0.323453 0.597114 -0.14627459435892415
-0.16895 0.599176 -0.14627459435892415
0.220851 0.506397 -0.11154859435892416
-0.093121 0.482561 -0.14558359435892415
0.008713 0.494099 -0.14627459435892415
-0.278259 0.591836 -0.14627459435892415
-0.033059 0.499103 -0.14627459435892415
-0.33295 0.590133 -0.14627459435892415
-0.276239 0.545708 -0.11154859435892416
0.024394 0.584162 -0.11154859435892416
-0.12981 0.621466 -0.13652759435892414
0.132369 0.505712 0.11783840564107585
0.254277 0.505712 0.45760040564107585
-0.099318 0.505712 0.29835040564107584
-0.188816 0.505712 0.08150640564107585
0.026188 0.505712 -0.09886659435892416
0.099575 0.514394 0.32607240564107587
0.286198 0.505712 0.23629940564107588
-0.285948 0.514394 0.36804740564107585
0.302336 0.505712 0.03551940564107585
-0.336713 0.505712 0.18929240564107586
-0.022508 0.505712 0.06264940564107585
0.021985 0.514394 0.20648540564107587
0.175656 0.514394 -0.02495259435892415
-0.010423 0.505712 0.3981304056410758
-0.199808 0.514394 0.21186340564107586
-0.20896 0.505712 -0.048633594358924156
0.21967 0.514394 0.3371844056410758
-0.09023 0.514394 0.15765640564107586
0.250735 0.514394 0.13261140564107585
-0.089913 0.514394 -0.02294059435892415
-0.179755 0.514394 0.38942140564107586
0.152603 0.514394 0.42567340564107586
0.16615 0.514394 0.24627040564107583
0.077885 0.505712 0.002108405641075853
-0.265647 0.505712 0.27694140564107583
-0.099565 0.505712 0.43422240564107584
-0.278646 0.505712 0.09954840564107585
0.29709 0.514394 -0.05440759435892416
-0.294919 0.505712 -0.05412959435892416
-0.015024 0.514394 0.28641640564107584
0.20837 0.514394 0.05238840564107585
0.049701 0.514394 0.10183640564107585
0.290093 0.505712 0.3843914056410758
0.069281 0.514394 0.40135640564107583
-0.003021 0.514394 -0.014342594358924154
-0.11328 0.505712 0.05577540564107585
0.110758 0.514394 -0.07020959435892414
0.099186 0.505712 0.19358640564107585
-0.051249 0.505712 -0.09171459435892414
-0.176235 0.505712 0.29340840564107584
-0.281762 0.505712 0.021732405641075855
0.322309 0.514394 0.30718740564107583
0.323991 0.514394 0.10684340564107585
0.223895 0.514394 -0.08834859435892416
-0.136382 0.514394 -0.08001859435892415
-0.262785 0.505712 0.17510840564107585
-0.175453 0.514394 0.46482740564107583
-0.05701 0.514394 0.22693740564107584
0.217431 0.505712 0.19304040564107583
0.032311 0.505712 0.34105140564107583
0.071592 0.505712 0.2653334056410758
-0.286947 0.505712 0.44700240564107585
-0.024056 0.505712 0.12872540564107585
0.12766 0.505712 0.04510840564107585
-0.204294 0.514394 0.14412240564107584
0.212459 0.514394 0.40185840564107583
-0.081653 0.505712 0.3723494056410758
-0.221066 0.514394 0.02312740564107585
0.241876 0.505712 0.0018474056410758555
0.155225 0.514394 0.36459940564107585
-0.151348 0.514394 0.17258140564107585
-0.115966 0.505712 0.22770840564107586
-0.337274 0.514394 0.10215440564107585
0.191194 0.505712 0.11281940564107584
0.164269 0.505712 0.16757140564107587
0.266014 0.514394 0.29049440564107587
-0.032091 0.505712 0.3412864056410759
-0.221507 0.505712 0.42801640564107585
-0.074271 0.505712 0.09702740564107586
-0.155536 0.514394 -0.027492594358924163
-0.322278 0.514394 0.31343840564107583
0.048573 0.505712 0.15864740564107585
0.044597 0.505712 0.04621240564107585
0.344609 0.514394 0.38474740564107585
0.277475 0.505712 0.18002840564107586
0.019173 0.505712 0.45785940564107586
-0.129657 0.505712 0.12123440564107585
-0.059471 0.514394 0.021793405641075847
-0.304627 0.505712 0.23252640564107585
0.254912 0.505712 0.08007740564107585
0.338269 0.505712 0.24702440564107586
-0.233659 0.505712 0.3662454056410758
-0.15324 0.514394 0.3396474056410759
0.14507 0.505712 0.30227740564107586
-0.034245 0.505712 0.18152340564107583
0.175302 0.505712 -0.07511559435892416
0.125553 0.514394 -0.012682594358924146
-0.329754 0.514394 0.03293840564107585
0.337952 0.514394 0.16961040564107585
-0.330631 0.514394 -0.017138594358924147
-0.250727 0.514394 0.22192640564107585
-0.009578 0.505712 -0.06632159435892414
-0.052857 0.514394 0.44246740564107584
0.118014 0.514394 0.26076040564107583
0.040665 0.505712 -0.02907259435892416
-0.162234 0.514394 0.04389740564107585
-0.136482 0.505712 0.40441640564107584
0.087722 0.505712 0.12974640564107584
-0.234348 0.514394 0.10890940564107585
-0.21066 0.505712 0.32350440564107585
0.218575 0.514394 0.23790140564107587
-0.144709 0.514394 0.2617814056410758
0.220747 0.505712 0.2927554056410758
-0.258575 0.514394 0.40444940564107584
-0.279586 0.514394 -0.10343459435892415
-0.255473 0.514394 0.31928240564107585
0.249102 0.505712 -0.041876594358924144
0.11407 0.514394 0.38051040564107586
-0.218697 0.505712 0.28026240564107585
0.086179 0.505712 0.4404394056410758
0.027493 0.505712 0.28666440564107587
-0.057892 0.505712 0.28569140564107587
-0.251363 0.514394 -0.04898659435892415
0.26817 0.505712 0.33280440564107583
0.185591 0.505712 0.01707840564107585
-0.189779 0.505712 -0.08677259435892416
-0.0961 0.505712 -0.06898159435892416
0.343259 0.505712 0.05698540564107585
-0.308553 0.505712 0.4027224056410758
0.305766 0.514394 -0.10895059435892414
0.306293 0.514394 -0.005440594358924147
0.003281 0.505712 0.16062740564107586
0.338655 0.514394 -0.04890259435892415
0.087987 0.514394 0.05423040564107585
-0.340405 0.514394 -0.09754659435892414
0.033883 0.505712 0.24568240564107585
-0.292987 0.505712 0.13842940564107586
0.071777 0.505712 -0.06044859435892415
0.318381 0.514394 0.34805040564107587
-0.099681 0.505712 0.017366405641075847
0.121072 0.514394 -0.10961659435892414
-0.321346 0.505712 0.2696554056410759
0.070069 0.505712 0.22177140564107584
-0.050477 0.505712 -0.020241594358924156
0.252594 0.514394 0.39687440564107584
0.058302 0.514394 0.3114804056410759
0.182458 0.514394 0.32181740564107586
0.264461 0.514394 -0.08286659435892414
0.15571 0.514394 0.20557840564107585
0.01101 0.505712 0.10520640564107585
-0.182215 0.514394 0.24862040564107585
-0.117822 0.505712 0.35542440564107586
0.25284 0.505712 0.03985140564107585
-0.016859 0.505712 0.21680840564107584
0.286752 0.505712 0.11950540564107585
-0.239989 0.514394 0.05754940564107585
-0.255113 0.505712 -0.006551594358924148
0.195241 0.514394 0.36713040564107585
-0.051525 0.505712 0.40484140564107585
0.093475 0.505712 0.09173940564107586
-0.012901 0.514394 0.43896640564107586
0.215626 0.505712 0.14473640564107584
-0.161765 0.505712 0.20820540564107587
0.353202 0.505712 0.13634340564107586
0.173186 0.505712 0.06048940564107585
-0.132252 0.505712 -0.00029059435892414553
-0.159713 0.514394 0.10277740564107585
0.204236 0.514394 -0.055059594358924144
0.209984 0.505712 -0.015166594358924146
-0.055434 0.514394 0.14420140564107586
0.315544 0.514394 0.21730740564107587
-0.236645 0.514394 -0.09089459435892415
0.243405 0.514394 0.16777240564107584
-0.191301 0.505712 0.17612840564107585
0.009004 0.505712 0.04539340564107585
0.052703 0.514394 0.36890640564107585
-0.222683 0.514394 0.24599240564107583
0.305867 0.505712 0.07754140564107585
-0.198466 0.505712 0.36057240564107584
0.000862 0.514394 0.3547704056410758
0.306318 0.505712 0.15649340564107583
0.297158 0.514394 0.41786440564107585
0.017949 0.505712 0.42273140564107586
0.038458 0.514394 -0.06719659435892415
-0.076851 0.505712 0.06223540564107585
-0.023155 0.505712 0.012458405641075851
-0.008813 0.514394 -0.09975859435892416
0.130327 0.505712 0.16127740564107584
0.329825 0.505712 -0.08576659435892416
-0.307718 0.514394 0.08317040564107585
-0.293532 0.514394 0.18785940564107584
0.097055 0.514394 0.29178840564107583
-0.18783 0.505712 0.022454405641075856
0.264596 0.514394 0.21065640564107585
-0.064621 0.514394 0.33467640564107587
-0.189149 0.514394 -0.021199594358924156
0.238839 0.505712 0.26407240564107587
0.27481 0.505712 -0.014244594358924154
0.23203 0.505712 0.10495640564107585
-0.027992 0.514394 0.25521340564107586
0.333478 0.505712 0.02244740564107585
-0.084481 0.514394 0.24580940564107584
-0.315279 0.514394 0.16161540564107585
0.161272 0.514394 0.13173640564107586
0.124797 0.514394 0.34768340564107586
0.191899 0.505712 0.26507140564107584
-0.3149 0.514394 0.35303840564107586
-0.287138 0.505712 -0.012702594358924152
0.204903 0.505712 0.4577094056410758
0.278797 0.514394 0.05719840564107585
-0.043112 0.505712 0.37358040564107586
0.104378 0.514394 0.23152240564107585
0.139964 0.505712 -0.08065559435892415
0.11092 0.514394 0.4217354056410758
-0.147418 0.505712 0.07109740564107585
-0.224381 0.514394 -0.00995359435892415
0.172064 0.514394 0.40012740564107585
0.005114 0.514394 0.2615844056410758
0.07962 0.505712 0.3542394056410758
0.24342 0.514394 0.35832940564107585
0.327565 0.514394 0.4419954056410758
0.309934 0.514394 0.27816240564107586
-0.110593 0.505712 0.09612140564107585
-0.269809 0.514394 0.06777640564107584
0.011352 0.505712 0.013978405641075844
0.15317 0.514394 -0.04691859435892416
0.292445 0.505712 0.31166440564107584
-0.291992 0.514394 0.2916144056410758
-0.296335 0.514394 0.04795140564107585
-0.175874 0.505712 0.13466840564107585
0.066991 0.514394 0.19204240564107583
0.112176 0.505712 -0.03935459435892415
0.169602 0.514394 0.2855354056410758
0.115543 0.505712 0.015195405641075854
0.253923 0.505712 0.42645640564107584
-0.122972 0.514394 0.18397740564107584
0.333714 0.505712 0.41193740564107584
-0.031747 0.514394 0.3119844056410758
-0.14589 0.505712 0.29679040564107584
-0.01472 0.514394 0.09082540564107586
-0.221134 0.514394 0.39250940564107584
0.022078 0.514394 0.13197340564107585
0.133646 0.514394 0.07334340564107585
-0.170619 0.505712 -0.06353859435892416
-0.194971 0.514394 0.44194640564107585
0.149682 0.514394 0.33051440564107587
-0.045988 0.514394 0.09486740564107585
-0.112683 0.514394 0.32768340564107584
0.059152 0.514394 0.07410640564107585
-0.253423 0.514394 0.25094640564107584
-0.15778 0.514394 0.4417004056410758
0.354114 0.505712 0.21905540564107584
0.077587 0.505712 0.16038440564107587
0.351822 0.505712 0.08458240564107584
0.144627 0.505712 0.02178340564107585
0.128232 0.505712 0.20654940564107585
-0.211322 0.514394 0.06031740564107585
-0.075947 0.514394 0.41739540564107586
-0.311374 0.505712 0.012542405641075852
-0.117259 0.514394 -0.05155559435892414
-0.058462 0.514394 0.25786940564107586
-0.116749 0.514394 0.14717440564107587
0.279017 0.505712 0.43999440564107584
-0.325396 0.505712 0.3798874056410758
-0.048095 0.505712 0.05043340564107585
-0.225326 0.505712 0.16097340564107585
0.317648 0.505712 0.3779414056410758
0.282286 0.505712 0.01556540564107585
-0.02657 0.514394 -0.04561259435892416
-0.138477 0.505712 0.3763684056410758
0.164531 0.505712 0.4495724056410758
0.112676 0.514394 0.13910340564107584
-0.265246 0.505712 0.14719440564107586
-0.256969 0.505712 0.034513405641075856
-0.279549 0.505712 0.24466740564107586
0.262355 0.514394 0.25194440564107584
0.336799 0.514394 0.19906240564107586
0.19477 0.505712 0.07799740564107585
0.328712 0.505712 -0.024448594358924144
0.353441 0.514394 -0.07230859435892416
-0.307258 0.514394 -0.10360859435892415
-0.275373 0.505712 -0.07359159435892414
0.22281 0.514394 0.019495405641075852
-0.11437 0.514394 0.39087040564107584
-0.335587 0.505712 0.33755840564107586
-0.110515 0.514394 0.2532334056410758
-0.078788 0.514394 0.45023740564107584
0.172267 0.505712 0.34559640564107585
0.03473 0.505712 0.0007094056410758554
0.337135 0.514394 0.28480840564107585
0.004828 0.505712 0.18734040564107585
-0.276688 0.514394 -0.03565859435892414
-0.217632 0.505712 -0.07384659435892414
0.082215 0.505712 -0.02413559435892415
-0.311579 0.505712 0.20686840564107584
0.189282 0.505712 0.14764140564107586
0.068711 0.505712 0.02694540564107585
-0.271817 0.505712 0.34745540564107585
-0.221551 0.505712 0.19961440564107585
-0.064207 0.505712 0.16744140564107585
0.239406 0.514394 0.31982340564107586
-0.245479 0.514394 0.43409340564107585
-0.185265 0.505712 0.3296904056410758
-0.267331 0.514394 0.19929440564107587
0.319526 0.505712 0.13398840564107584
0.042261 0.505712 0.44500440564107585
0.02249 0.514394 -0.04529659435892415
0.285587 0.505712 0.35903340564107583
0.275991 0.514394 0.09204140564107585
-0.028284 0.514394 0.41842240564107586
-0.320722 0.514394 -0.06660359435892414
-0.173169 0.505712 0.36410140564107585
-0.284631 0.514394 0.40103040564107584
0.104714 0.514394 0.11278440564107585
0.013584 0.514394 -0.07206359435892416
-0.284586 0.505712 0.21714040564107584
-0.209733 0.514394 0.11398840564107585
0.060213 0.514394 0.24469640564107586
0.035592 0.505712 0.4048774056410758
0.005192 0.514394 0.22511740564107585
0.2997 0.505712 0.19149640564107584
-0.142255 0.514394 -0.050870594358924145
-0.134006 0.514394 -0.10611559435892416
0.300368 0.514394 -0.08458259435892414
-0.14002 0.514394 0.21667940564107585
0.193416 0.514394 0.24193840564107583
-0.227632 0.505712 0.08677140564107585
-0.125194 0.514394 0.07825940564107585
-0.168187 0.505712 0.2701264056410759
-0.025113 0.505712 -0.02087259435892415
0.028445 0.514394 0.36507840564107585
-0.193841 0.505712 0.26842940564107587
0.332526 0.505712 0.33004240564107584
0.035653 0.514394 0.18618040564107585
-0.316459 0.505712 -0.04256059435892416
-0.061814 0.514394 0.36064240564107586
-0.255653 0.505712 0.11679740564107585
-0.109762 0.505712 -0.009444594358924155
0.126572 0.505712 0.3250844056410758
0.065026 0.505712 0.4285714056410758
0.00279 0.514394 0.07413040564107584
-0.09397 0.505712 0.21776140564107585
0.133711 0.514394 0.44473440564107586
-0.119763 0.514394 0.027539405641075848
0.348078 0.505712 0.10838740564107585
0.333362 0.514394 -4.594358924150943e-06
-0.322483 0.514394 0.45417040564107586
-0.071953 0.514394 -0.10035059435892414
-0.309231 0.514394 0.12300840564107585
-0.269416 0.514394 0.4329184056410758
-0.305096 0.505712 0.32764240564107583
0.159815 0.514394 -0.09090459435892416
0.053348 0.514394 -0.08568359435892416
-0.058579 0.514394 -0.07088559435892415
-0.163469 0.514394 0.3112644056410758
0.235257 0.505712 -0.06096059435892416
0.239814 0.505712 0.20031240564107583
0.212603 0.514394 0.09490240564107585
-0.031622 0.514394 0.14916340564107586
0.159406 0.505712 -0.010504594358924146
-0.289179 0.505712 0.42372440564107583
-0.177673 0.514394 0.22573140564107586
0.462267 0.713206 0.5305074056410759
-0.247832 0.640215 0.5191344056410758
-0.044122 0.504634 0.5263864056410759
-0.467728 0.511899 0.5283014056410759
0.114536 0.580506 0.5366734056410759
0.148373 0.413118 0.5357664056410759
0.374063 0.401533 0.5154614056410759
0.343167 0.603402 0.5362034056410758
-0.328719 0.525062 0.5019474056410759
-0.120771 0.614329 0.46722140564107584
-0.360865 0.716252 0.5281504056410758
-0.177842 0.527262 0.5366734056410759
0.095171 0.700979 0.5366734056410759
-0.439788 0.628766 0.5366734056410759
0.203172 0.613802 0.46722140564107584
0.003596 0.616663 0.5263944056410759
0.070348 0.482561 0.48302240564107585
0.452804 0.58938 0.5366734056410759
0.483492 0.40193 0.5203124056410758
-0.404004 0.430226 0.5366734056410759
0.424188 0.486744 0.5366734056410759
0.181138 0.504593 0.5263824056410759
-0.241327 0.549497 0.46722140564107584
0.292976 0.689024 0.5366734056410759
-0.080196 0.702789 0.5366734056410759
0.248951 0.570358 0.5366734056410759
-0.232746 0.451443 0.5366734056410759
0.331047 0.505607 0.5264744056410758
0.081596 0.620404 0.46722140564107584
0.183474 0.65546 0.5366734056410759
-0.078766 0.579207 0.5366734056410759
-0.009925 0.550751 0.46722140564107584
0.248456 0.428983 0.5366734056410759
-0.098158 0.439024 0.5366734056410759
0.38889 0.669149 0.5366734056410759
-0.017797 0.430758 0.5366734056410759
0.280023 0.621466 0.48713240564107585
-0.174476 0.616367 0.5264214056410759
0.389958 0.553219 0.5019474056410759
-0.254402 0.522281 0.5366734056410759
-0.23217 0.709497 0.5320624056410759
-0.440951 0.71326 0.5304794056410759
-0.345375 0.451748 0.5019474056410759
0.025395 0.706206 0.5366734056410759
0.024672 0.514134 0.5320954056410758
-0.108354 0.517772 0.5019474056410759
-0.285856 0.614598 0.46722140564107584
0.081952 0.548946 0.46722140564107584
-0.382716 0.573919 0.5366734056410759
0.111842 0.51362 0.5302794056410759
-0.161052 0.457164 0.5366734056410759
-0.074236 0.562509 0.46722140564107584
0.168136 0.569839 0.5019474056410759
0.32882 0.578745 0.46722140564107584
0.314075 0.487099 0.46722140564107584
0.06636 0.449865 0.5366734056410759
-0.021387 0.611775 0.46722140564107584
0.072603 0.644881 0.5240074056410758
0.216636 0.553612 0.46722140564107584
0.378912 0.46356 0.5019474056410759
-0.055247 0.647152 0.5296424056410759
0.185702 0.482561 0.46994540564107584
0.242288 0.673622 0.5019474056410759
-0.221885 0.606562 0.46722140564107584
0.443245 0.645988 0.5019474056410759
0.130945 0.656827 0.5019474056410759
-0.311153 0.570988 0.5366734056410759
0.407809 0.719857 0.5059034056410758
-0.290615 0.476272 0.5019474056410759
-0.143395 0.571071 0.5019474056410759
-0.335467 0.573721 0.46722140564107584
-0.032571 0.482561 0.47244940564107585
-0.300362 0.659082 0.5366734056410759
-0.401395 0.489507 0.5366734056410759
0.044684 0.584025 0.5019474056410759
0.181568 0.719857 0.5199534056410758
-0.232425 0.482561 0.48861040564107583
0.283297 0.540679 0.5019474056410759
-0.217478 0.580531 0.5366734056410759
0.23397 0.487256 0.5210344056410758
-0.451381 0.459741 0.5366734056410759
0.128277 0.469493 0.5019474056410759
0.209995 0.401533 0.5068754056410759
-0.37971 0.668687 0.5019474056410759
-0.304092 0.719857 0.5078924056410759
0.349774 0.706206 0.5366734056410759
-0.358141 0.40395 0.5268044056410759
-0.026715 0.564907 0.5366734056410759
-0.11508 0.620436 0.5260024056410758
-0.163851 0.694602 0.5366734056410759
0.140754 0.598621 0.46722140564107584
-0.427432 0.546314 0.5366734056410759
0.209118 0.610746 0.5271104056410759
0.421918 0.435169 0.5366734056410759
-0.382914 0.62571 0.5366734056410759
-0.182725 0.573965 0.46722140564107584
-0.028634 0.718136 0.5259744056410759
0.025271 0.46942 0.5019474056410759
-0.378983 0.521284 0.5019474056410759
-0.266071 0.402775 0.5250164056410759
0.125368 0.517067 0.46722140564107584
0.292659 0.474149 0.5297564056410758
-0.254487 0.582407 0.5019474056410759
-0.431357 0.67279 0.5019474056410759
-0.142788 0.482561 0.49899240564107583
0.01423 0.401533 0.5139194056410759
0.344844 0.434282 0.5366734056410759
0.208131 0.450991 0.5019474056410759
0.134132 0.719857 0.5123214056410759
0.482176 0.630439 0.5251574056410758
0.317354 0.714367 0.5019474056410759
-0.052542 0.601306 0.5019474056410759
0.262132 0.567739 0.46722140564107584
-0.167894 0.620175 0.46722140564107584
0.195067 0.552596 0.5366734056410759
-0.213858 0.533919 0.5019474056410759
0.300294 0.585165 0.5366734056410759
0.251066 0.629889 0.5225744056410758
0.331498 0.550688 0.5366734056410759
-0.068674 0.474101 0.5019474056410759
-0.113748 0.549187 0.5366734056410759
-0.191144 0.457363 0.5019474056410759
-0.053643 0.401533 0.5192424056410758
0.230048 0.700851 0.5366734056410759
0.412802 0.534208 0.5366734056410759
-0.284489 0.564535 0.46722140564107584
0.1518 0.623518 0.5248844056410759
-0.28972 0.616161 0.5264404056410759
0.025813 0.621466 0.4851394056410758
0.469053 0.491665 0.5366734056410759
0.068755 0.524056 0.5366734056410759
-0.045909 0.544292 0.5019474056410759
-0.460295 0.589429 0.5322404056410759
0.112955 0.616104 0.5019474056410759
-0.029841 0.670359 0.5019474056410759
0.177183 0.525772 0.46722140564107584
-0.006576 0.521465 0.5019474056410759
0.313475 0.531108 0.46722140564107584
0.226665 0.528582 0.5019474056410759
-0.096593 0.412411 0.5019474056410759
0.088604 0.574535 0.5019474056410759
0.109467 0.443584 0.5366734056410759
0.402716 0.603076 0.5019474056410759
0.477224 0.538459 0.5303014056410759
0.027871 0.565388 0.5366734056410759
0.032855 0.548958 0.46722140564107584
0.19591 0.683901 0.5019474056410759
-0.195335 0.661856 0.5366734056410759
-0.153771 0.524092 0.5019474056410759
0.362975 0.618307 0.5019474056410759
-0.272704 0.698928 0.5366734056410759
-0.113929 0.54098 0.46722140564107584
0.074763 0.594151 0.5366734056410759
-0.165126 0.659665 0.5019474056410759
-0.180751 0.420024 0.5366734056410759
-0.100379 0.588888 0.5019474056410759
-0.006986 0.676229 0.5366734056410759
-0.004151 0.583567 0.5019474056410759
-0.274039 0.534881 0.5019474056410759
0.058496 0.54468 0.5019474056410759
-0.446737 0.558727 0.5019474056410759
-0.080034 0.621466 0.47820940564107584
-0.296834 0.454417 0.5366734056410759
0.412158 0.581472 0.5366734056410759
0.320057 0.604337 0.5019474056410759
0.350126 0.563865 0.5019474056410759
0.263121 0.482561 0.4922854056410758
0.148202 0.505764 0.5019474056410759
-0.272332 0.673503 0.5019474056410759
0.199433 0.431794 0.5366734056410759
-0.3235 0.488698 0.5215574056410759
0.14635 0.459563 0.5366734056410759
0.382016 0.515276 0.5192244056410759
-0.14322 0.593429 0.5366734056410759
0.24312 0.614667 0.46722140564107584
-0.204888 0.596932 0.5019474056410759
-0.106757 0.476196 0.5255934056410758
-0.224395 0.49894 0.5252714056410759
0.428734 0.658413 0.5366734056410759
0.168506 0.450412 0.5019474056410759
0.031066 0.65342 0.5346604056410759
-0.415207 0.683943 0.5366734056410759
0.263202 0.588964 0.5019474056410759
-0.133476 0.717643 0.5265744056410758
-0.308289 0.591607 0.5019474056410759
-0.011269 0.447941 0.5019474056410759
-0.43926 0.401533 0.5134454056410759
0.284053 0.41297 0.5335894056410758
-0.142333 0.661943 0.5366734056410759
-0.074764 0.490949 0.46722140564107584
0.22315 0.584403 0.5019474056410759
-0.312663 0.532198 0.46722140564107584
-0.330081 0.61338 0.46722140564107584
0.070979 0.719857 0.5094994056410759
-0.330265 0.694063 0.5366734056410759
0.181524 0.621466 0.49833640564107584
0.462705 0.435062 0.5366734056410759
-0.140808 0.423209 0.5019474056410759
-0.254556 0.508428 0.46722140564107584
-0.057392 0.696722 0.5019474056410759
-0.355426 0.467971 0.5349084056410759
0.223542 0.482561 0.47422140564107584
0.114321 0.65342 0.5359764056410758
0.148636 0.521135 0.5366734056410759
0.093338 0.47608 0.5259324056410759
0.285735 0.526182 0.5366734056410759
-0.131949 0.507961 0.46722140564107584
-0.415064 0.532347 0.5019474056410759
-0.103392 0.705856 0.5019474056410759
0.00676 0.467971 0.5345194056410759
-0.259299 0.455801 0.5019474056410759
0.453773 0.489557 0.5019474056410759
0.413234 0.699701 0.5366734056410759
0.074025 0.412673 0.5322394056410759
-0.259951 0.570641 0.5366734056410759
0.081075 0.68503 0.5019474056410759
-0.350608 0.64644 0.5287374056410759
0.316879 0.473498 0.5019474056410759
0.293983 0.619872 0.5261034056410758
0.321367 0.540927 0.5019474056410759
0.350081 0.669529 0.5366734056410759
0.189676 0.469602 0.5331194056410758
0.021394 0.546826 0.5019474056410759
0.483089 0.666938 0.5229184056410758
-0.332343 0.600175 0.5313984056410759
0.205912 0.64819 0.5019474056410759
-0.190932 0.505714 0.5019474056410759
0.225056 0.664868 0.5366734056410759
0.351101 0.695654 0.5019474056410759
0.24608 0.418604 0.5019474056410759
0.297544 0.575354 0.5019474056410759
-0.469199 0.416996 0.5266404056410758
-0.468178 0.658255 0.5277934056410759
-0.138318 0.633942 0.5019474056410759
0.165849 0.560664 0.46722140564107584
0.275306 0.449187 0.5019474056410759
-0.18422 0.566013 0.5019474056410759
-0.056225 0.432474 0.5366734056410759
-0.108234 0.672097 0.5366734056410759
0.403361 0.633488 0.5366734056410759
-0.355886 0.503498 0.5222704056410759
-0.471478 0.716828 0.5126814056410759
-0.137814 0.575986 0.46722140564107584
0.068443 0.617423 0.5019474056410759
-0.315168 0.406983 0.5298914056410758
-0.007064 0.700726 0.5019474056410759
0.099769 0.448612 0.5019474056410759
0.378994 0.443219 0.5366734056410759
-0.149074 0.55862 0.5366734056410759
-0.11123 0.553257 0.5019474056410759
-0.157359 0.4835 0.46722140564107584
-0.035051 0.57502 0.46722140564107584
-0.38407 0.668199 0.5366734056410759
-0.045839 0.470384 0.5328114056410759
-0.426307 0.583618 0.5366734056410759
0.057117 0.508479 0.5019474056410759
0.050937 0.516032 0.46722140564107584
0.203155 0.486884 0.5019474056410759
0.111734 0.566717 0.46722140564107584
-0.143107 0.524542 0.5366734056410759
0.116321 0.692235 0.5019474056410759
-0.289987 0.640274 0.5019474056410759
-0.264741 0.61519 0.5019474056410759
-0.204416 0.547539 0.46722140564107584
-0.070698 0.520997 0.5019474056410759
0.16454 0.662117 0.5019474056410759
0.148974 0.541898 0.5019474056410759
0.131929 0.551476 0.5366734056410759
-0.227547 0.41288 0.5322864056410759
0.04084 0.597089 0.46722140564107584
-0.106799 0.452096 0.5019474056410759
-0.248929 0.508746 0.5019474056410759
0.328229 0.463516 0.5366734056410759
0.384918 0.603871 0.5303264056410759
0.265115 0.656757 0.5366734056410759
0.194414 0.53701 0.5019474056410759
-0.348593 0.541747 0.5249074056410759
-0.296068 0.559818 0.5019474056410759
-0.378652 0.523512 0.5359624056410759
-0.368125 0.60187 0.5189454056410758
0.332 0.63295 0.5214644056410759
-0.235435 0.676869 0.5366734056410759
-0.260757 0.433301 0.5366734056410759
-0.289555 0.545915 0.5366734056410759
0.09497 0.515903 0.5019474056410759
0.260872 0.601177 0.5366734056410759
-0.005499 0.497625 0.5247944056410758
-0.281218 0.506001 0.5265104056410759
-0.231885 0.616902 0.5019474056410759
0.289103 0.697515 0.5019474056410759
0.287112 0.511621 0.46722140564107584
-0.076439 0.498836 0.5252344056410758
-0.245486 0.550683 0.5019474056410759
0.167282 0.695883 0.5366734056410759
0.162471 0.700664 0.5019474056410759
-0.18843 0.482561 0.47644540564107585
-0.032028 0.516108 0.46722140564107584
-0.392688 0.570187 0.5019474056410759
-0.177481 0.480885 0.5191134056410759
-0.421592 0.496425 0.5019474056410759
0.120727 0.574591 0.5019474056410759
-0.307555 0.589519 0.46722140564107584
0.048512 0.613451 0.5266864056410758
-0.201508 0.457833 0.5366734056410759
0.250286 0.538735 0.5366734056410759
-0.315287 0.494125 0.46722140564107584
-0.210516 0.524902 0.5366734056410759
-0.230464 0.699517 0.5019474056410759
-0.050549 0.541479 0.46722140564107584
-0.027885 0.533563 0.5366734056410759
0.172814 0.591057 0.46722140564107584
0.121432 0.482561 0.47451540564107586
0.189264 0.588805 0.5366734056410759
-0.003709 0.621466 0.4947294056410758
-0.246959 0.426763 0.5019474056410759
-0.214378 0.496881 0.46722140564107584
0.108721 0.60544 0.46722140564107584
-0.036309 0.466143 0.5019474056410759
0.312443 0.506632 0.5019474056410759
0.233991 0.52832 0.46722140564107584
-0.314834 0.621466 0.49960440564107583
0.092366 0.616978 0.5263664056410758
0.196357 0.683202 0.5366734056410759
-0.415754 0.647652 0.5366734056410759
0.240669 0.709694 0.5019474056410759
-0.325512 0.515381 0.5362574056410758
-0.181238 0.621466 0.4971404056410758
-0.28516 0.482561 0.47265740564107583
-0.219107 0.570021 0.5019474056410759
-0.460617 0.690103 0.5321684056410758
0.007683 0.588324 0.5366734056410759
0.39175 0.414276 0.5366434056410758
0.053724 0.653858 0.5019474056410759
0.483492 0.434467 0.5108184056410758
-0.009964 0.417732 0.5019474056410759
0.364958 0.483643 0.5197244056410759
0.046761 0.703421 0.5019474056410759
-0.107613 0.575887 0.46722140564107584
-0.023419 0.629535 0.5227024056410758
0.383673 0.705567 0.5366734056410759
-0.05116 0.591058 0.5366734056410759
0.073593 0.433964 0.5019474056410759
-0.098041 0.644864 0.5230214056410759
-0.385525 0.623222 0.5019474056410759
0.124124 0.523411 0.5019474056410759
-0.471478 0.463561 0.5127764056410758
0.333845 0.427978 0.5019474056410759
0.264441 0.531929 0.46722140564107584
0.277768 0.409153 0.5019474056410759
0.443838 0.561091 0.5366734056410759
0.026078 0.416415 0.5366734056410759
0.035528 0.461398 0.5366734056410759
0.017944 0.482561 0.47623240564107583
0.218262 0.570939 0.5366734056410759
0.103554 0.549083 0.5019474056410759
0.085854 0.5197 0.46722140564107584
-0.290046 0.40961 0.5019474056410759
0.014351 0.650367 0.5019474056410759
0.078147 0.670898 0.5366734056410759
-0.095945 0.489989 0.5019474056410759
-0.358249 0.684949 0.5366734056410759
-0.051041 0.699542 0.5366734056410759
-0.070409 0.671235 0.5366734056410759
-0.224362 0.525738 0.46722140564107584
-0.088451 0.608882 0.5285464056410759
-0.198665 0.602769 0.5366734056410759
-0.068112 0.445065 0.5019474056410759
0.206375 0.71592 0.5019474056410759
0.098715 0.482561 0.49253540564107584
-0.242357 0.595186 0.5366734056410759
-0.058101 0.629511 0.5019474056410759
-0.322999 0.644828 0.5209954056410758
0.386404 0.49128 0.5019474056410759
-0.300661 0.449489 0.5019474056410759
0.163915 0.478636 0.5019474056410759
0.319081 0.700679 0.5366734056410759
0.352422 0.537064 0.46722140564107584
-0.140622 0.454377 0.5019474056410759
0.137998 0.601692 0.5366734056410759
0.183644 0.408966 0.5309074056410759
0.44033 0.406594 0.5296924056410759
0.156368 0.663409 0.5366734056410759
0.344201 0.510426 0.5019474056410759
-0.064873 0.719857 0.5202534056410759
0.215783 0.621605 0.5019474056410759
-0.163973 0.401533 0.5141434056410759
0.279403 0.646765 0.5019474056410759
0.370764 0.560366 0.5212354056410758
-0.317616 0.482561 0.49425340564107584
-0.008215 0.482561 0.4862224056410758
0.142571 0.539075 0.46722140564107584
0.472019 0.461266 0.5342424056410758
0.232479 0.464322 0.5366734056410759
0.483492 0.595578 0.5150174056410759
0.224737 0.580145 0.46722140564107584
-0.275604 0.594671 0.5366734056410759
-0.023291 0.563689 0.5019474056410759
0.12108 0.411984 0.5320824056410759
-0.465243 0.605308 0.5019474056410759
0.163909 0.617127 0.46722140564107584
0.375796 0.646322 0.5285874056410759
-0.03125 0.658664 0.5366734056410759
-0.105777 0.717527 0.5267054056410758
0.422414 0.503509 0.5019474056410759
-0.410356 0.454135 0.5019474056410759
-0.087974 0.413608 0.5363754056410759
0.099609 0.713872 0.5019474056410759
-0.332729 0.718957 0.5034884056410759
0.08514 0.65722 0.5019474056410759
0.208152 0.561668 0.5019474056410759
-0.211278 0.644858 0.5226974056410759
-0.045949 0.493 0.5019474056410759
-0.261492 0.476595 0.5191204056410759
0.190284 0.585355 0.5019474056410759
-0.134439 0.59657 0.5019474056410759
0.466128 0.712266 0.5019474056410759
-0.407 0.456982 0.5366734056410759
-0.177535 0.434217 0.5019474056410759
-0.331543 0.664828 0.5366734056410759
-0.470976 0.402557 0.5041284056410759
-0.045958 0.621466 0.47110440564107586
0.146504 0.610942 0.5019474056410759
-0.357759 0.422311 0.5019474056410759
0.42252 0.664657 0.5019474056410759
0.288106 0.482561 0.47031840564107585
-0.248331 0.606718 0.46722140564107584
-0.201577 0.481584 0.5019474056410759
0.08515 0.593653 0.46722140564107584
0.295291 0.559296 0.5366734056410759
-0.299166 0.527118 0.5019474056410759
-0.094922 0.629453 0.5019474056410759
-0.452555 0.657256 0.5019474056410759
-0.184184 0.644813 0.5200984056410759
0.207271 0.646048 0.5280844056410758
-0.049214 0.551398 0.5366734056410759
-0.342544 0.567244 0.5263254056410759
0.138236 0.496695 0.5244574056410759
-0.046231 0.617187 0.5263474056410758
-0.056474 0.575429 0.5019474056410759
0.014651 0.530272 0.46722140564107584
0.035537 0.524939 0.5019474056410759
0.138587 0.646254 0.5285004056410758
0.184241 0.512865 0.5019474056410759
-0.423043 0.418878 0.5019474056410759
0.221955 0.689772 0.5019474056410759
0.353628 0.534905 0.5264094056410759
-0.209027 0.718697 0.5248524056410758
-0.233593 0.452534 0.5019474056410759
-0.114698 0.500551 0.5258554056410759
-0.443028 0.618002 0.5019474056410759
0.409341 0.57587 0.5019474056410759
-0.339382 0.418162 0.5366734056410759
0.258184 0.536245 0.5019474056410759
-0.259978 0.571219 0.46722140564107584
-0.141703 0.621466 0.48009540564107583
0.193315 0.563535 0.46722140564107584
-0.149112 0.679244 0.5019474056410759
-0.323735 0.540595 0.5366734056410759
-0.188404 0.541093 0.5019474056410759
0.071038 0.563188 0.5366734056410759
0.06243 0.501985 0.5261454056410758
0.252952 0.710111 0.5319224056410758
0.217925 0.542144 0.5366734056410759
0.00559 0.621466 0.47027940564107584
-0.411009 0.70842 0.5331474056410759
-0.334084 0.558987 0.5019474056410759
0.09005 0.494989 0.46722140564107584
0.432794 0.63368 0.5366734056410759
0.24933 0.405373 0.5284174056410759
-0.470273 0.568237 0.5031464056410758
-0.173892 0.555847 0.5366734056410759
-0.028083 0.616545 0.5019474056410759
0.040581 0.401533 0.5157764056410759
-0.128822 0.482561 0.47861340564107585
0.053858 0.679028 0.5019474056410759
0.430294 0.709136 0.5019474056410759
0.368175 0.6451 0.5019474056410759
0.138825 0.682261 0.5019474056410759
0.469411 0.470578 0.5019474056410759
-0.027901 0.589943 0.5019474056410759
0.298743 0.401533 0.5121224056410759
-0.387034 0.692088 0.5019474056410759
