0.193208 -0.703487 0.093018
0.170805 -0.556306 0.069931
0.170805 -0.64733 0.131216
0.193208 -0.60997 0.256284
0.170805 -0.767647 -0.408433
0.170805 -0.555001 0.228924
0.170805 -0.815345 -0.406362
0.170805 -0.809912 0.022296
0.193208 -0.634415 -0.471978
0.170805 -0.584011 0.191751
0.193208 -0.701361 -0.272376
0.170805 -0.811949 0.222055
0.193208 -0.53793 0.071652
0.193208 -0.642611 -0.360865
0.170805 -0.449068 -0.032939
0.170805 -0.69505 -0.014907
0.170805 -0.602924 -0.280025
0.193208 -0.474688 -0.481268
0.170805 -0.756987 -0.341098
0.170805 -0.521816 -0.499294
0.170805 -0.755462 -0.057989
0.193208 -0.689737 -0.448591
0.193208 -0.616342 -0.20429
0.170805 -0.695419 0.138209
0.170805 -0.517978 -0.098279
0.193208 -0.66933 -0.161828
0.193208 -0.64384 -0.14604
0.173978 -0.631242 -0.548837
0.170805 -0.608593 -0.033966
0.170805 -0.67062 0.009068
0.170805 -0.660507 -0.112467
0.170805 -0.739081 0.018086
0.193208 -0.505654 -0.159956
0.193208 -0.520266 -0.478041
0.193208 -0.442982 0.098466
0.193208 -0.788214 -0.310909
0.170805 -0.626524 -0.124761
0.170805 -0.459357 -0.473474
0.193208 -0.567331 -0.200391
0.193208 -0.669057 0.140505
0.193208 -0.725879 -0.150436
0.170805 -0.773928 0.23732
0.193208 -0.436678 -0.1771
0.170805 -0.485847 -0.19791
0.177157 -0.824043 -0.522684
0.193208 -0.498214 -0.437122
0.170805 -0.485687 -0.531092
0.193208 -0.527809 0.241571
0.193208 -0.580725 0.246195
0.193208 -0.684212 0.179672
0.193208 -0.689856 -0.541832
0.193208 -0.675578 -0.252415
0.170805 -0.675551 -0.544947
0.170805 -0.760246 0.094382
0.170805 -0.442956 -0.526563
0.193208 -0.648565 0.087032
0.193208 -0.712043 -0.096504
0.193208 -0.51545 -0.0842
0.193208 -0.57449 -0.146693
0.170805 -0.538588 -0.454089
0.170805 -0.53813 -0.002543
0.180238 -0.429731 0.25768
0.193208 -0.800373 -0.242614
0.170805 -0.70753 -0.445893
0.193208 -0.736502 0.244319
0.170805 -0.712127 -0.521199
0.170805 -0.584241 -0.213859
0.193208 -0.649743 -0.207417
0.170805 -0.631789 0.162312
0.193208 -0.451717 0.21001
0.170805 -0.470596 0.127872
0.170805 -0.500939 0.210789
0.170805 -0.774462 -0.297628
0.170805 -0.531085 -0.530044
0.170805 -0.530464 -0.251127
0.170805 -0.726301 -0.361671
0.170805 -0.624537 -0.343981
0.170805 -0.694868 0.082937
0.193208 -0.684586 -0.353707
0.170805 -0.628817 -0.2779
0.193208 -0.428044 -0.095096
0.193208 -0.59848 -0.294158
0.193208 -0.799278 -0.130529
0.170805 -0.784284 0.178602
0.193208 -0.451124 -0.38054
0.193208 -0.645697 -0.394047
0.170805 -0.43845 -0.226227
0.170805 -0.724395 0.256132
0.170805 -0.727616 0.169463
0.170805 -0.726054 -0.056535
0.193208 -0.527356 0.11758
0.193208 -0.545198 0.019217
0.170805 -0.782264 0.152403
0.193208 -0.4244 -0.14429
0.193208 -0.695111 -0.475691
0.193208 -0.601521 -0.00483
0.193208 -0.721937 -0.41307
0.170805 -0.492582 -0.305719
0.193208 -0.586514 0.130692
0.170805 -0.56915 0.041137
0.170805 -0.578873 -0.406325
0.193208 -0.508823 0.197019
0.170805 -0.74783 0.232801
0.193208 -0.532004 -0.022005
0.193208 -0.727647 -0.527131
0.193208 -0.490631 0.16726
0.170805 -0.593654 -0.457465
0.193208 -0.637491 -0.298065
0.170805 -0.497995 -0.507899
0.170805 -0.806978 -0.090312
0.170805 -0.748072 -0.228243
0.193208 -0.630183 0.024343
0.193208 -0.602531 -0.397849
0.170805 -0.564864 -0.089309
0.170805 -0.743366 0.135382
0.193208 -0.777713 -0.368256
0.170805 -0.633395 0.250906
0.193208 -0.582988 -0.448034
0.193208 -0.491524 -0.065643
0.193208 -0.711117 0.019183
0.170805 -0.627472 -0.075437
0.193208 -0.48278 -0.136161
0.193208 -0.710742 -0.216786
0.170805 -0.558204 -0.138163
0.170805 -0.48385 0.001366
0.193208 -0.445401 -0.281886
0.170805 -0.735491 -0.200783
0.193208 -0.552998 -0.177235
0.193208 -0.443634 -0.329508
0.170805 -0.699602 -0.203688
0.193208 -0.775677 -0.244494
0.190184 -0.824043 -0.452256
0.193208 -0.77018 -0.190749
0.193208 -0.505394 -0.012742
0.176568 -0.661547 0.25768
0.193208 -0.602141 -0.476472
0.193208 -0.806428 0.230667
0.193208 -0.604022 -0.05358
0.170805 -0.546518 0.110254
0.193208 -0.553166 -0.393085
0.170805 -0.46278 -0.541028
0.193208 -0.661288 -0.229059
0.170805 -0.465858 0.078601
0.170805 -0.473545 -0.331611
0.170805 -0.439254 -0.154324
0.170805 -0.644831 -0.252238
0.193208 -0.472053 -0.173671
0.193208 -0.711393 0.229296
0.170805 -0.685872 -0.066883
0.193208 -0.791357 -0.440163
0.18807 -0.793943 0.25768
0.170805 -0.76764 0.212566
0.193208 -0.763469 -0.116339
0.193208 -0.669037 0.102058
0.193208 -0.78734 -0.170325
0.193208 -0.60894 -0.163977
0.170805 -0.589753 -0.3402
0.170805 -0.607823 0.030233
0.193208 -0.785139 0.047995
0.170805 -0.467366 -0.275527
0.193208 -0.552352 -0.308012
0.191812 -0.824043 -0.367124
0.170805 -0.710149 -0.181594
0.193208 -0.771442 0.023928
0.193208 -0.454525 -0.523771
0.170805 -0.639411 0.06001
0.170805 -0.774545 -0.358839
0.19093 -0.613285 -0.548837
0.193208 -0.541739 -0.218984
0.193208 -0.483743 0.035783
0.170805 -0.654318 -0.510373
0.170805 -0.450201 0.245829
0.193208 -0.817646 -0.107413
0.193208 -0.498337 0.072617
0.193208 -0.804516 -0.004618
0.193208 -0.730403 -0.030906
0.193208 -0.477024 -0.545857
0.193208 -0.560048 -0.513718
0.193208 -0.754274 -0.154534
0.170805 -0.500213 0.1542
0.170805 -0.54371 0.188734
0.170805 -0.622065 -0.433833
0.170805 -0.708821 -0.473521
0.18052 -0.824043 0.110886
0.193208 -0.4273 -0.439722
0.17117 -0.784231 -0.548837
0.193208 -0.628195 -0.525587
0.170805 -0.739586 -0.121395
0.170805 -0.445738 0.02992
0.193208 -0.483779 -0.275294
0.170805 -0.736893 0.106721
0.193208 -0.594608 0.055409
0.170805 -0.590814 0.125138
0.193208 -0.534696 -0.292999
0.193208 -0.709589 0.120086
0.193208 -0.636222 -0.242882
0.170805 -0.787506 -0.421522
0.170805 -0.685015 -0.127203
0.170805 -0.808437 0.056622
0.170805 -0.619631 -0.464843
0.193208 -0.590063 0.216185
0.170805 -0.5091 -0.287852
0.170805 -0.452897 -0.135913
0.170805 -0.537318 0.057116
0.193208 -0.799515 -0.514901
0.193208 -0.69732 -0.198258
0.193208 -0.708338 -0.346461
0.193208 -0.779634 -0.019069
0.193208 -0.491594 -0.379836
0.170805 -0.779159 0.081677
0.170805 -0.502626 0.08857
0.170805 -0.763276 -0.516712
0.170805 -0.59615 0.083797
0.193208 -0.705413 -0.428685
0.170805 -0.540105 -0.283801
0.193208 -0.809091 -0.068507
0.170805 -0.589593 0.225914
0.170805 -0.480183 -0.046011
0.170805 -0.474658 0.056274
0.171993 -0.420784 0.091695
0.193208 -0.688239 -0.095778
0.170805 -0.423615 0.159209
0.193208 -0.759874 0.045378
0.193208 -0.440267 0.126442
0.193208 -0.468025 0.092019
0.193208 -0.611176 -0.249021
0.170805 -0.625036 -0.011989
0.193123 -0.824043 -0.288415
0.179279 -0.420784 -0.316512
0.170805 -0.516164 0.236148
0.170805 -0.815159 -0.039556
0.170805 -0.731297 -0.16004
0.170805 -0.81683 -0.489218
0.170805 -0.752992 -0.495275
0.193208 -0.554134 -0.024151
0.170805 -0.541929 0.246888
0.170805 -0.448482 -0.384974
0.193208 -0.810313 -0.311833
0.170805 -0.450193 -0.108341
0.193208 -0.650341 -0.320607
0.170805 -0.699801 -0.267762
0.170805 -0.761796 -0.129368
0.193208 -0.588742 -0.112295
0.193208 -0.57633 0.111262
0.193208 -0.732187 -0.504138
0.170805 -0.712203 0.064176
0.170805 -0.7343 -0.302344
0.170805 -0.577148 0.171058
0.170805 -0.562264 0.090874
0.170805 -0.697479 -0.324811
0.189802 -0.824043 -0.188852
0.193208 -0.803207 -0.384528
0.170805 -0.605915 -0.21243
0.170805 -0.573367 -0.05397
0.171762 -0.824043 -0.351633
0.170805 -0.660426 -0.282162
0.193208 -0.768073 -0.471341
0.170805 -0.765859 0.13837
0.170805 -0.737919 -0.328106
0.170805 -0.78725 -0.381248
0.193208 -0.466022 -0.003012
0.170805 -0.535405 0.130037
0.170805 -0.460125 -0.225694
0.193208 -0.660778 -0.425779
0.193208 -0.735738 0.066022
0.193208 -0.513263 -0.20596
0.193208 -0.455032 -0.354964
0.193208 -0.49838 -0.321358
0.170805 -0.540773 -0.340761
0.170805 -0.708551 -0.106517
0.170805 -0.628478 0.22887
0.193208 -0.534822 -0.410333
0.170805 -0.565565 0.210497
0.193208 -0.644958 -0.5035
0.193208 -0.546634 -0.116975
0.170805 -0.582623 -0.495863
0.170805 -0.458232 -0.34619
0.193208 -0.505519 -0.250075
0.170805 -0.79726 0.005582
0.193208 -0.752972 -0.508805
0.193208 -0.709317 0.061783
0.193208 -0.739538 0.137756
0.170805 -0.804635 -0.136805
0.193208 -0.552171 0.038897
0.170805 -0.465133 0.014672
0.193208 -0.426598 -0.199844
0.170805 -0.477751 -0.156216
0.193208 -0.667258 -0.272793
0.170805 -0.520333 -0.415407
0.170805 -0.642958 0.110891
0.193208 -0.635109 -0.439671
0.193208 -0.737329 0.173636
0.170805 -0.747049 -0.360843
0.170805 -0.685976 -0.250173
0.193208 -0.484595 -0.012204
0.193208 -0.480961 0.247001
0.170805 -0.742669 -0.09836
0.193208 -0.758299 -0.049019
0.193208 -0.614047 0.076912
0.170805 -0.73467 -0.261576
0.170805 -0.687571 0.198845
0.193208 -0.662892 -0.138268
0.193208 -0.772694 -0.427293
0.170805 -0.593926 -0.231954
0.193208 -0.509351 0.021379
0.193208 -0.617019 -0.22474
0.182414 -0.763492 -0.548837
0.193208 -0.781863 -0.288159
0.193208 -0.661624 -0.450381
0.170805 -0.680841 -0.416501
0.170805 -0.762865 -0.00779
0.170805 -0.69928 -0.505459
0.193208 -0.597862 0.174311
0.170805 -0.447646 -0.456881
-0.049522 -0.690607 0.25768
0.169327 -0.589535 0.25768
0.025567 -0.4775 0.25768
0.038626 -0.815696 0.25768
0.107297 -0.703913 0.25768
0.046485 -0.596924 0.25768
-0.072977 -0.572358 0.25768
-0.067062 -0.823857 0.25768
0.112103 -0.429128 0.25768
-0.056646 -0.445729 0.25768
0.028596 -0.726801 0.25768
-0.108018 -0.744699 0.25768
0.100016 -0.54052 0.25768
0.114814 -0.808471 0.25768
0.165898 -0.750756 0.25768
-0.13962 -0.484829 0.25768
-0.142849 -0.592481 0.25768
0.10711 -0.630337 0.25768
-0.017623 -0.632115 0.25768
-0.122383 -0.672387 0.25768
-0.033118 -0.502795 0.25768
0.129081 -0.487514 0.25768
0.153825 -0.671079 0.25768
0.039555 -0.652959 0.25768
-0.002199 -0.773069 0.25768
-0.119511 -0.433563 0.25768
-0.121046 -0.814164 0.25768
-0.093335 -0.512547 0.25768
0.047879 -0.526823 0.25768
-0.004449 -0.579502 0.25768
-0.096999 -0.626161 0.25768
0.081628 -0.767994 0.25768
0.078944 -0.476277 0.25768
-0.137621 -0.535087 0.25768
-0.062161 -0.762739 0.25768
-0.149693 -0.765853 0.25768
0.021644 -0.434521 0.25768
0.115102 -0.587989 0.25768
-0.007143 -0.69679 0.25768
0.141458 -0.548232 0.25768
0.156494 -0.791736 0.25768
-0.084902 -0.708725 0.25768
-0.036527 -0.556418 0.25768
0.069263 -0.678991 0.25768
0.145116 -0.714857 0.25768
-0.056617 -0.652878 0.25768
0.11764 -0.667637 0.25768
0.129781 -0.749945 0.25768
0.141773 -0.621799 0.25768
0.156296 -0.464842 0.25768
-0.038454 -0.736723 0.25768
0.0323 -0.779901 0.25768
0.035717 -0.688284 0.25768
-0.061101 -0.525145 0.25768
-0.051839 -0.598845 0.25768
0.070395 -0.804481 0.25768
0.07938 -0.589887 0.25768
-0.129875 -0.62648 0.25768
-0.079893 -0.423031 0.25768
0.062447 -0.710599 0.25768
0.053995 -0.746755 0.25768
-0.024574 -0.444607 0.25768
-0.108015 -0.545631 0.25768
0.070438 -0.649216 0.25768
-0.121423 -0.572798 0.25768
0.086567 -0.442928 0.25768
-0.08719 -0.599066 0.25768
0.045682 -0.568122 0.25768
-0.077382 -0.488775 0.25768
0.063453 -0.619959 0.25768
-0.08485 -0.655995 0.25768
0.099552 -0.746067 0.25768
-0.158096 -0.641993 0.25768
-0.125067 -0.786536 0.25768
-0.118544 -0.719102 0.25768
0.096087 -0.497878 0.25768
-0.011154 -0.740325 0.25768
-0.096511 -0.448648 0.25768
-0.000705 -0.469401 0.25768
0.015159 -0.56051 0.25768
-0.025328 -0.604728 0.25768
0.059793 -0.502501 0.25768
0.166894 -0.822741 0.25768
0.144414 -0.580022 0.25768
-0.063986 -0.797432 0.25768
0.164782 -0.69528 0.25768
0.009135 -0.602241 0.25768
0.116088 -0.772366 0.25768
-0.156917 -0.421551 0.25768
0.148988 -0.523321 0.25768
0.091799 -0.66638 0.25768
0.075359 -0.532881 0.25768
-0.001611 -0.65208 0.25768
0.024984 -0.50278 0.25768
0.085472 -0.720696 0.25768
-0.042442 -0.820554 0.25768
0.017242 -0.671872 0.25768
-0.086843 -0.684205 0.25768
-0.055982 -0.421376 0.25768
-0.041233 -0.622568 0.25768
-0.097341 -0.815006 0.25768
0.04824 -0.470634 0.25768
-0.144674 -0.557954 0.25768
-0.143329 -0.801124 0.25768
0.144773 -0.815726 0.25768
-0.152683 -0.680091 0.25768
-0.161316 -0.713798 0.25768
-0.022285 -0.720263 0.25768
0.083077 -0.567535 0.25768
-0.093583 -0.762118 0.25768
0.012898 -0.790794 0.25768
-0.052819 -0.712545 0.25768
-0.011118 -0.499949 0.25768
0.164982 -0.61118 0.25768
0.135791 -0.599895 0.25768
-0.028867 -0.696745 0.25768
-0.112935 -0.612085 0.25768
0.0192 -0.647606 0.25768
0.089826 -0.618711 0.25768
-0.129008 -0.452034 0.25768
0.085948 -0.790907 0.25768
-0.147016 -0.516708 0.25768
0.065026 -0.458636 0.25768
0.139553 -0.767975 0.25768
0.01918 -0.821905 0.25768
-0.053381 -0.544993 0.25768
-0.120226 -0.760969 0.25768
0.011755 -0.758304 0.25768
-0.187647 -0.821729 -0.158613
-0.180906 -0.658569 -0.548837
-0.165244 -0.509503 -0.25167
-0.187647 -0.548981 0.050741
-0.16568 -0.824043 0.088363
-0.172536 -0.824043 -0.388947
-0.187647 -0.452986 -0.519126
-0.187647 -0.539342 0.246936
-0.165244 -0.645459 -0.106732
-0.187647 -0.67891 -0.293493
-0.187647 -0.444528 -0.09251
-0.178654 -0.810686 0.25768
-0.187647 -0.571962 -0.410156
-0.165244 -0.678412 0.143139
-0.165244 -0.764385 -0.038621
-0.165244 -0.698622 -0.420246
-0.185505 -0.656171 0.25768
-0.165244 -0.662212 0.01782
-0.165244 -0.799433 -0.269808
-0.165244 -0.607134 -0.2082
-0.165244 -0.714359 -0.196262
-0.165244 -0.555668 -0.527657
-0.165244 -0.548283 -0.072894
-0.165244 -0.527369 0.147532
-0.165244 -0.477539 -0.400712
-0.187647 -0.585456 -0.311764
-0.165244 -0.463956 0.004507
-0.187647 -0.74558 -0.516217
-0.187647 -0.737284 0.075472
-0.187647 -0.762441 0.184918
-0.187647 -0.822905 -0.47625
-0.165244 -0.602062 0.187071
-0.165244 -0.492342 -0.169698
-0.165244 -0.751477 -0.121283
-0.187647 -0.752045 -0.351582
-0.165244 -0.633355 -0.46691
-0.165244 -0.617271 0.091646
-0.165244 -0.475875 0.087709
-0.165244 -0.449779 -0.326857
-0.187647 -0.730703 0.255121
-0.187647 -0.813673 0.018075
-0.187647 -0.639591 -0.361691
-0.181704 -0.824043 -0.077515
-0.187647 -0.691672 -0.055994
-0.187647 -0.570183 -0.151156
-0.165244 -0.526603 -0.460502
-0.187647 -0.520561 -0.348563
-0.187647 -0.764907 -0.426722
-0.187647 -0.483945 0.205003
-0.165244 -0.625247 -0.040136
-0.175411 -0.824043 0.160608
-0.187647 -0.525261 -0.012287
-0.187647 -0.449495 -0.239381
-0.187647 -0.774066 -0.209742
-0.165244 -0.726606 0.016462
-0.187647 -0.456655 -0.456509
-0.187647 -0.655811 -0.164322
-0.187647 -0.504636 -0.11299
-0.165244 -0.660421 -0.239399
-0.165244 -0.699248 -0.481439
-0.187647 -0.606946 0.031638
-0.18272 -0.824043 -0.328936
-0.187647 -0.471091 0.143908
-0.165244 -0.570457 -0.256256
-0.165244 -0.694665 -0.351201
-0.165244 -0.543343 -0.202202
-0.165244 -0.733141 -0.252945
-0.187647 -0.703753 0.202286
-0.185714 -0.50682 -0.548837
-0.165244 -0.678442 0.071658
-0.187647 -0.738864 0.130735
-0.187647 -0.576136 -0.466632
-0.165244 -0.492363 -0.065033
-0.187647 -0.578743 -0.021418
-0.187647 -0.552936 0.10568
-0.165244 -0.630731 -0.286383
-0.165244 -0.4468 -0.141751
-0.187647 -0.634843 -0.418592
-0.165244 -0.775121 -0.47354
-0.165244 -0.540138 0.19915
-0.187647 -0.652043 0.193754
-0.165244 -0.742285 -0.304331
-0.187647 -0.599833 -0.542745
-0.165244 -0.773697 0.04641
-0.187647 -0.587866 0.230827
-0.17855 -0.824043 -0.227052
-0.165244 -0.694319 -0.139606
-0.187647 -0.428018 0.037868
-0.187647 -0.492061 0.04495
-0.187647 -0.490114 -0.306573
-0.165244 -0.542421 -0.298334
-0.178897 -0.782651 -0.548837
-0.175372 -0.708116 -0.548837
-0.165244 -0.561412 -0.36572
-0.187647 -0.602028 -0.102155
-0.165244 -0.820602 -0.024803
-0.187647 -0.628997 0.151094
-0.165244 -0.776241 -0.162322
-0.187647 -0.806485 0.203048
-0.187647 -0.580172 0.144515
-0.187647 -0.633915 -0.508922
-0.165244 -0.614645 -0.159651
-0.165244 -0.499083 -0.498636
-0.165244 -0.531228 -0.403184
-0.187647 -0.783245 0.090739
-0.187647 -0.767751 -0.08415
-0.165244 -0.712797 -0.090349
-0.187647 -0.504075 -0.20985
-0.187647 -0.692178 -0.008514
-0.172707 -0.420784 -0.484103
-0.187647 -0.677935 -0.386917
-0.165244 -0.455386 -0.282244
-0.165244 -0.801728 -0.112764
-0.165244 -0.437511 0.125083
-0.179214 -0.824043 -0.522869
-0.165244 -0.803322 -0.428766
-0.187647 -0.607286 -0.246481
-0.165244 -0.79296 0.131487
-0.165244 -0.527758 -0.142359
-0.165244 -0.694846 0.245188
-0.187647 -0.460423 -0.188527
-0.165244 -0.611551 -0.385679
-0.187647 -0.775698 0.233266
-0.165244 -0.738089 -0.401565
-0.187647 -0.479428 0.24776
-0.187647 -0.641105 0.06419
-0.187647 -0.785723 -0.378135
-0.187647 -0.486491 -0.029663
-0.165244 -0.44243 0.175669
-0.165244 -0.558658 0.007657
-0.165244 -0.626717 -0.328017
-0.187647 -0.760917 0.009492
-0.165244 -0.582875 0.057669
-0.165244 -0.724299 -0.029613
-0.187647 -0.443612 0.212591
-0.165244 -0.592187 -0.509069
-0.187647 -0.706412 0.105755
-0.187647 -0.644006 -0.209398
-0.165244 -0.513515 0.103229
-0.187647 -0.436718 -0.015812
-0.187647 -0.650751 -0.014167
-0.187647 -0.678809 -0.100462
-0.187647 -0.697425 -0.225481
-0.187647 -0.459662 -0.358946
-0.187647 -0.670587 -0.464129
-0.187647 -0.716094 0.164012
-0.187647 -0.679827 -0.515395
-0.165244 -0.802884 -0.193178
-0.187647 -0.656287 0.118398
-0.187647 -0.773527 -0.315368
-0.187647 -0.745824 -0.18152
-0.165244 -0.633837 0.231633
-0.187647 -0.592444 -0.354693
-0.187647 -0.592632 -0.063642
-0.165244 -0.488898 -0.340803
-0.165244 -0.484788 -0.440111
-0.165244 -0.601847 -0.443485
-0.165244 -0.452311 -0.059462
-0.165244 -0.675331 -0.199491
-0.165244 -0.472052 -0.544784
-0.165244 -0.737948 -0.443831
-0.187647 -0.513291 0.176093
-0.165244 -0.519394 0.061958
-0.187647 -0.784397 -0.503241
-0.187647 -0.627423 -0.131993
-0.187647 -0.564636 0.181265
-0.165244 -0.82296 0.050704
-0.187647 -0.792426 -0.012852
-0.187647 -0.519796 -0.430765
-0.165244 -0.622302 0.006356
-0.187647 -0.446359 0.0778
-0.165244 -0.441219 -0.421086
-0.187647 -0.821058 0.117823
-0.187647 -0.589314 0.100068
-0.165244 -0.430584 -0.360009
-0.165244 -0.688358 -0.262794
-0.186899 -0.420784 -0.213268
-0.187647 -0.498525 -0.465426
-0.187647 -0.630057 -0.068138
-0.165244 -0.730202 0.21206
-0.187647 -0.535731 -0.241429
-0.165244 -0.551598 -0.486278
-0.187647 -0.776372 -0.134323
-0.165244 -0.511956 0.241206
-0.165244 -0.562424 -0.124367
-0.187647 -0.703205 0.031496
-0.187647 -0.713725 -0.301452
-0.165244 -0.548794 -0.037371
-0.165244 -0.744168 -0.215143
-0.187647 -0.517497 -0.075545
-0.187647 -0.725184 -0.37771
-0.165244 -0.465997 -0.109015
-0.187647 -0.482672 -0.254874
-0.187647 -0.604193 -0.281658
-0.165244 -0.528972 -0.101582
-0.165244 -0.658824 -0.310439
-0.165244 -0.453396 0.249953
-0.165244 -0.459687 -0.482292
-0.165244 -0.756855 0.092151
-0.165244 -0.571008 -0.222188
-0.187647 -0.710785 -0.458521
-0.187647 -0.607354 -0.480045
-0.165244 -0.565784 -0.176303
-0.165244 -0.495188 0.135809
-0.165244 -0.664169 -0.495384
-0.165244 -0.468507 0.054446
-0.187647 -0.75538 -0.282712
-0.165244 -0.804026 -0.308125
-0.165244 -0.797326 0.178162
-0.165244 -0.800591 -0.358174
-0.187647 -0.548941 -0.27211
-0.187647 -0.693971 -0.182245
-0.165244 -0.738883 0.173589
-0.165244 -0.475382 0.180361
-0.187647 -0.559568 -0.332662
-0.187647 -0.498675 -0.388251
-0.187647 -0.488425 0.005391
-0.165244 -0.604122 0.149514
-0.165244 -0.670396 -0.028731
-0.165244 -0.709355 0.129987
-0.165244 -0.527347 0.018445
-0.187647 -0.622628 0.118665
-0.165244 -0.470975 -0.228276
-0.165244 -0.696578 0.178175
-0.187647 -0.799261 0.054389
-0.187647 -0.800457 -0.044586
-0.165244 -0.731934 -0.482724
-0.187647 -0.712242 -0.51117
-0.165244 -0.560097 -0.449097
-0.165244 -0.661209 -0.078195
-0.184893 -0.420784 -0.514933
-0.187647 -0.601069 -0.178991
-0.187647 -0.490061 -0.146232
-0.187647 -0.63951 -0.250662
-0.187647 -0.479575 -0.089853
-0.165244 -0.568005 0.123656
-0.165244 -0.740528 0.052256
-0.165244 -0.569115 0.256523
-0.165244 -0.43351 -0.455289
-0.165244 -0.592988 -0.040614
-0.165244 -0.631434 -0.541985
-0.165244 -0.731067 -0.145916
-0.187647 -0.428797 -0.064738
-0.187647 -0.475747 0.110336
-0.187647 -0.823219 -0.360939
-0.165244 -0.590425 0.006547
-0.165244 -0.666283 0.231554
-0.187647 -0.720941 -0.421332
-0.165244 -0.744997 -0.063576
-0.187647 -0.545034 -0.507536
-0.165244 -0.754994 -0.542397
-0.165244 -0.64771 -0.382182
-0.165244 -0.809726 -0.493644
-0.187647 -0.658509 -0.055238
-0.165244 -0.764789 -0.38361
-0.165244 -0.51985 -0.521818
-0.165244 -0.64739 0.162156
-0.187647 -0.434077 -0.282883
-0.187647 -0.730884 -0.101633
-0.187647 -0.611669 0.206081
-0.187647 -0.666664 -0.135398
-0.165244 -0.599684 -0.123224
-0.187647 -0.458213 -0.392639
-0.187647 -0.552084 -0.548186
-0.165244 -0.629498 -0.232419
-0.187647 -0.633027 -0.307019
-0.180354 -0.439556 -0.548837
-0.187647 -0.791134 -0.411212
-0.187647 -0.558195 -0.091001
-0.165244 -0.819302 0.231746
-0.187647 -0.674542 -0.433983
-0.187647 -0.608797 -0.009097
-0.165244 -0.547276 0.073974
-0.165244 -0.804809 -0.147104
-0.187647 -0.69856 0.068091
-0.165244 -0.506317 -0.019762
-0.187647 -0.677281 -0.340694
-0.165244 -0.431693 -0.175507
-0.187647 -0.492013 -0.517104
-0.165244 -0.616175 -0.355975
-0.165244 -0.714878 0.087963
-0.187647 -0.473414 -0.424041
-0.187647 -0.513863 -0.041386
-0.165244 -0.536156 -0.336828
-0.165244 -0.610451 0.25009
-0.165244 -0.578454 0.164197
-0.187647 -0.437931 -0.121313
-0.165244 -0.612048 -0.074941
-0.187647 -0.742697 -0.035233
-0.165244 -0.578711 -0.333323
-0.165244 -0.443915 -0.216666
-0.165244 -0.659754 -0.269649
-0.187647 -0.646842 -0.445413
-0.187647 -0.785888 0.027453
-0.187647 -0.566178 0.024875
-0.165244 -0.773265 -0.22846
-0.187647 -0.741809 -0.323028
-0.187647 -0.774975 0.136572
-0.187647 -0.427279 -0.15013
-0.165244 -0.770292 -0.444603
-0.187647 -0.723865 -0.001983
-0.165244 -0.659421 0.10004
-0.187647 -0.60114 0.060315
-0.165244 -0.568307 0.206144
-0.187647 -0.818038 -0.296161
-0.187647 -0.524258 -0.301249
-0.187647 -0.658759 0.041286
-0.187647 -0.783936 -0.287165
-0.165244 -0.695567 -0.390549
-0.165244 -0.430217 0.085606
-0.165244 -0.474886 -0.199092
-0.187647 -0.563683 -0.062902
-0.165244 -0.5003 -0.292011
-0.165244 -0.618996 0.044683
-0.165244 -0.587696 -0.149648
-0.165269 -0.824043 0.20262
-0.165244 -0.631517 0.203286
-0.165244 -0.742344 0.24217
-0.187647 -0.792637 -0.179134
-0.165244 -0.822021 -0.25272
-0.187647 -0.591529 -0.215679
-0.187647 -0.594764 0.169961
-0.165244 -0.690205 0.045918
-0.187647 -0.674729 -0.252157
-0.187647 -0.813167 -0.125662
-0.187647 -0.678405 0.214718
-0.187647 -0.438354 -0.34051
-0.187647 -0.755646 0.044393
-0.165244 -0.597272 0.216665
-0.187647 -0.692812 0.134232
-0.165244 -0.747599 -0.00216
-0.165244 -0.492785 0.220767
-0.187647 -0.648897 -0.335292
-0.187647 -0.56762 -0.238607
-0.180986 -0.813795 -0.548837
-0.165244 -0.534463 -0.175677
-0.187647 -0.498614 0.152178
-0.187647 -0.423311 -0.442082
-0.165244 -0.615871 -0.260712
-0.165244 -0.424286 0.152279
-0.187647 -0.468092 -0.064506
-0.165244 -0.441872 -0.391271
-0.187647 -0.723143 0.050795
-0.187647 -0.549958 -0.170417
-0.187647 -0.759729 -0.479052
-0.187647 -0.43765 -0.31037
-0.187647 -0.761442 -0.057162
-0.187647 -0.706198 -0.339818
-0.187647 -0.802946 -0.242431
-0.165244 -0.704073 -0.169595
-0.187647 -0.753409 0.216936
-0.165244 -0.639282 0.118944
-0.187647 -0.546356 -0.137381
-0.187647 -0.515753 0.119043
-0.165244 -0.776565 0.006444
-0.165244 -0.569753 -0.300331
-0.165244 -0.535306 -0.433553
-0.187647 -0.741172 -0.230613
-0.187647 -0.54172 0.153675
-0.165244 -0.736553 -0.352865
-0.165244 -0.574333 0.096066
-0.187647 -0.777297 -0.458313
-0.165244 -0.64581 -0.194298
-0.187647 -0.61591 -0.449232
-0.165244 -0.655457 -0.149139
-0.165244 -0.49788 -0.225389
-0.187647 -0.631147 0.019728
-0.165244 -0.427258 0.054462
-0.165244 -0.540171 0.113468
-0.187647 -0.519631 0.076874
-0.187647 -0.545512 -0.41507
-0.165244 -0.453279 -0.253738
-0.165244 -0.597526 -0.235334
-0.165244 -0.458318 0.214338
-0.187647 -0.636347 -0.481392
-0.165244 -0.652211 -0.519388
-0.175018 -0.784134 0.25768
-0.165244 -0.64873 -0.349885
-0.187647 -0.677588 0.241306
-0.165244 -0.472771 -0.151721
-0.165244 -0.608586 0.12109
-0.165244 -0.770935 -0.06923
-0.184384 -0.756886 0.25768
-0.187647 -0.596699 -0.419573
-0.187647 -0.612655 -0.327118
-0.187647 -0.815986 -0.198291
-0.187647 -0.721706 -0.212824
-0.187647 -0.454925 0.051663
-0.187647 -0.440144 -0.493887
-0.187647 -0.700053 -0.156366
-0.187647 -0.602719 -0.14103
-0.165244 -0.559306 -0.415361
-0.187647 -0.655166 0.149308
-0.187647 -0.547523 -0.44381
-0.165244 -0.5263 -0.271814
-0.165244 -0.72557 -0.513945
-0.187647 -0.801152 0.164161
-0.165244 -0.557313 0.040033
-0.165244 -0.778032 -0.414608
-0.187647 -0.54646 0.211026
-0.165244 -0.758969 -0.51644
-0.165244 -0.659564 -0.449377
-0.165244 -0.700112 -0.285977
-0.187647 -0.503671 -0.270158
-0.187647 -0.580569 -0.116784
-0.165244 -0.500637 0.079911
-0.165244 -0.494519 -0.52986
-0.165244 -0.709727 -0.22967
-0.165244 -0.802992 -0.468694
-0.187647 -0.64505 -0.089152
-0.165244 -0.80251 -0.531796
-0.165244 -0.693274 -0.506511
-0.187647 -0.814496 0.078851
-0.165244 -0.722631 -0.114159
-0.165244 -0.501284 0.180203
-0.165244 -0.62058 -0.186266
-0.187647 -0.547412 0.00196
-0.165244 -0.553064 0.147359
-0.165244 -0.585901 -0.384234
-0.187647 -0.470547 -0.212118
-0.187647 -0.649803 -0.394467
-0.187647 -0.445537 0.115605
-0.187647 -0.529629 -0.209305
-0.187647 -0.801295 -0.100507
-0.165244 -0.464813 -0.507303
-0.187647 -0.532721 -0.531547
-0.166797 -0.420784 -0.123996
-0.187647 -0.618986 -0.214387
-0.187647 -0.709937 -0.398164
-0.187647 -0.750129 0.102331
-0.165244 -0.642403 -0.428098
-0.165244 -0.690541 -0.077969
-0.187647 -0.760352 -0.40167
-0.187647 -0.580334 -0.509558
-0.187647 -0.732828 0.183777
-0.187647 -0.463667 -0.290695
-0.165244 -0.500336 -0.124003
-0.187647 -0.479091 0.168288
-0.165244 -0.681221 -0.322192
-0.165244 -0.763049 0.22359
-0.165244 -0.693063 -0.044438
-0.165244 -0.650588 0.070848
-0.165244 -0.530062 -0.231416
-0.165244 -0.680981 0.118119
-0.187647 -0.505871 0.217304
-0.187647 -0.56811 -0.206611
-0.165244 -0.469967 -0.08389
-0.165244 -0.738474 0.141971
-0.187647 -0.786994 -0.35311
-0.165244 -0.762052 -0.346578
-0.165244 -0.758169 -0.253121
-0.165244 -0.525123 -0.063407
-0.187647 -0.797611 -0.438262
-0.187647 -0.52703 -0.392939
-0.187647 -0.70958 -0.485335
-0.187647 -0.772254 -0.027548
-0.165244 -0.809627 -0.050523
-0.187647 -0.625197 -0.162432
-0.165244 -0.53247 0.175443
-0.187647 -0.713916 -0.079587
-0.165244 -0.484492 -0.265513
-0.181677 -0.420784 0.133295
-0.187647 -0.444182 0.007803
-0.165244 -0.71341 -0.367215
-0.165244 -0.751917 0.200392
-0.187647 -0.591514 -0.445784
-0.165244 -0.637402 0.027667
-0.165244 -0.568742 -0.020164
-0.187647 -0.578156 0.207996
-0.165244 -0.465873 -0.30834
-0.187647 -0.620652 -0.381758
-0.187647 -0.794594 -0.150696
-0.187647 -0.566974 0.085614
-0.187647 -0.823143 0.222644
-0.173171 -0.824043 -0.106662
-0.187647 -0.631846 0.257284
-0.187647 -0.634702 -0.042252
-0.178076 -0.682811 -0.548837
-0.165244 -0.766614 0.114505
-0.165244 -0.807612 -0.084865
-0.187647 -0.480368 -0.174505
-0.165244 -0.448981 0.103575
-0.165244 -0.434821 0.220792
-0.165244 -0.784398 0.198759
-0.187647 -0.472586 -0.474851
-0.187647 -0.433641 -0.257719
-0.165244 -0.588132 -0.422963
-0.165611 -0.478459 0.25768
-0.165244 -0.780777 -0.202911
-0.165244 -0.816867 -0.173494
-0.187647 -0.601195 -0.036947
-0.165244 -0.790139 -0.021498
-0.165244 -0.778907 -0.294469
-0.165244 -0.667282 -0.054392
-0.165244 -0.634364 -0.402164
-0.187647 -0.445673 0.167668
-0.187647 -0.656393 -0.50054
-0.187647 -0.726129 -0.353133
-0.187647 -0.571997 -0.534908
-0.187647 -0.702953 0.24735
-0.165244 -0.482696 -0.037091
-0.187647 -0.437579 0.243424
-0.187647 -0.76583 -0.112905
-0.187647 -0.822977 -0.032638
-0.187647 -0.724786 -0.537051
-0.165244 -0.606102 -0.289455
-0.165244 -0.612772 -0.103381
-0.165244 -0.498 0.050108
-0.187647 -0.473464 0.023785
-0.187647 -0.632259 -0.53427
-0.187647 -0.766721 -0.23249
-0.165244 -0.789115 -0.246009
-0.165244 -0.514318 -0.208395
-0.165244 -0.722943 -0.317794
-0.165244 -0.495161 -0.471855
-0.165244 -0.817989 -0.289029
-0.165244 -0.675134 -0.287517
-0.187647 -0.823452 -0.452796
-0.165244 -0.421461 0.031738
-0.165244 -0.743666 -0.175
-0.165244 -0.798145 0.221691
-0.165244 -0.636345 -0.16846
-0.165244 -0.500547 -0.404895
-0.187647 -0.563479 -0.302658
-0.165244 -0.682585 -0.160387
-0.187574 -0.757394 -0.548837
-0.187647 -0.803666 0.102025
-0.187647 -0.726066 -0.248358
-0.171999 -0.824043 -0.420692
-0.187647 -0.683895 -0.316613
-0.165244 -0.58788 -0.195214
-0.187647 -0.806405 -0.265377
-0.187647 -0.494516 -0.340054
-0.187647 -0.450389 -0.167718
-0.187647 -0.602722 0.130357
-0.187647 -0.688899 -0.407601
-0.187647 -0.727627 0.02179
-0.178653 -0.520807 0.25768
-0.165244 -0.766669 -0.313939
-0.187647 -0.694314 -0.264183
-0.165244 -0.567219 -0.101905
-0.187647 -0.659033 0.014082
-0.165244 -0.453456 -0.35833
-0.165244 -0.823507 0.121778
-0.187647 -0.619236 0.095828
-0.187647 -0.767054 -0.524015
-0.165244 -0.757797 -0.279067
-0.187647 -0.692249 0.157039
-0.165244 -0.47221 0.112336
-0.187647 -0.680851 -0.20084
-0.187647 -0.686722 -0.079061
-0.187647 -0.668251 -0.032065
-0.165244 -0.719506 -0.429221
-0.187647 -0.532028 -0.055046
-0.187647 -0.576415 0.25042
-0.187647 -0.675987 0.066199
-0.187647 -0.660701 -0.307873
-0.165244 -0.548106 -0.259565
-0.187647 -0.623206 -0.269472
-0.187647 -0.463865 -0.110882
-0.187647 -0.584323 -0.270979
-0.187647 -0.475003 -0.377595
-0.187647 -0.470209 -0.543523
-0.187647 -0.528199 -0.459547
-0.187647 -0.736986 -0.442828
-0.187647 -0.493697 -0.065176
-0.187647 -0.528855 0.197197
-0.187647 -0.701164 -0.431753
-0.187647 -0.683994 0.020139
-0.187647 -0.803996 -0.492573
-0.187647 -0.513773 0.049977
-0.165244 -0.524856 0.215312
-0.165244 -0.723437 -0.058318
-0.187647 -0.472829 -0.235061
-0.187647 -0.823589 -0.001687
-0.187647 -0.74363 -0.011882
-0.165244 -0.641461 -0.250983
-0.187647 -0.819306 -0.056048
-0.187647 -0.758396 0.069162
-0.187647 -0.523704 0.141002
-0.187647 -0.723804 -0.190974
-0.187647 -0.822368 -0.40477
-0.165244 -0.527136 -0.033951
-0.165244 -0.57948 0.186053
-0.187647 -0.588502 -0.000947
-0.187647 -0.759096 -0.379836
-0.165244 -0.468842 -0.420748
-0.165244 -0.517036 -0.486311
-0.183781 -0.420784 0.007577
-0.187647 -0.805911 -0.219254
-0.187647 -0.433454 -0.473216
-0.165244 -0.654559 0.040976
-0.165244 -0.743548 0.074998
-0.187647 -0.688299 -0.481048
-0.165244 -0.708298 -0.529693
-0.165244 -0.717041 -0.40655
-0.165244 -0.819728 -0.442757
-0.165244 -0.489897 -0.091881
-0.165244 -0.538313 -1.5e-05
-0.165244 -0.649338 0.140774
-0.187647 -0.509438 0.009733
-0.165244 -0.654079 0.213984
-0.165244 -0.445005 -0.303825
-0.187647 -0.44975 0.143646
-0.165244 -0.552197 -0.384964
-0.165244 -0.757909 -0.100942
-0.165244 -0.447545 0.155002
-0.187647 -0.5317 0.104185
-0.165244 -0.614213 0.168236
-0.165244 -0.449466 0.076677
-0.165244 -0.485076 0.002572
-0.165244 -0.811324 -0.404251
-0.187647 -0.74817 -0.073563
-0.165244 -0.742098 -0.042705
-0.187647 -0.465906 0.231616
-0.165244 -0.650538 0.182973
-0.187647 -0.78332 0.175311
-0.165244 -0.793461 -0.326289
-0.165244 -0.586197 -0.171471
-0.165244 -0.468971 -0.453863
-0.165244 -0.571234 -0.509535
-0.165244 -0.72077 -0.455792
-0.165244 -0.445591 -0.12088
-0.187647 -0.679191 -0.155159
-0.179481 -0.824043 0.181085
-0.187647 -0.482754 -0.195197
-0.186951 -0.824043 0.060441
-0.165244 -0.627833 -0.208994
-0.165244 -0.630432 0.075619
-0.165244 -0.789309 0.151864
-0.165244 -0.56333 -0.058681
-0.187647 -0.742126 -0.489915
-0.187647 -0.504589 -0.012599
-0.165244 -0.780901 -0.050956
-0.165244 -0.424249 -0.15639
-0.187647 -0.544046 -0.291978
-0.165244 -0.599116 -0.334311
-0.187647 -0.671005 -0.011603
-0.165244 -0.773569 0.241061
-0.165244 -0.81847 -0.124596
-0.165244 -0.627312 -0.307653
-0.187647 -0.801274 -0.080144
-0.187647 -0.446113 0.028639
-0.165244 -0.730498 -0.23016
-0.165244 -0.804629 0.094255
-0.165244 -0.81764 0.144264
-0.195874 -0.217222513291069 0.6694873545282101
0.202884 -0.4193812222801779 0.5314192074273787
0.148499 -0.001582750987659809 0.8525310458118192
-0.145855 0.007941438770644293 0.8579337908037481
-0.156925 -0.43016514511231074 0.5240541215928073
0.033207 -0.2892182586138977 0.6421781163584919
-0.198849 0.20669546529797533 0.9423702957300715
-0.001742 -0.12179023322858967 0.7645828595695972
0.20441 0.17719865649415556 0.9271075158263025
0.201213 -0.13129713443725805 0.7281717313062679
0.022568 -0.4040875437901257 0.501169691989228
-0.198849 0.4491807635587399 1.0892417166375714
0.20441 -0.26236411164395596 0.6140271331515635
0.031038 0.30992846519492756 1.0527645728157786
-0.069773 0.11846205936067078 0.9394017786418887
-0.039123 0.4359922037961662 1.1156128076348932
-0.114819 -0.31456527121072186 0.6029628769684736
0.100828 0.44393064308347663 1.1109168672943772
0.070113 0.11071124385393993 0.9341082113210153
-0.139217 -0.12440288227160806 0.7735325333613069
-0.150089 0.3335892616035171 1.0049801396778697
0.085881 -0.18068739867905495 0.6943973241445504
-0.059107 0.23214066450355508 1.0103574109607412
0.106421 0.2366865017173304 0.9794507921061033
-0.058436 -0.22456646782387188 0.6976485878964438
0.111991 -0.3542912973754675 0.5758312295036045
0.005584 -0.02250122863871462 0.8431693847539556
0.09635 -0.06021779286194057 0.7766743397641573
-0.046322 -0.3971967399927902 0.587222763852042
-0.198849 -0.03252788353458602 0.7746904155108434
0.20441 0.44582748379308323 1.1040649490722747
0.20441 0.08365033651126041 0.8646640143439395
-0.164588 0.11488250711447712 0.8963048141348986
-0.061178 0.3470311609194835 1.0548127822706466
0.20441 0.28640886235109153 1.0061111146474047
0.130262 -0.26516201898584346 0.6773983955305489
-0.06698 0.06357807386089642 0.8612230887279451
0.019337 0.1905872767315907 0.9750110253651425
-0.100925 -0.03995386129155176 0.790513978426731
0.20441 -0.04741832616548691 0.7803577607672975
-0.198849 -0.35397088127431925 0.5644610871332503
0.025242 0.4045836266945749 1.0534670957518244
-0.12298 0.39242023420132055 1.1068999360287088
0.118996 0.33491276995834185 1.0465362959683007
0.114585 -0.4232576852064756 0.5136636495318622
-0.146574 0.24368985835803314 1.0185878575653726
0.074926 0.03604296248444122 0.883112084033491
-0.198849 -0.2764485441857111 0.6061274777175113
-0.139366 0.15430772306365126 0.9638832585336934
0.148419 0.09367110996063444 0.9212629903459513
-0.106204 -0.1611633702297008 0.7077316318546945
-0.11871 -0.2710655540441877 0.673366463634435
-0.198849 -0.12616875355422913 0.7206326383556152
0.186886 -0.19890578212179588 0.6819971155280284
0.007672 0.0679420184909672 0.9049393258631981
-0.054211 -0.41047498870218235 0.4968072646264583
-0.050578 -0.2829488642163319 0.6312041270251743
-0.131529 -0.3884244287709703 0.5932139811596959
0.083939 -0.13370204415327186 0.7671814933442223
0.14077 -0.08237667582259595 0.7208882668880715
-0.114317 0.29582080123938737 1.0605323150693264
-0.198849 0.05897248586877979 0.8561630720039736
0.072764 0.37626545868726846 1.1108670012021817
0.1372 -0.2793238279592941 0.5916508015374841
-0.198849 0.27771676208366824 0.9711949714763575
-0.1748 0.3958625141262193 1.0475108455413253
0.055851 -0.40389565503370917 0.5647591728151096
0.116787 0.16511986780609744 0.930572994123629
0.1372 0.10138258696364733 0.8483337669822544
0.010055 -0.3519115310034854 0.6181511612853877
-0.132843 0.23602940164227693 0.9383497720641218
0.20441 0.3523391752252001 1.0279942225007725
-0.131639 -0.21584288694907702 0.6333121751761117
0.182923 0.22879042744080902 0.9741004014643224
-0.025622 -0.06363786675140265 0.7972621848090042
-0.021054 0.3695286949640608 1.1108725272924809
-0.135066 0.06603583379984129 0.8222494217580214
-0.067357 0.1871592365530761 0.9456252014778581
0.019214 -0.21560438224248252 0.7112859019660049
0.138841 0.2971804127124278 0.9801140217173634
0.158666 0.3963435118712473 1.0901942160404934
0.177385 -0.3384477121391507 0.5866942922328519
-0.059097 0.005490724151279491 0.8215512250496066
0.028168 0.4416978247345166 1.114186149053502
0.143403 -0.18559270522422386 0.7317417763924803
0.111469 -0.3184812876454003 0.6409829837711029
-0.131909 -0.3512414497827484 0.537261940092712
0.148409 -0.10039962245989892 0.7887465334405626
-0.001184 0.1325266424821694 0.9490486269675575
0.1372 -0.21189089139734812 0.637713888837757
0.064081 -0.23244428262321276 0.6590489728337611
0.070406 -0.032845651536707765 0.8360632908263834
0.001276 0.25502649915485764 1.0310108292084124
0.145199 0.2509980317007292 1.029919749481249
-0.085457 -0.09506673439183083 0.7528735902959939
0.142592 -0.010291449098852157 0.7701202477255966
0.151663 -0.40470029562296833 0.572038545007965
0.08159 0.257932971890962 1.034656099189399
-0.050626 0.41113788012275765 1.057943448173066
-0.058921 -0.34466196682986605 0.6231023894454077
-0.025118 -0.15546091395092154 0.7182744548821672
-0.097837 0.4559928552660143 1.0885780091932244
0.20441 0.002598060095596766 0.8195950004559158
0.147622 0.17976566244173064 0.9811624676481763
0.036443 -0.07043398888693836 0.7763452155037036
-0.132245 0.3535738533614001 1.0592812388957564
-0.153539 -0.06893421452686083 0.7952579542231185
-0.023003 -0.3627421537633835 0.5294073148979745
-0.128194 -0.22199990254584664 0.7068767864028498
0.019179 0.04144910727334805 0.8527579105392022
0.1372 -0.1366668514840399 0.6965915371359102
0.139782 0.21977135181311458 0.9272460267611858
0.069369 -0.35300156685143813 0.617406700507255
-0.132162 0.052591688539724346 0.8944143522105956
-0.13737 0.017338482292550916 0.7889906364949454
0.03918 -0.15168208158809388 0.7340984413259698
-0.198849 0.31826597051469274 1.0332924661489875
-0.19759 0.0036600387408287083 0.8203433074497835
0.158221 0.04931727573188738 0.8787241600586851
-0.089432 -0.3939008085495484 0.5488215421016673
0.140593 0.15017008556712974 0.8797105141211023
0.088019 0.17606797657077522 0.9787448388098853
0.204242 0.14005587415370124 0.872802820476732
-0.137983 0.2828497444507819 0.970326618426671
-0.161097 -0.30112044539525307 0.5714930362508643
-0.114093 0.13659891468746632 0.9110940650667008
-0.013666 -0.23198143047720654 0.6660133082572554
0.090902 0.018164868237930454 0.8302072735517125
-0.034193 0.2971087575633392 1.027365546195835
-0.033035 0.10988932018431652 0.8995004596534869
-0.142993 -0.03670252222390802 0.7520823014627054
-0.176828 -0.17498527575236547 0.6983340817099741
0.047017 0.23621373976051063 0.9857761320283671
-0.115079 -0.4039834949137302 0.5012407541544134
0.193917 -0.07322450362345911 0.7271389174971958
0.085247 -0.37431882993948196 0.5215008030429431
-0.088184 0.27739356014523364 1.007252454271292
-0.131639 -0.10238892842526587 0.7220439929658838
0.053558 0.3572725431818399 1.0618073296724657
-0.077634 0.35928235799330477 1.103874595978034
0.20441 0.4067756412726651 1.0654778098059279
0.104976 0.11205989555279616 0.8943346737917085
-0.010374 0.23325247570690555 0.9837536802477734
0.159608 0.302128698606719 1.0456259632754363
0.091647 0.3936064734937593 1.0654315279408515
-0.144802 -0.2793249077172485 0.6270309555342394
0.155919 0.4532644625071992 1.0867146013061408
-0.091501 -0.14971483591664486 0.756245251716366
-0.198714 0.15762842804889188 0.925498956346458
-0.198849 0.11709900816820806 0.8574751719902842
-0.109509 0.21114648625652221 1.002702376229807
0.005126 -0.40417389372250345 0.5746916371735686
-0.002694 0.36019912427664635 1.063806094064664
0.20441 -0.36784941077265887 0.5385023987811066
-0.131639 0.1860026433578874 0.9067733065153103
-0.147168 0.44558796762646513 1.0814717926746855
-0.083145 -0.3522441770216229 0.5772293494043551
0.117077 0.34728948631162426 1.095683835462261
-0.19753 -0.4136101503044021 0.4995377758840741
0.118411 -0.0544407480971722 0.8213145076377873
0.074459 -0.29791497363324315 0.6143345153544498
-0.153638 -0.027320355105553307 0.823373769151085
-0.022255 -0.3475826222021582 0.5804130472017481
0.159607 -0.2853998658899189 0.6425359794684455
0.06094 0.08318117945394876 0.8751987238157557
0.1372 0.38080212981647543 1.0401713571774938
0.099054 -0.2622741045441205 0.6386761268576355
-0.108337 -0.0210823480108841 0.8440972633903983
-0.167245 0.2310819800757098 0.9756654610547149
0.098993 -0.22720895264348767 0.7033191662600765
0.148462 -0.2253179881433082 0.7032809921974039
-0.064741 -0.18864976030689143 0.729653902301081
-0.148971 -0.16654067418337803 0.7367492170779649
-0.198849 -0.09117578716747599 0.7537617607173013
-0.154039 0.29231846773511605 1.0336436306458583
-0.006226 0.4446870364824377 1.0808564845618502
0.032015 -0.03014230017988384 0.8038631929935887
0.037246 -0.3501376001669808 0.5786680762566403
-0.146662 -0.3483458503213889 0.6142033915006453
-0.028003 0.0358370742258578 0.8489250655026951
0.023399 0.1128068176470568 0.9014930202058677
-0.111193 -0.09073481291033325 0.7965267836531601
-0.099883 0.09198837182526565 0.8806264437361842
0.043248 0.27571432669306606 1.0127538114686678
-0.175052 0.4087388302431467 1.096999596225263
0.069506 -0.4116130778685175 0.49661367214346747
0.20357 0.06179047448595848 0.81934997262137
-0.182225 -0.22343722396448507 0.6245482743724511
-0.097311 0.03388698377518268 0.8409449923054001
-0.189105 -0.37268460195228614 0.522616930224704
-0.087692 -0.24399040476417927 0.6511633284399347
-0.028472 -0.407920155966741 0.5392467613210932
-0.141734 -0.14128981026551046 0.6806524177717538
0.1372 0.03367814831315402 0.8202679569098266
0.154329 0.2611877593269203 0.9555321524175986
0.019126 -0.26123394346557244 0.6801223226050219
-0.079046 0.4161064816336275 1.102031474302914
0.074521 0.29790921082989685 1.061958634241976
0.052368 0.15277645030812514 0.9287910433749408
0.142562 -0.3678673436202608 0.6072538346527521
0.158982 -0.051938897254942884 0.7843969051104938
0.1372 -0.177935304322257 0.6684682193846231
0.107063 0.07301514179302093 0.8676683143131723
-0.097072 0.3946453346705172 1.0639104324621174
0.20441 -0.23329126597886055 0.6490370581719566
-0.158327 0.10038847870501977 0.8457112159779594
-0.191421 -0.32138287062555665 0.5983490513086936
0.117833 0.43014331575960096 1.0709235730281592
-0.062635 -0.03920104107032518 0.8278488653518914
0.16094 -0.24088853273326238 0.6126295701116349
0.171183 0.35219487220006296 1.0583818213305078
-0.091748 -0.3178330466297617 0.6414257123399165
-0.154041 -0.24334529261593796 0.6714214334677056
-0.066872 0.29172490896223147 1.0577349472969493
0.115993 0.3900414378191782 1.1092109420374214
0.159601 -0.14112365499236018 0.741190845207765
0.094149 0.2988524022247041 1.0219081798626215
-0.029773 0.19115706597506776 0.9691854791059478
-0.042798 -0.08927509336185546 0.7634773237507684
-0.136571 0.10120481000421833 0.9276156109589978
0.101084 -0.3951182398190803 0.5886423151994358
0.04278 0.005090631250989852 0.8279261956904126
0.1596 0.1594002020766151 0.9440985430567773
-0.148791 -0.3962324228366835 0.5535564364844416
-0.095561 0.15188321908668956 0.9622273972877862
0.181608 0.13497880438400645 0.9100299637535624
0.043759 -0.1060930252401936 0.7519911963208825
0.032297 0.35328550926009794 1.0997789337274284
0.106787 -0.12776368090674767 0.7305425868792044
-0.063944 -0.13011221268824597 0.7289386122935912
0.164698 0.09273743792163636 0.8811804166446082
-0.077547 -0.2840031234607606 0.6645305037776137
-0.133754 0.19460120856955365 0.9507078382449273
0.070197 -0.07629348949442555 0.8063897609925417
-0.153953 -0.3580064235473034 0.5733362971343127
0.052528 0.43159339375127137 1.0719139314572506
0.1372 -0.32165844162303503 0.5960840324069295
-0.131639 -0.08337744589727547 0.7600371866338017
-0.131639 -0.19090773391658372 0.6783433578859422
0.184996 -0.3042263670065666 0.6100664127681511
0.159594 -0.23902675510490468 0.6622914418047412
-0.092963 0.03548473200473207 0.8827308298774168
-0.084554 0.22821312456896425 0.973663737526998
-0.008022 -0.28821378280446913 0.6484806181116272
-0.023035 -0.31321759052598025 0.6038833012032558
-0.179491 0.3539092013063888 1.0595526550997527
0.138402 0.34180086499142803 1.0105884108731358
-0.098828 0.3329242803205613 1.0451782190336465
-0.02605 -0.017458246676433364 0.8125260093209503
0.14638 0.21696331391787027 1.0066750896549332
0.009076 -0.17631197846668487 0.7040338225731905
0.168847 0.2672703444430087 1.000380994903281
-0.07475 0.18598647700241222 0.9855188679054545
-0.042832 0.33913073314664444 1.0901116593350255
-0.122551 -0.05382966739453199 0.8217318568618921
-0.195287 -0.25782800019677665 0.6417550625718929
-0.176561 0.16775682303216788 0.8917217119937471
-0.177769 0.27452073440136127 1.005332787048739
-0.110474 0.3321041308510154 1.08531270724326
0.074291 0.4151675643918682 1.1013902228599317
0.046957 -0.20473796634098673 0.6846197518416297
0.099517 0.07061691769814343 0.9067250263508073
-0.083035 -0.19657632273243328 0.683545680332391
0.1591 -0.02702064421676259 0.8238799937881189
0.038903 0.39884758070770876 1.0902441786491472
0.070471 0.003540075381849306 0.8609136171946266
0.071539 -0.3664476744343409 0.5675287998711115
0.092794 0.1436377585247135 0.956596002689563
-0.155701 0.045983157891795245 0.8492486891170975
-0.164528 0.044379629169112755 0.8074589036470148
-0.047059 -0.24929153005658997 0.6541910455063337
0.151842 -0.4298340054342584 0.5242802797534369
0.069684 -0.292913678801973 0.6561973109014593
0.12765 0.12058102298631235 0.9408489652757437
-0.084472 -0.3897828446572447 0.5922862251142199
-0.150009 -0.24441215619024306 0.6102230442477774
-0.127754 0.24385513898708655 0.9843467496932015
0.102273 -0.09201793715649625 0.7549558245330134
0.069376 -0.03703718961354474 0.7925059749936738
0.078003 -0.18492299380551955 0.7321991685826814
-0.131639 0.11798594428257347 0.8761522175095584
0.12063 0.27294753514115955 1.0042159566732114
0.004738 -0.16435287855510278 0.746289094188751
-0.038999 0.2646901005035436 1.0052246058716445
-0.078708 0.15090233205291337 0.9208628568379398
0.20441 -0.32719119008772024 0.561923326318991
0.189546 0.032981177266025175 0.8403687383961138
-0.115933 0.179234035238238 0.9809071589790979
0.008273 -0.3672025573953083 0.5507559746554467
0.11305 0.03566888200025736 0.8828565986300863
-0.120998 0.009243915764116928 0.8241145388652225
-0.073812 -0.38222076405240635 0.5161040263869193
0.019791 -0.31181871118777416 0.6048386925351927
0.202547 -0.2857839713284508 0.5819673738050155
0.114214 0.20605236546619088 0.9585286243133859
0.110006 0.23185303844395855 1.0168443110871375
0.001968 0.3982364753844476 1.0983714123288122
0.0192 0.167784262051075 0.9390409147247761
0.115444 -0.16457152905340122 0.7460985897016809
-0.027739 -0.19190917398185986 0.7085887734029369
-0.042954 0.3793887099090151 1.0769119876724265
0.105531 -0.3941228351384457 0.5511608687556049
0.160635 -0.16770268018941425 0.7033078692875134
0.20441 -0.009662702907791865 0.7802761677344993
0.039695 -0.4226521556087695 0.5291852611075427
-0.084992 -0.06834283408223663 0.8118198127894062
-0.129628 0.2789468612285664 1.0083133108801308
0.000536 0.013453353245094224 0.8336376762208287
0.081453 -0.41963391240856696 0.5312466278833571
0.1372 -0.05408913418315353 0.7491701672661721
-0.085635 0.06666553774931455 0.9040263560300765
0.20441 -0.1762425594461846 0.6581951830864039
0.105217 -0.36136098570660935 0.6116974759185908
0.133919 0.3122374017373428 1.0717443455763545
0.1372 0.4240994721398531 1.1019490439238608
-0.058762 -0.37192762739469876 0.5576743991510137
-0.142938 0.317008299396622 1.070218181258634
0.189529 0.3840843464751963 1.0394667212394268
0.154573 0.07490641340492366 0.8283077533327949
-0.131639 -0.28463141374840834 0.5861186078413819
0.1372 0.3053341652772903 1.0166375810607653
-0.149082 0.38636667024864924 1.0817201027395282
-0.061439 0.45179456568192966 1.0857107072265377
0.067041 -0.10428277030587463 0.782804259817925
-0.119443 -0.18741851526954476 0.7304948045891081
0.002663 -0.08216178366923027 0.768335494313522
-0.167984 -0.16558935182752443 0.6640565822737755
-0.193486 0.4218516112525602 1.0652605952454093
-0.170831 -0.11370199389550562 0.6994940432837655
-0.00793 0.3302857528682943 1.0840708113088295
0.038522 -0.36025489014669126 0.5311060390371681
-0.150464 0.1426733871856033 0.9152427419484763
0.155027 -0.10096201160284213 0.7488472982542598
0.078111 -0.2528033246673122 0.6858390015953468
0.125248 -0.02545142980538001 0.800418690688523
0.078962 0.1863095040625128 0.9450448604621773
0.117719 0.19808917805362114 0.9937846384844787
0.1372 -0.3945689790617252 0.5291362200274249
-0.107055 0.3038649155558202 1.0253315714711557
0.085311 0.04820196212689587 0.8507216798727708
0.171803 0.43434724060743746 1.1144893486424383
-0.114155 -0.36750880781662826 0.5668040785833082
