-0.176755 0.544466 -0.268855
-0.200836 -0.051306 -0.185549
-0.200836 -0.044549 0.152065
-0.200836 -0.318015 -0.547377
-0.176755 0.703814 0.114518
-0.176755 0.550409 -0.425401
-0.176755 0.062795 -0.300145
-0.200836 0.209239 0.022521
-0.200836 -0.349362 -0.493273
-0.176755 0.136732 -0.251795
-0.200836 -0.669099 0.487719
-0.200836 -0.1569 0.344659
-0.200836 0.514637 -0.183153
-0.200836 -0.344247 -0.257433
-0.200836 0.527789 0.152848
-0.176755 0.599666 -0.458711
-0.176755 0.637247 0.16204
-0.200836 0.571417 0.274451
-0.200836 -0.365936 -0.571411
-0.176755 -0.447236 0.338202
-0.200836 -0.427271 -0.461461
-0.200836 0.725578 -0.212331
-0.200836 -0.237934 -0.52098
-0.176755 0.186603 0.258242
-0.200836 -0.602762 0.407551
-0.176755 -0.564147 0.027297
-0.200836 -0.505676 -0.499135
-0.200836 0.17248 -0.313217
-0.200836 -0.627929 -0.420038
-0.200836 0.342768 0.418731
-0.200836 -0.247188 0.381199
-0.176755 0.681372 -0.145534
-0.200836 0.457936 0.252369
-0.176755 -0.628887 0.149655
-0.200836 0.371557 -0.109674
-0.200836 -0.605038 -0.371256
-0.200836 -0.203249 -0.055101
-0.200836 -0.329123 0.082618
-0.200836 0.342192 0.245617
-0.176755 -0.430789 -0.229286
-0.176755 0.613481 0.022173
-0.176755 -0.317502 -0.5241
-0.200836 0.686557 -0.302989
-0.200836 0.526025 0.36692
-0.200836 -0.542256 -0.154015
-0.200836 0.500834 -0.382374
-0.200836 -0.652484 0.529822
-0.176755 -0.551172 0.503562
-0.176755 0.310435 -0.272193
-0.200836 0.000507 0.432021
-0.176755 0.073909 -0.027761
-0.200836 0.167917 0.395704
-0.200836 -0.28603 -0.24465
-0.200836 0.382571 -0.010848
-0.176755 -0.260266 -0.179891
-0.200836 0.193717 -0.065258
-0.200836 0.015189 0.496061
-0.200836 -0.665125 0.018618
-0.176755 0.725497 -0.196074
-0.176755 0.205085 0.06778
-0.200836 0.603175 -0.119347
-0.200836 0.415182 -0.386381
-0.176755 0.599317 0.287202
-0.200836 0.214238 -0.130991
-0.200836 0.616357 -0.489082
-0.200836 -0.105812 0.197227
-0.200836 0.549738 -0.0983
-0.200836 -0.145286 -0.491353
-0.176755 0.263226 0.433422
-0.176755 -0.203105 -0.300801
-0.198535 -0.389031 -0.586075
-0.176755 -0.073179 -0.550185
-0.176755 0.114082 -0.272297
-0.176755 -0.542291 0.378378
-0.176755 -0.278747 0.134968
-0.176755 -0.608621 -0.315779
-0.200836 0.281303 -0.316594
-0.200836 -0.517019 -0.177591
-0.200836 -0.261346 0.471018
-0.176755 0.079518 0.196487
-0.176755 0.269649 0.065081
-0.176755 0.513068 -0.218659
-0.176755 0.697437 -0.409692
-0.176755 0.539487 0.286736
-0.200836 -0.42148 0.460707
-0.200836 -0.051384 -0.017559
-0.176755 -0.210755 -0.573875
-0.176755 -0.291773 0.002737
-0.176755 0.6806 -0.453214
-0.200836 -0.094789 -0.361081
-0.176755 0.464388 -0.535454
-0.176755 -0.407098 -0.153045
-0.176755 -0.640502 -0.038469
-0.176755 -0.132647 0.151915
-0.200836 -0.617171 -0.144601
-0.176755 0.185939 0.453943
-0.176755 0.024001 -0.225848
-0.176755 0.078426 -0.547703
-0.200836 0.366374 0.064734
-0.200836 0.369726 -0.519846
-0.200836 0.041983 0.182462
-0.176755 -0.656635 0.178051
-0.176755 0.10844 0.139254
-0.176755 -0.322879 -0.325351
-0.200836 -0.588244 -0.489665
-0.176755 -0.573402 -0.262773
-0.176755 0.374031 -0.346115
-0.200836 0.340193 0.075142
-0.176755 0.154589 -0.396727
-0.200836 0.17518 0.502333
-0.176755 -0.492142 -0.513496
-0.200836 -0.25521 0.10669
-0.176755 0.577259 0.134925
-0.176755 0.391648 0.293306
-0.200836 -0.437322 0.160062
-0.200836 0.307755 -0.449361
-0.200836 0.463001 -0.390723
-0.200836 0.228184 -0.305529
-0.176755 0.606961 -0.27924
-0.200836 0.11589 0.495667
-0.200836 -0.45739 0.238326
-0.200836 -0.100755 0.256589
-0.176755 0.244649 0.37074
-0.200836 -0.263143 0.519394
-0.176755 0.445658 -0.235572
-0.200836 -0.549757 0.355493
-0.176755 0.236665 -0.042826
-0.200836 -0.052231 -0.493305
-0.200836 -0.002931 -0.054894
-0.200836 -0.675285 0.231774
-0.200836 -0.475508 0.359953
-0.176755 0.190553 -0.357645
-0.200836 -0.103989 -0.440958
-0.176755 0.208466 -0.087885
-0.200836 0.039624 -0.262008
-0.176755 0.274308 0.026799
-0.176755 0.487204 -0.350091
-0.200836 0.646959 0.403305
-0.200836 -0.17093 -0.069612
-0.200836 -0.091329 0.464261
-0.176755 0.398294 0.45392
-0.176755 -0.665108 0.245642
-0.176755 -0.426307 -0.389328
-0.182824 0.687906 -0.586075
-0.176755 0.408898 -0.0151
-0.200836 -0.65192 -0.117229
-0.176755 -0.297308 0.209807
-0.176755 0.347245 0.126728
-0.176755 0.362528 0.024256
-0.176755 0.398018 0.233887
-0.176755 0.733283 0.07696
-0.200836 0.274373 0.465348
-0.176755 0.518816 0.488379
-0.176755 0.123481 0.486285
-0.176755 -0.116234 -0.072413
-0.176755 -0.628865 0.488227
-0.176755 0.397129 -0.396858
-0.200836 -0.574352 -0.321934
-0.176755 -0.668219 0.361013
-0.200836 0.383642 -0.065117
-0.176755 0.414039 -0.202716
-0.200836 -0.237301 -0.328912
-0.190582 0.75624 -0.01629
-0.200836 0.162059 -0.082403
-0.200836 0.453639 -0.578207
-0.200836 -0.119131 0.139639
-0.200836 0.394541 0.519398
-0.176755 -0.373217 0.295997
-0.176755 -0.248066 -0.409756
-0.200836 0.171075 -0.505274
-0.176755 0.61837 -0.380003
-0.200836 -0.020939 -0.011842
-0.200836 -0.39666 -0.1011
-0.176755 -0.411706 -0.068065
-0.200836 0.424145 -0.309685
-0.176755 0.246526 -0.356474
-0.176755 -0.554285 -0.554573
-0.200836 -0.67136 -0.030324
-0.176755 -0.175483 0.277007
-0.176755 -0.10808 -0.249846
-0.200836 0.566966 0.431979
-0.176755 -0.172126 -0.210973
-0.176755 0.639299 0.022024
-0.200836 0.429641 -0.509868
-0.176755 0.360398 -0.216474
-0.176755 0.747879 -0.236886
-0.176755 -0.393467 -0.415861
-0.200836 -0.485986 -0.239725
-0.200836 -0.616661 0.050716
-0.200836 0.620607 0.122485
-0.176755 0.701891 -0.528716
-0.176755 -0.132508 -0.1635
-0.176755 0.210025 0.010224
-0.176755 -0.220169 -0.376585
-0.176755 -0.673051 0.463873
-0.176755 0.191013 -0.154447
-0.200836 -0.541506 -0.567837
-0.200836 -0.543994 -0.093212
-0.200836 -0.131503 0.269732
-0.200836 0.693274 0.272072
-0.200836 -0.0366 0.014371
-0.200836 -0.203158 -0.127066
-0.176755 -0.557118 0.122869
-0.200836 -0.108094 -0.110785
-0.176755 -0.455799 0.033709
-0.200836 -0.338241 0.426722
-0.176755 0.573623 0.234521
-0.176755 0.105787 -0.15746
-0.176755 -0.06296 0.040779
-0.200836 0.590921 0.231497
-0.200836 -0.576417 0.108051
-0.176755 -0.443684 -0.49923
-0.176755 0.467191 -0.041793
-0.200836 0.100185 0.46247
-0.176755 0.191806 -0.244977
-0.200836 0.042594 0.098797
-0.176755 0.220479 -0.315043
-0.200836 0.464457 0.491837
-0.200836 0.096754 0.124466
-0.200836 0.283382 0.42376
-0.200836 0.297636 -0.169665
-0.176755 0.1236 0.231245
-0.200836 0.227935 0.163098
-0.176755 0.468157 -0.121419
-0.200836 -0.411329 -0.002358
-0.176755 0.15335 0.170497
-0.200836 -0.373761 0.461947
-0.200836 -0.326572 0.263824
-0.200836 0.081392 -0.372545
-0.200836 0.552424 -0.240377
-0.176755 -0.559501 0.164327
-0.200836 -0.184546 0.530327
-0.200836 0.150428 0.127865
-0.176755 -0.160502 -0.283012
-0.200836 0.567223 0.333404
-0.176755 -0.101251 -0.132666
-0.176755 0.320275 0.071745
-0.176755 -0.258937 -0.081522
-0.176755 0.231335 -0.471108
-0.176755 -0.476832 0.146715
-0.176755 0.546577 -0.522696
-0.176755 -0.418103 0.01727
-0.176755 -0.38659 0.498492
-0.176755 -0.535931 0.435512
-0.200836 0.596762 -0.207095
-0.200836 0.006226 -0.28357
-0.200836 -0.078348 0.342868
-0.176755 0.494716 -0.571891
-0.176755 0.564403 -0.551924
-0.176755 -0.356167 0.201485
-0.200836 -0.557902 0.382705
-0.200836 0.547939 -0.202728
-0.176755 -0.374496 -0.119065
-0.200836 0.168338 0.297596
-0.200836 0.296119 0.003136
-0.176755 0.539208 0.349284
-0.200836 0.589044 0.47586
-0.176755 0.168218 -0.421346
-0.200836 -0.399119 -0.328628
-0.200836 -0.592798 0.237814
-0.176755 -0.24949 0.429225
-0.200836 -0.59954 0.504473
-0.176755 -0.549015 0.285149
-0.176755 0.241369 -0.142024
-0.176755 -0.437614 -0.303023
-0.176755 -0.379938 -0.468151
-0.176755 0.294067 0.12137
-0.200836 -0.533903 -0.408905
-0.176755 0.440648 0.322689
-0.176755 -0.208739 -0.114778
-0.200836 0.043214 0.397937
-0.176755 0.081148 -0.124698
-0.200836 0.160215 -0.238711
-0.200836 -0.391342 -0.29351
-0.176755 0.525893 -0.164563
-0.200836 0.33526 -0.560183
-0.200836 0.294236 -0.237712
-0.176755 -0.053344 -0.213298
-0.200836 -0.539977 -0.274157
-0.176755 -0.424775 0.380503
-0.176755 0.004532 0.348649
-0.176755 0.208398 0.491331
-0.200836 0.357053 0.458489
-0.179363 0.75624 0.441461
-0.176755 0.509387 0.428106
-0.200836 -0.326189 -0.112339
-0.200836 -0.435586 -0.178403
-0.200836 -0.183522 -0.578455
-0.176755 -0.526271 -0.482289
-0.200836 0.020936 -0.408147
-0.200836 0.732782 -0.069104
-0.176755 0.666783 0.502189
-0.200836 -0.048702 -0.071975
-0.200836 0.431052 -0.045987
-0.200836 -0.417971 0.294422
-0.200836 -0.278564 -0.292525
-0.176755 0.079104 -0.572506
-0.176755 -0.479806 -0.066351
-0.200836 0.751537 0.264878
-0.176755 0.335408 0.299164
-0.178399 -0.288577 -0.586075
-0.200836 0.415687 -0.335843
-0.200836 -0.040738 0.349708
-0.200836 0.294153 0.209934
-0.200836 0.447644 0.222185
-0.176755 -0.536294 0.025873
-0.200836 0.352898 0.351731
-0.200836 0.499193 -0.228985
-0.176755 -0.281121 0.359211
-0.200836 -0.043142 -0.348064
-0.200836 -0.36266 -0.458341
-0.176755 0.554129 0.403926
-0.200836 0.433668 0.46311
-0.200836 -0.591944 0.439005
-0.176755 0.638692 0.211735
-0.200836 0.341107 -0.038838
-0.176755 -0.549628 -0.065753
-0.200836 0.70478 -0.278265
-0.200836 -0.651805 0.319773
-0.176755 -0.612039 -0.564008
-0.176755 -0.279619 -0.198216
-0.200836 -0.112265 -0.023874
-0.200836 -6.2e-05 -0.342997
-0.200836 -0.208572 0.18687
-0.200836 0.107192 -0.529462
-0.176755 -0.438552 0.20526
-0.200836 0.276936 0.26918
-0.176755 0.604749 -0.173399
-0.176755 0.713462 0.371889
-0.200836 0.041545 0.475144
-0.176755 -0.436902 -0.087185
-0.200836 -0.218281 -0.157711
-0.176755 0.294047 -0.471144
-0.200836 0.189091 -0.123111
-0.176755 0.542461 0.467759
-0.176755 -0.383886 0.17521
-0.200836 -0.462691 0.183344
-0.200836 0.339124 -0.261706
-0.176755 0.254113 0.399807
-0.176755 -0.238505 -0.473075
-0.200836 -0.243175 0.259437
-0.200836 0.692203 0.056153
-0.176755 -0.469399 -0.585667
-0.176755 -0.476828 0.456493
-0.176755 0.356104 -0.012926
-0.200836 -0.041948 0.091486
-0.200836 0.235702 0.479788
-0.200836 0.529334 0.02069
-0.200836 -0.007969 0.058415
-0.200836 -0.081417 -0.235032
-0.200836 0.045433 0.207922
-0.176755 -0.35989 -0.301903
-0.200836 0.097039 -0.037913
-0.200836 0.118266 -0.33489
-0.200836 -0.4857 0.20001
-0.176755 0.377306 0.174542
-0.200836 0.227358 0.243194
-0.176755 -0.494577 -0.040351
-0.176755 0.223697 -0.216476
-0.200836 0.544979 -0.518599
-0.177486 0.287203 -0.586075
-0.200836 -0.023694 0.484287
-0.200836 -0.590441 0.032354
-0.200836 0.185627 0.431124
-0.200836 0.218767 -0.387688
-0.176755 0.110086 0.048689
-0.200836 0.70281 0.102608
-0.176755 0.501785 0.365248
-0.200836 -0.422833 0.130371
-0.176755 -0.022598 -0.163637
-0.176755 -0.663467 -0.569635
-0.176755 0.491506 -0.324102
-0.200836 -0.518519 -0.375784
-0.200836 0.251842 -0.009537
-0.176755 0.127596 0.098062
-0.176755 -0.042168 -0.067709
-0.200836 -0.580039 0.368765
-0.200836 -0.163961 -0.099067
-0.200836 0.543766 -0.152305
-0.176755 -0.102915 0.230404
-0.200836 -0.495306 0.414985
-0.200836 0.474818 -0.335729
-0.176755 -0.663151 -0.455813
-0.200836 0.609857 -0.456983
-0.176755 0.192396 -0.485421
-0.176755 -0.599027 0.005302
-0.176755 -0.272787 -0.402086
-0.200836 0.136565 0.355327
-0.200836 -0.446265 -0.407506
-0.200836 0.652103 -0.074199
-0.200836 -0.262039 -0.532323
-0.200836 0.146277 -0.560796
-0.176755 0.333281 0.513996
-0.176755 -0.350316 0.445653
-0.176755 0.068958 0.080041
-0.176755 0.371944 -0.043952
-0.200836 -0.667777 -0.341767
-0.176755 0.740263 0.500049
-0.176755 0.088955 -0.277265
-0.176755 0.003083 0.533151
-0.176755 -0.468919 0.274714
-0.200836 -0.517208 0.027421
-0.200836 0.362604 0.301886
-0.176755 0.573375 -0.218247
-0.200836 0.436091 -0.540286
-0.200836 -0.168865 0.052354
-0.176755 0.277277 0.145627
-0.200836 0.432384 0.172951
-0.176755 -0.664288 -0.319863
-0.200836 -0.203587 0.12432
-0.200836 -0.436722 -0.113814
-0.176755 0.30527 -0.377858
-0.200836 -0.291984 -0.336398
-0.200836 0.732688 0.413982
-0.200836 -0.195781 0.403587
-0.176755 0.622408 0.486849
-0.176755 -0.368604 -0.245588
-0.200836 -0.340463 0.527686
-0.200836 0.74516 0.440494
-0.176755 -0.089843 -0.385967
-0.200836 0.567317 -0.53386
-0.200836 -0.037299 -0.205239
-0.176755 -0.227404 -0.246699
-0.200836 0.168374 -0.029179
-0.176755 0.291853 0.490442
-0.176755 0.632965 0.25779
-0.176755 -0.323964 -0.060058
-0.17925 0.75624 0.224865
-0.200836 -0.020422 -0.131823
-0.176755 0.650398 -0.451265
-0.200836 0.703962 -0.003537
-0.176755 0.099387 0.29832
-0.176755 -0.116682 0.300413
-0.200836 0.359589 -0.334855
-0.200836 -0.068855 0.423858
-0.200836 -0.251886 0.203953
-0.200836 -0.028732 -0.046227
-0.176755 -0.457448 -0.348954
-0.176755 -0.554439 -0.117038
-0.176755 0.249312 -0.571514
-0.176755 0.27099 0.293177
-0.176755 0.710757 -0.084569
-0.200836 -0.254238 -0.158491
-0.200836 0.326769 0.302637
-0.176755 -0.074666 -0.340688
-0.200836 -0.364778 0.295414
-0.200836 0.487703 0.322599
-0.200836 -0.351026 0.021647
-0.200836 -0.077851 0.263564
-0.176755 0.571294 0.531911
-0.200836 -0.637295 0.255481
-0.176755 0.279099 0.087067
-0.176755 -0.138288 0.072962
-0.176755 -0.364271 0.326414
-0.200836 -0.478694 -0.412477
-0.200836 -0.376477 -0.518365
-0.176755 0.308066 0.28158
-0.200836 -0.504107 0.289904
-0.176755 -0.586637 0.082169
-0.200836 0.455805 -0.247207
-0.176755 0.628151 -0.346545
-0.200836 0.270633 -0.490813
-0.176755 -0.638232 0.272343
-0.176755 0.10062 0.36511
-0.176755 -0.027911 -0.274487
-0.200836 0.533681 0.389503
-0.200836 -0.518123 0.443299
-0.176755 -0.655229 0.067118
-0.200836 0.422894 -0.08503
-0.200836 -0.473768 0.324125
-0.176755 -0.303326 -0.196184
-0.176755 0.501272 0.31257
-0.176755 -0.398531 0.343883
-0.176755 -0.041118 -0.31799
-0.176755 -0.352286 0.420137
-0.200836 0.67189 -0.194101
-0.200836 -0.447181 0.085087
-0.176755 -0.574185 -0.507712
-0.200836 -0.599106 0.157534
-0.176755 -0.074984 -0.287153
-0.200836 -0.364408 0.099734
-0.200836 -0.442643 -0.148788
-0.176755 0.183263 -0.268123
-0.176755 0.072893 -0.515702
-0.200836 -0.68641 0.416178
-0.176755 0.497094 0.497706
-0.176755 -0.258885 -0.454336
-0.176755 -0.378486 -0.386304
-0.176755 0.258434 -0.051987
-0.176755 0.132004 -0.082098
-0.176755 -0.50939 -0.337441
-0.176755 0.554293 -0.132813
-0.200836 0.562203 0.132983
-0.200836 -0.513409 -0.05468
-0.176755 0.087979 0.04058
-0.176755 0.218482 0.413067
-0.200836 -0.680307 -0.450622
-0.176755 0.468491 0.23572
-0.200836 0.613017 -0.563795
-0.176755 0.736287 -0.319477
-0.200836 -0.179725 0.350139
-0.200836 0.544485 0.107823
-0.200836 -0.641073 0.423207
-0.176755 -0.198205 -0.538528
-0.176755 0.410657 0.174289
-0.176755 0.308603 -0.423198
-0.176755 -0.145745 -0.301181
-0.176755 0.467794 -0.216285
-0.176755 0.635174 -0.300601
-0.176755 -0.587735 0.130866
-0.176755 -0.101683 0.496631
-0.176755 0.078245 -0.092165
-0.176755 -0.51223 0.087977
-0.200836 0.379323 -0.353494
-0.200836 -0.428756 -0.508851
-0.176755 0.003311 -0.063338
-0.176755 0.016272 0.513267
-0.176755 0.489134 0.416009
-0.193297 0.088378 -0.586075
-0.176755 -0.135356 0.117325
-0.200836 0.680489 0.028565
-0.200836 -0.226567 0.299793
-0.17781 -0.130134 -0.586075
-0.200836 -0.178324 -0.382571
-0.200836 -0.114695 0.360997
-0.200836 0.25177 0.133878
-0.200836 0.282422 -0.398848
-0.200836 -0.402171 -0.506809
-0.200836 0.011374 -0.443057
-0.200836 -0.287771 0.380033
-0.200836 0.643535 -0.131687
-0.176755 -0.213151 -0.325338
-0.176755 0.57339 -0.182471
-0.176755 -0.008112 -0.118293
-0.200836 -0.19634 -0.345686
-0.176755 0.596424 -0.220503
-0.176755 0.363818 0.272789
-0.200836 -0.131759 -0.51309
-0.176755 -0.253119 -0.353171
-0.200836 0.25421 -0.537956
-0.200836 0.474933 -0.301958
-0.200836 0.287045 -0.035362
-0.176755 0.452594 0.441454
-0.176755 0.370898 0.373488
-0.176755 0.248941 -0.278297
-0.200836 -0.146105 0.323103
-0.200836 0.137612 -0.41432
-0.200836 -0.544858 0.229983
-0.200836 -0.157103 -0.517179
-0.176755 0.489439 -0.480953
-0.176755 0.593765 -0.029756
-0.176755 -0.184213 0.027706
-0.176755 0.600229 -0.34967
-0.200836 -0.463635 -0.301704
-0.200836 0.32137 -0.052866
-0.200836 0.179604 0.032297
0.016259 -0.033684 -0.549953
0.019709 0.449549 -0.531892
-0.032328 0.134739 -0.549953
-0.111789 0.532302 -0.549953
0.115448 0.267534 -0.549953
-0.070318 -0.378585 -0.531892
-0.07507 -0.136117 -0.549953
-0.104485 -0.522683 -0.549953
0.056218 -0.162851 -0.549953
0.064859 -0.348477 -0.549953
0.144389 -0.494089 -0.531892
0.098912 0.068087 -0.531892
-0.12064 0.298075 -0.549953
-0.088426 0.027288 -0.531892
-0.101276 -0.259814 -0.549953
-0.083549 0.639733 -0.531892
-0.079647 0.39892 -0.549953
0.100491 0.37901 -0.549953
0.067001 0.169624 -0.549953
0.127763 0.490427 -0.549953
0.108921 -0.076001 -0.549953
0.091693 0.640031 -0.531892
0.048562 0.547128 -0.531892
-0.047219 0.231336 -0.549953
0.107976 -0.254776 -0.531892
-0.123514 -0.62127 -0.531892
-0.115575 0.148976 -0.531892
0.118432 -0.414346 -0.549953
0.148274 0.186998 -0.549953
-0.092589 -0.05545 -0.531892
-0.008637 -0.220158 -0.549953
0.024671 0.269066 -0.549953
-0.031222 0.533071 -0.531892
-0.05072 -0.45472 -0.549953
-0.001827 -0.303232 -0.549953
0.166981 -0.188431 -0.531892
-0.13746 0.459956 -0.531892
-0.124783 -0.43701 -0.531892
-0.136682 -0.180274 -0.531892
0.154096 0.014719 -0.531892
-0.13056 -0.333111 -0.531892
0.008911 -0.393981 -0.531892
0.16817 0.341399 -0.549953
-0.053397 0.319195 -0.531892
-0.126702 0.228131 -0.531892
-0.16684 -0.054294 -0.531892
0.135081 -0.34224 -0.549953
0.151646 0.422341 -0.531892
-0.014834 -0.516578 -0.549953
0.054916 -0.457308 -0.549953
0.123386 -0.13782 -0.531892
0.109434 0.564979 -0.549953
0.152124 0.107433 -0.549953
0.077809 0.005872 -0.531892
-0.05673 0.460428 -0.549953
0.084522 0.444491 -0.531892
0.074647 0.319439 -0.549953
0.036086 -0.099314 -0.531892
-0.118366 0.083845 -0.531892
-0.028839 -0.092074 -0.549953
0.007795 0.192987 -0.549953
-0.076257 -0.201682 -0.549953
0.168207 -0.270664 -0.531892
0.040449 -0.256633 -0.549953
0.15634 0.640411 -0.531892
-0.031221 0.017918 -0.549953
-0.124305 0.595247 -0.531892
0.024548 0.127927 -0.531892
-0.143722 0.004401 -0.531892
0.170621 0.244941 -0.549953
0.106414 -0.195448 -0.531892
-0.080218 -0.576718 -0.549953
-0.119783 0.354092 -0.531892
-0.062659 0.08117 -0.549953
-0.071681 -0.309948 -0.549953
-0.027078 0.414551 -0.531892
0.07444 0.2262 -0.549953
0.007052 0.662311 -0.549953
-0.032058 -0.16666 -0.531892
0.176369 -0.121999 -0.531892
-0.145364 0.408442 -0.549953
-0.070156 0.184781 -0.531892
-0.1278 -0.386175 -0.549953
-0.121526 -0.116097 -0.531892
-0.138243 0.665506 -0.531892
0.106219 0.138545 -0.531892
0.046336 0.497378 -0.549953
-0.048264 -0.255131 -0.549953
-0.033256 -0.036226 -0.531892
-0.164489 0.541085 -0.549953
-0.173036 0.592838 -0.549953
0.000179 -0.459077 -0.549953
0.082441 0.688165 -0.549953
-0.004938 -0.648616 -0.549953
-0.025355 0.278578 -0.549953
0.092141 -0.574314 -0.531892
0.155505 -0.069499 -0.531892
-0.028852 -0.356507 -0.549953
-0.054476 0.590235 -0.549953
0.060551 -0.056936 -0.549953
0.147744 -0.634435 -0.531892
0.160188 -0.446365 -0.531892
0.038203 0.029004 -0.549953
0.044959 0.631071 -0.549953
0.14818 0.541076 -0.531892
0.079831 -0.29482 -0.531892
0.116677 -0.023692 -0.531892
-0.13181 -0.573622 -0.549953
-0.03477 -0.406559 -0.549953
-0.05462 -0.537305 -0.531892
-0.143794 0.187253 -0.549953
0.010397 -0.149593 -0.549953
0.103914 -0.476837 -0.549953
-0.073631 -0.634988 -0.549953
0.055249 0.364597 -0.549953
0.170352 0.06263 -0.531892
-0.14709 -0.502274 -0.531892
-0.160094 0.058704 -0.549953
0.075754 -0.405374 -0.531892
0.121798 0.31065 -0.531892
-0.015038 0.488887 -0.531892
-0.033658 0.366382 -0.531892
-0.157551 -0.221515 -0.549953
0.056661 0.094407 -0.531892
-0.102562 0.486874 -0.549953
0.081163 -0.108789 -0.531892
-0.084263 0.276642 -0.531892
0.030352 0.310824 -0.531892
-0.082706 0.122672 -0.549953
-0.037534 0.652171 -0.549953
0.026247 -0.497156 -0.549953
-0.172552 -0.625573 -0.531892
0.071829 0.586068 -0.531892
-0.164706 0.493147 -0.549953
0.033157 -0.542314 -0.531892
0.08594 0.508102 -0.531892
-0.151404 0.113508 -0.531892
0.118396 0.214391 -0.531892
0.13203 -0.296206 -0.531892
0.105848 -0.651188 -0.531892
0.160432 -0.378163 -0.549953
-0.084026 -0.483181 -0.549953
-0.005586 0.563395 -0.549953
0.16549 0.479015 -0.531892
-0.076873 0.356941 -0.531892
0.119755 0.677288 -0.531892
-0.11076 -0.016068 -0.549953
-0.131145 -0.079194 -0.549953
-0.072524 0.552213 -0.549953
-0.071616 -0.011069 -0.531892
0.180162 -0.54881 -0.549953
-0.169186 0.154239 -0.549953
-0.162579 0.354201 -0.549953
-0.084266 -0.41299 -0.549953
0.077255 0.263119 -0.531892
0.036077 -0.425647 -0.531892
-0.013247 0.0988 -0.531892
0.127302 0.044684 -0.549953
0.157389 -0.235514 -0.549953
0.171122 0.146054 -0.531892
-0.125332 -0.292624 -0.549953
-0.153523 0.63278 -0.549953
0.179089 0.61255 -0.549953
-0.066049 -0.085513 -0.531892
-0.082609 0.227078 -0.531892
0.109277 0.178582 -0.549953
0.046636 0.690053 -0.531892
0.157558 0.289106 -0.531892
-0.091974 -0.345536 -0.531892
0.170431 0.674382 -0.549953
0.030638 0.400404 -0.531892
-0.113132 0.430521 -0.549953
0.040423 0.204151 -0.531892
-0.102372 -0.162132 -0.531892
0.128116 0.45646 -0.531892
0.135017 0.348037 -0.531892
-0.037089 -0.485488 -0.531892
0.04168 -0.006418 -0.531892
-0.055933 -0.606408 -0.531892
-0.075031 0.514357 -0.549953
0.110667 -0.511349 -0.531892
-0.166718 -0.417207 -0.549953
-0.010807 0.310925 -0.531892
0.107664 -0.613691 -0.531892
-0.118118 -0.231709 -0.531892
0.035899 0.59589 -0.531892
0.062384 -0.194833 -0.531892
0.028567 -0.368034 -0.549953
-0.089025 -0.451117 -0.531892
0.01618 0.518717 -0.549953
-0.155216 -0.304597 -0.531892
-0.16285 -0.135693 -0.549953
-0.144604 -0.030227 -0.549953
0.033758 -0.311904 -0.549953
-0.07452 -0.278236 -0.531892
0.1648 -0.156667 -0.549953
-0.051459 0.492022 -0.531892
0.073398 0.121374 -0.549953
0.023852 0.093264 -0.549953
-0.160528 -0.530873 -0.549953
0.090035 -0.37199 -0.531892
0.068866 -0.490781 -0.549953
-0.109451 -0.649223 -0.549953
-0.08361 0.601168 -0.531892
0.092084 0.41399 -0.549953
0.071476 -0.258912 -0.531892
0.082729 0.350255 -0.531892
-0.16064 0.289639 -0.549953
-0.093037 0.696038 -0.533704
0.104167 -0.321006 -0.531892
0.10923 0.595784 -0.531892
0.174394 -0.487286 -0.549953
-0.023112 -0.137272 -0.549953
-0.104114 0.195494 -0.531892
-0.032425 -0.301763 -0.531892
0.085918 0.475061 -0.549953
-0.048949 -0.333526 -0.531892
0.039723 -0.129539 -0.549953
-0.129842 0.050391 -0.531892
-0.064997 0.431189 -0.531892
-0.023423 0.05368 -0.531892
0.019786 -0.234973 -0.531892
0.003609 -0.423429 -0.549953
0.165859 -0.300468 -0.549953
0.095276 0.030795 -0.549953
0.028841 0.234461 -0.549953
0.01092 -0.566963 -0.549953
0.136658 -0.465207 -0.549953
-0.151884 0.696038 -0.54261
-0.175731 0.430425 -0.549953
0.145069 0.606742 -0.549953
0.12783 0.405161 -0.549953
-0.088858 0.061724 -0.531892
0.121378 -0.228767 -0.549953
-0.166821 0.245363 -0.549953
-0.113407 0.650199 -0.549953
0.17701 -0.046735 -0.549953
-0.05599 -0.227096 -0.531892
-0.001958 0.400229 -0.549953
-0.15579 0.568619 -0.531892
-0.172329 0.208432 -0.549953
0.090632 -0.435979 -0.531892
0.14077 -0.200303 -0.549953
0.142238 0.249612 -0.531892
0.110852 0.522359 -0.549953
0.13847 -0.0988 -0.531892
0.08887 -0.042843 -0.531892
0.146076 0.569494 -0.549953
-0.098432 0.563909 -0.531892
-0.025967 0.448193 -0.531892
-0.150625 -0.369727 -0.531892
0.000825 0.008534 -0.549953
-0.018046 0.171913 -0.549953
0.063582 0.040699 -0.531892
-0.13621 0.51005 -0.549953
-0.058128 0.155366 -0.549953
0.054435 -0.637305 -0.549953
-0.01906 -0.549244 -0.549953
-0.060555 0.045037 -0.531892
0.108433 -0.109634 -0.549953
0.138027 -0.393529 -0.531892
0.052719 0.284517 -0.531892
-0.047596 0.627224 -0.531892
0.04326 -0.390522 -0.531892
0.035254 0.152457 -0.549953
0.142937 -0.019092 -0.549953
-0.088982 0.458116 -0.549953
0.128873 -0.169003 -0.531892
-0.158771 -0.258202 -0.549953
-0.136826 0.334507 -0.549953
0.025653 -0.277955 -0.531892
0.148806 0.389883 -0.531892
-0.023545 -0.198989 -0.531892
0.143294 0.690473 -0.549953
0.123196 0.008361 -0.531892
0.066722 0.387742 -0.531892
-0.135541 0.258271 -0.531892
0.170337 -0.519024 -0.549953
0.142772 -0.267874 -0.549953
0.162378 -0.420669 -0.549953
-0.09799 0.255178 -0.549953
-0.090364 -0.114235 -0.531892
0.061544 0.468408 -0.531892
-0.106763 -0.207393 -0.549953
0.012217 -0.091182 -0.549953
0.024968 -0.454746 -0.531892
0.125519 0.114351 -0.531892
0.065401 0.420247 -0.531892
-0.135345 -0.149454 -0.531892
0.003263 -0.350411 -0.549953
0.05622 -0.563436 -0.531892
0.087373 0.285894 -0.549953
0.064429 0.663389 -0.549953
-0.057628 0.667459 -0.531892
0.115751 0.652971 -0.549953
0.121717 0.623651 -0.531892
-0.116628 0.625953 -0.531892
0.177027 0.09001 -0.549953
0.061676 -0.425224 -0.549953
0.083441 -0.132867 -0.549953
0.112857 -0.379389 -0.549953
-0.114485 0.011171 -0.531892
-0.096624 0.09611 -0.549953
-0.080587 -0.521538 -0.531892
0.15907 0.04154 -0.549953
-0.041275 -0.003748 -0.531892
0.000969 0.245326 -0.549953
-0.149886 -0.099014 -0.531892
-0.046498 -0.192705 -0.549953
-0.055163 0.280446 -0.549953
-0.01006 -0.047769 -0.549953
0.025933 0.554285 -0.549953
0.046734 -0.331698 -0.531892
0.098948 -0.276647 -0.549953
0.10297 0.239848 -0.531892
-0.145627 -0.478685 -0.549953
-0.055576 0.130547 -0.531892
0.003306 0.466479 -0.549953
-0.111667 -0.585816 -0.531892
0.108822 0.43848 -0.549953
-0.1048 -0.391024 -0.531892
-0.056457 -0.432133 -0.531892
0.04004 -0.188283 -0.549953
-0.004207 0.040674 -0.549953
0.115559 -0.556734 -0.531892
0.17434 0.425799 -0.549953
0.052962 -0.606742 -0.531892
0.093206 -0.221341 -0.549953
-0.172507 0.125299 -0.549953
-0.040887 0.107033 -0.549953
-0.168584 -0.28628 -0.549953
0.091947 -0.170402 -0.531892
-0.061518 -0.11809 -0.531892
0.165214 0.210333 -0.549953
-0.032692 -0.378556 -0.531892
-0.080403 0.15731 -0.531892
-0.139232 0.132184 -0.549953
0.038791 0.438069 -0.549953
-0.08828 -0.08562 -0.549953
0.128228 -0.434295 -0.531892
-0.106059 0.21995 -0.549953
-0.139595 0.09012 -0.549953
-0.017548 0.51079 -0.549953
0.142221 0.067049 -0.531892
0.146056 0.323496 -0.549953
-0.125251 -0.354445 -0.549953
0.073124 -0.015582 -0.549953
-0.105405 -0.283513 -0.531892
-0.123623 0.407072 -0.531892
-0.147752 0.158031 -0.531892
-0.072058 0.308064 -0.549953
-0.037686 0.304246 -0.549953
-0.069592 -0.339813 -0.549953
-0.076563 -0.233561 -0.549953
0.070555 0.06795 -0.531892
0.153225 0.368813 -0.549953
0.082074 -0.642085 -0.549953
0.055106 -0.089507 -0.549953
-0.074659 -0.15908 -0.531892
-0.110931 -0.090335 -0.531892
-0.037204 0.681286 -0.549953
-0.070624 0.246133 -0.549953
0.147143 -0.135361 -0.549953
-0.047814 -0.071936 -0.549953
-0.0065 0.427503 -0.549953
0.025157 0.338827 -0.549953
0.083255 -0.195486 -0.549953
0.039367 0.053951 -0.531892
0.082313 0.559897 -0.549953
-0.08301 0.006355 -0.549953
-0.131187 -0.247907 -0.549953
0.009037 0.586744 -0.549953
-0.046739 0.390566 -0.531892
0.062542 -0.318293 -0.549953
-0.126349 0.028112 -0.549953
0.008083 -0.480858 -0.531892
-0.075233 0.207811 -0.549953
-0.013903 -0.180752 -0.549953
-0.040711 -0.581451 -0.531892
-0.061829 -0.499197 -0.549953
-0.00284 0.369251 -0.549953
0.145261 0.133237 -0.531892
-0.159187 -0.182397 -0.549953
0.059122 0.136026 -0.531892
-0.00588 0.147486 -0.549953
0.182568 -0.246749 -0.549953
0.080806 0.527597 -0.549953
-0.133065 -0.525366 -0.531892
0.004285 -0.548003 -0.531892
-0.109824 -0.450336 -0.549953
-0.152792 -0.54926 -0.531892
-0.149524 0.222687 -0.549953
0.148408 -0.560808 -0.549953
-0.092266 0.619065 -0.549953
-0.110428 -0.423305 -0.549953
-0.116619 0.317499 -0.531892
-0.009319 -0.386245 -0.549953
-0.021376 0.640494 -0.531892
-0.110767 0.459362 -0.531892
-0.024227 -0.630266 -0.549953
-0.112095 -0.179039 -0.549953
0.041442 -0.068521 -0.531892
0.098573 0.215104 -0.549953
-0.098135 -0.307671 -0.549953
-0.025009 0.564216 -0.531892
-0.150988 -0.576897 -0.531892
-0.123285 -0.490654 -0.531892
-0.088694 -0.647722 -0.531892
0.183747 0.647967 -0.531892
0.008656 0.279914 -0.531892
-0.17524 0.189344 -0.531892
-0.158634 -0.651848 -0.549953
0.047793 0.169633 -0.531892
-0.102254 0.126229 -0.531892
-0.137316 -0.061039 -0.531892
0.111855 0.477164 -0.531892
0.092794 0.152174 -0.549953
0.023655 0.484071 -0.549953
-0.120466 -0.135116 -0.549953
0.030176 -0.341026 -0.549953
-0.004876 0.534331 -0.549953
0.110688 -0.041712 -0.549953
-0.091871 0.335494 -0.531892
-0.022223 0.342848 -0.531892
-0.041643 0.044593 -0.549953
0.140332 0.442124 -0.549953
-0.012527 -0.408841 -0.531892
0.053925 -0.291844 -0.531892
-0.161632 -0.449096 -0.549953
-0.010301 0.213649 -0.549953
0.103356 0.32898 -0.531892
-0.037769 -0.283875 -0.549953
0.020991 0.609799 -0.549953
-0.056286 -0.392026 -0.549953
-0.059375 -0.025118 -0.549953
0.107949 -0.339118 -0.549953
-0.013564 0.26371 -0.531892
-0.106832 0.399464 -0.549953
0.153036 0.465512 -0.549953
0.075531 0.18589 -0.531892
0.066755 0.438537 -0.549953
0.183142 -0.294979 -0.531892
-0.060139 0.524699 -0.531892
0.086741 -0.493694 -0.531892
-0.115386 -0.603502 -0.549953
-0.174529 -0.400994 -0.531892
0.109566 -0.177735 -0.549953
0.007694 -0.278725 -0.549953
-0.101931 0.581476 -0.549953
0.093955 -0.53042 -0.531892
-0.172894 0.649141 -0.549953
0.078685 -0.551723 -0.531892
-0.085895 0.374375 -0.549953
0.172995 0.163683 -0.549953
0.135053 -0.217593 -0.531892
-0.102001 0.294556 -0.531892
0.02041 0.296338 -0.549953
-0.105195 -0.373496 -0.549953
0.126922 0.564988 -0.531892
0.013376 -0.208024 -0.549953
-0.163837 0.404389 -0.531892
-0.175028 0.687819 -0.549953
-0.145374 0.351971 -0.531892
0.057529 0.206993 -0.549953
-0.087371 0.182695 -0.549953
-0.003255 -0.244607 -0.549953
0.138257 0.299734 -0.549953
-0.060612 0.351077 -0.549953
-0.024375 0.233744 -0.531892
-0.155069 0.593568 -0.531892
0.170545 0.26781 -0.531892
0.171786 0.585716 -0.549953
0.086253 -0.391851 -0.549953
-0.08435 0.539857 -0.531892
-0.001911 0.629172 -0.549953
0.038498 -0.485389 -0.531892
0.1105 -0.298582 -0.549953
0.130021 -0.075506 -0.531892
-0.15201 0.43993 -0.531892
-0.093808 0.389086 -0.531892
0.005346 0.385288 -0.531892
0.123093 -0.319795 -0.549953
-0.025964 0.597951 -0.531892
-0.156749 0.380608 -0.549953
-0.021068 -0.446842 -0.549953
0.023738 -0.598566 -0.549953
-0.137641 0.282631 -0.531892
0.147909 -0.601509 -0.531892
-0.045744 -0.157725 -0.549953
0.012357 -0.365977 -0.531892
0.063419 0.024462 -0.549953
-0.02992 0.160842 -0.531892
0.171346 -0.609428 -0.549953
0.141195 0.213762 -0.549953
0.132717 -0.523318 -0.531892
0.019534 0.005132 -0.531892
-0.120542 -0.307925 -0.531892
-0.095306 -0.020263 -0.531892
0.066633 -0.115511 -0.549953
-0.105431 -0.336872 -0.549953
-0.100311 0.037991 -0.549953
-0.049115 0.546622 -0.549953
-0.052819 -0.408378 -0.531892
0.166478 -0.080931 -0.549953
0.08382 0.109449 -0.531892
0.049104 0.26078 -0.531892
-0.144734 -0.127377 -0.531892
-0.135881 -0.109627 -0.549953
0.12052 -0.008442 -0.549953
0.047397 0.185243 -0.549953
0.129359 0.430868 -0.531892
0.097914 0.167915 -0.531892
0.142018 -0.356186 -0.531892
-0.154518 0.085663 -0.531892
0.129374 -0.242115 -0.531892
-0.06676 -0.484474 -0.531892
0.035096 0.068787 -0.549953
0.114569 -0.441425 -0.549953
-0.030676 0.248349 -0.549953
0.175729 -0.201095 -0.549953
0.105839 0.420879 -0.531892
0.073923 0.155887 -0.531892
0.158021 0.167151 -0.531892
0.082742 0.300545 -0.531892
0.055679 -0.534921 -0.531892
-0.113717 0.267503 -0.531892
0.009001 0.111708 -0.549953
-0.137056 0.483609 -0.531892
0.124176 -0.473842 -0.531892
0.119331 0.534942 -0.531892
0.020131 -0.124475 -0.531892
0.045847 0.512505 -0.531892
-0.144206 0.208525 -0.531892
-0.045259 -0.507534 -0.531892
0.073379 -0.064785 -0.531892
-0.056879 -0.59142 -0.549953
0.158353 0.093789 -0.531892
-0.104174 -0.068348 -0.549953
0.16342 -0.114493 -0.549953
0.072652 0.209146 -0.531892
0.162017 -0.47302 -0.531892
-0.138154 -0.164026 -0.549953
-0.155085 -0.280416 -0.531892
0.054366 -0.358696 -0.531892
-0.019623 0.470105 -0.549953
0.098167 -0.41108 -0.531892
-0.144994 -0.425874 -0.531892
-0.081946 -0.62842 -0.00554
0.076651 -0.62842 -0.34442
0.089233 -0.62842 -0.053568
-0.108954 -0.62842 0.403528
-0.052241 -0.62842 -0.43057
0.070601 -0.62842 -0.518622
-0.05117 -0.62842 -0.277886
0.11729 -0.62842 0.25687
-0.09848 -0.62842 -0.154822
-0.114939 -0.62842 0.172002
0.073027 -0.62842 -0.215893
-0.13485 -0.62842 -0.353066
0.176369 -0.62842 0.482781
0.084763 -0.62842 0.052373
-0.11277 -0.62842 0.275711
0.057755 -0.62842 0.459697
0.038756 -0.62842 0.176327
-0.121686 -0.62842 0.49971
0.119714 -0.62842 -0.139923
-0.003386 -0.62842 0.03526
0.111316 -0.62842 0.344732
-0.034499 -0.62842 0.449698
0.040298 -0.62842 -0.422443
0.121938 -0.62842 -0.447115
0.120185 -0.62842 0.177355
-0.039063 -0.62842 0.152902
-0.01533 -0.62842 -0.046604
-0.045973 -0.62842 0.314981
0.000381 -0.62842 -0.355835
-0.010951 -0.62842 -0.209053
-0.088186 -0.62842 -0.081024
-0.123512 -0.62842 -0.451622
-0.135607 -0.62842 0.088213
0.05543 -0.62842 0.294046
-0.116658 -0.62842 -0.223578
0.122541 -0.62842 0.430751
-0.069919 -0.62842 0.064503
0.15689 -0.62842 -0.066988
0.157342 -0.62842 0.037402
0.061908 -0.62842 0.113113
0.116887 -0.62842 -0.263473
-0.04881 -0.62842 0.216776
0.123895 -0.62842 0.109878
-0.143908 -0.62842 -0.02817
-0.14199 -0.62842 0.351642
-0.071636 -0.62842 -0.50017
-0.005554 -0.62842 0.102955
0.062191 -0.62842 0.231444
0.06187 -0.62842 -0.125356
-0.058764 -0.62842 -0.348443
0.154889 -0.62842 -0.218774
0.131434 -0.62842 -0.323734
0.074877 -0.62842 0.398497
0.056668 -0.62842 -0.268889
-0.104542 -0.62842 -0.29261
-0.100759 -0.62842 -0.396508
-0.062729 -0.62842 0.376284
-0.133534 -0.62842 -0.10977
-0.14027 -0.62842 0.227348
0.12947 -0.62842 -0.019433
0.029585 -0.62842 -0.074079
0.066605 -0.62842 0.003421
0.131265 -0.62842 -0.395797
-0.061738 -0.62842 -0.214988
0.162578 -0.62842 0.234667
-0.040821 -0.62842 -0.16783
0.144052 -0.62842 0.386147
-0.107095 -0.62842 0.453531
-0.090069 -0.62842 0.333162
0.035767 -0.62842 0.061085
-0.060771 -0.62842 0.488125
0.168385 -0.62842 0.425149
0.107484 -0.62842 0.47396
-0.123435 -0.62842 0.013347
0.167794 -0.62842 -0.157617
0.026368 -0.62842 0.328881
-0.096726 -0.62842 0.109825
-0.15301 -0.62842 -0.484348
0.115572 -0.62842 -0.198971
0.14259 -0.62842 0.313774
-0.155066 -0.62842 -0.168811
-0.022855 -0.62842 -0.09262
-0.028946 -0.62842 0.257481
0.098974 -0.62842 -0.485677
0.11867 -0.62842 -0.086891
0.029438 -0.62842 -0.530323
-0.058842 -0.62842 -0.050097
-0.159858 -0.62842 -0.315611
0.152326 -0.62842 -0.359683
0.082145 -0.62842 -0.437862
0.17219 -0.62842 -0.323706
0.092235 -0.62842 -0.384367
-0.08804 -0.62842 -0.255518
-0.024102 -0.62842 -0.520898
-0.148199 -0.62842 0.455753
-0.022384 -0.62842 -0.456496
0.080096 -0.62842 -0.160349
-0.139539 -0.62842 0.304636
-0.087864 -0.62842 0.217946
-0.145957 -0.62842 0.391017
0.137988 -0.62842 0.498226
-0.154946 -0.62842 0.263412
0.098855 -0.62842 0.218482
0.070484 -0.62842 -0.305146
0.033314 -0.62842 -0.384347
-0.13611 -0.62842 0.126701
0.104393 -0.62842 0.306937
-0.043954 -0.62842 0.092766
0.142197 -0.62842 -0.479711
0.033184 -0.62842 0.022333
-0.139006 -0.62842 -0.399
0.051743 -0.62842 -0.485984
-0.009487 -0.62842 0.186515
0.160579 -0.62842 -0.103925
-0.115243 -0.62842 0.057489
0.137836 -0.62842 0.145203
-0.050689 -0.62842 0.41092
0.168504 -0.62842 -0.252696
-0.150166 -0.62842 0.181385
0.035202 -0.62842 -0.193195
0.147601 -0.62842 0.349459
0.073215 -0.62842 0.491717
-0.057888 -0.62842 0.020123
-0.018492 -0.62842 0.490119
0.08245 -0.62842 0.260264
-0.072563 -0.62842 0.161328
0.057214 -0.62842 -0.040973
-0.073348 -0.62842 0.294583
-0.090151 -0.62842 -0.361359
0.152358 -0.62842 0.281281
-0.0768 -0.62842 -0.112865
-0.171425 -0.62842 -0.24649
0.11127 -0.62842 0.078523
0.104948 -0.62842 0.003779
-0.023365 -0.62842 0.066032
-0.059261 -0.62842 -0.381831
0.171845 -0.62842 -0.037283
0.10461 -0.62842 0.146561
0.031936 -0.62842 0.270548
0.167071 -0.62842 0.515927
-0.08794 -0.62842 -0.194786
-0.033372 -0.62842 -0.489241
-0.092804 -0.62842 0.515166
0.04401 -0.62842 -0.152685
0.098211 -0.62842 -0.236468
-0.013097 -0.62842 0.341726
0.135439 -0.62842 0.217328
0.155869 -0.62842 0.109989
0.119836 -0.62842 -0.353094
-0.065363 -0.62842 0.438804
0.045664 -0.62842 -0.349568
-0.034758 -0.62842 -0.251236
0.166633 -0.62842 -0.432652
-0.110647 -0.62842 -0.017548
0.12885 -0.62842 0.049756
0.054022 -0.62842 -0.450987
0.026284 -0.62842 -0.272153
0.03706 -0.62842 -0.103649
-0.147465 -0.62842 -0.514338
-0.11693 -0.62842 0.202345
0.140875 -0.62842 0.468201
0.09296 -0.62842 0.435092
-0.068226 -0.62842 -0.302312
-0.145707 -0.62842 -0.230154
-0.037257 -0.62842 -0.118676
0.062975 -0.62842 -0.378915
-0.088262 -0.62842 -0.045874
-0.128439 -0.62842 -0.053513
0.047964 -0.62842 -0.240531
-0.088911 -0.62842 0.258236
-0.102722 -0.62842 -0.425969
-0.164854 -0.62842 -0.140974
0.092998 -0.62842 0.188376
-0.122771 -0.62842 -0.138401
0.099722 -0.62842 -0.304887
-0.162664 -0.62842 -0.10822
0.099924 -0.62842 0.522444
-0.051001 -0.62842 0.187776
0.05862 -0.62842 -0.07244
-0.061692 -0.62842 0.242761
0.115414 -0.62842 0.390729
-0.078056 -0.62842 0.400824
0.016436 -0.62842 -0.048315
-0.084804 -0.62842 0.47167
-0.037605 -0.62842 -0.198907
-0.031807 -0.62842 0.031417
-0.123706 -0.62842 -0.313283
0.132668 -0.62842 0.008847
-0.060384 -0.62842 -0.147564
0.052071 -0.62842 0.20107
-0.021072 -0.62842 0.131546
-0.059519 -0.62842 -0.47502
-0.167101 -0.62842 0.339729
0.038066 -0.62842 0.513681
-0.111823 -0.62842 0.3038
-0.100634 -0.62842 -0.518269
0.169507 -0.62842 -0.292866
-0.100569 -0.62842 -0.466815
-0.095154 -0.62842 0.428782
-0.106786 -0.62842 -0.101167
0.133958 -0.62842 -0.052001
-0.175573 -0.62842 0.245475
0.121409 -0.62842 0.283779
-0.006327 -0.62842 -0.240284
-0.014764 -0.62842 -0.294865
0.003092 -0.62842 0.071151
-0.090586 -0.62842 0.183368
-0.009051 -0.62842 0.425204
-0.025319 -0.62842 -0.34866
-0.148264 -0.62842 0.500611
0.183441 -0.62842 -0.357476
0.031486 -0.62842 -0.502849
0.094382 -0.62842 -0.097131
0.003429 -0.62842 -0.092989
0.019501 -0.62842 -0.143588
-0.090764 -0.62842 0.048709
0.131146 -0.62842 -0.242069
0.033249 -0.62842 0.447466
0.145026 -0.62842 0.086906
0.088033 -0.62842 0.354728
0.109898 -0.62842 -0.511412
0.111351 -0.62842 -0.116042
-0.143693 -0.62842 0.430921
0.024119 -0.62842 0.303794
0.142736 -0.62842 -0.15011
0.179482 -0.62842 0.00364
-0.03298 -0.62842 -0.064192
-0.170698 -0.62842 0.079035
0.003957 -0.62842 -0.189157
-0.127334 -0.62842 -0.246813
-0.139509 -0.62842 0.159008
-0.041367 -0.62842 -0.032798
0.152504 -0.62842 -0.412649
-0.072232 -0.62842 -0.524549
0.058368 -0.62842 0.257389
0.001411 -0.62842 -0.027836
0.034036 -0.62842 0.351722
-0.055077 -0.62842 -0.322263
0.049394 -0.62842 0.492501
-0.079433 -0.62842 -0.430821
0.0845 -0.62842 -0.255831
0.046561 -0.62842 0.082088
-0.118382 -0.62842 0.351516
0.028663 -0.62842 0.19766
0.089069 -0.62842 0.282842
0.087432 -0.62842 0.378777
-0.052056 -0.62842 0.049726
-0.056252 -0.62842 -0.242585
-0.108896 -0.62842 -0.185002
0.044317 -0.62842 0.153892
-0.03269 -0.62842 0.425373
-0.030482 -0.62842 0.280463
0.029233 0.720119 0.068012
-0.077356 0.720119 0.347202
-0.048196 0.720119 -0.396955
0.061715 0.720119 -0.247036
0.049158 0.696038 0.237199
0.066202 0.720119 0.406159
0.058085 0.720119 -0.075763
-0.103729 0.696038 0.10627
-0.092027 0.720119 -0.075687
0.097879 0.696038 -0.44806
-0.055994 0.720119 0.475569
-0.074917 0.696038 -0.265295
-0.162496 0.696038 -0.474798
-0.073212 0.720119 0.229012
-0.024823 0.720119 -0.160249
0.114012 0.720119 0.134799
0.035942 0.696038 0.518644
0.114396 0.696038 0.009435
-0.026588 0.696038 -0.006626
-0.115777 0.696038 -0.165756
0.124191 0.696038 -0.166369
0.088109 0.720119 -0.352289
0.113687 0.720119 0.297668
0.13016 0.696038 0.484242
-0.110722 0.720119 0.010719
0.147762 0.696038 -0.079877
-0.140761 0.696038 0.293025
-0.127024 0.720119 0.414689
-0.107315 0.720119 -0.341936
-0.08609 0.720119 -0.47346
0.142122 0.696038 0.401312
0.049136 0.720119 -0.157538
-0.002823 0.720119 -0.281558
0.136743 0.696038 -0.240043
-0.143512 0.696038 -0.404825
0.139747 0.720119 -0.52073
0.129974 0.720119 0.206933
0.046604 0.720119 0.337082
-0.049938 0.720119 0.056766
0.037151 0.720119 0.171421
-0.050656 0.720119 0.156207
0.022318 0.696038 0.452737
-0.149169 0.720119 0.163294
0.154805 0.696038 -0.414167
-0.158487 0.696038 -0.089719
0.101743 0.696038 0.073781
-0.160667 0.720119 0.061926
-0.124812 0.720119 0.479436
-0.017858 0.696038 0.208135
-0.146246 0.696038 0.229194
-0.050368 0.696038 -0.331961
-0.064867 0.720119 0.410885
-0.009285 0.720119 -0.444899
-0.139138 0.696038 0.35428
0.076049 0.720119 -0.51068
0.15839 0.720119 0.345242
-0.059513 0.696038 -0.521171
0.047469 0.696038 -0.022316
-0.141049 0.720119 -0.244642
-0.071669 0.720119 -0.196877
0.17728 0.720119 0.143837
0.09814 0.696038 0.351032
0.064456 0.720119 -0.405868
-0.098839 0.696038 0.180393
-0.010432 0.720119 0.11398
0.030597 0.720119 -0.358913
0.157504 0.720119 0.062779
-0.083237 0.696038 0.292193
-0.018169 0.720119 -0.058075
0.094755 0.696038 -0.112798
0.079261 0.720119 0.474344
-0.001573 0.720119 -0.211485
0.159505 0.720119 -0.285448
0.047517 0.720119 -0.463785
0.014572 0.720119 -0.115352
-0.004755 0.720119 0.355144
0.07082 0.696038 -0.294513
-0.011877 0.720119 -0.510582
0.066204 0.696038 0.290958
-0.149093 0.696038 -0.017953
-0.068497 0.720119 -0.129163
-0.010428 0.720119 0.418621
0.139657 0.720119 -0.030537
0.158943 0.720119 0.270231
0.14588 0.696038 -0.362361
-0.087839 0.696038 -0.420743
0.058713 0.720119 0.025265
-0.161629 0.720119 -0.519578
-0.065726 0.696038 -0.037562
0.0756 0.720119 0.202798
-0.00297 0.720119 0.500584
-0.11869 0.696038 0.054871
-0.10994 0.720119 -0.293131
0.068856 0.720119 0.116532
-0.17081 0.720119 0.444813
0.183894 0.720119 0.407991
0.076953 0.696038 -0.188975
-0.034531 0.720119 0.258085
0.113499 0.720119 -0.407072
0.16223 0.720119 -0.123097
-0.043404 0.720119 0.313103
-0.122849 0.720119 -0.112037
-0.009042 0.696038 -0.367089
-0.057505 0.720119 0.109743
-0.147415 0.720119 0.106983
-0.105352 0.696038 -0.226049
0.100847 0.696038 0.440404
-0.156899 0.720119 -0.358137
-0.176673 0.696038 0.392382
0.108351 0.720119 -0.07494
0.021273 0.696038 -0.060631
0.135635 0.696038 0.168023
-0.03581 0.696038 -0.237423
0.078224 0.696038 0.163927
0.105725 0.720119 0.245763
0.038217 0.696038 0.375049
0.184461 0.709374 0.187394
0.165016 0.696038 -0.195435
-0.134362 0.720119 -0.060509
0.024535 0.696038 -0.240725
0.102081 0.720119 -0.225468
-0.081167 0.696038 -0.368698
0.084742 0.720119 -0.023684
-0.132051 0.720119 -0.200219
-0.16163 0.720119 0.325102
0.168321 0.696038 -0.007922
0.127403 0.696038 -0.486499
-0.053365 0.696038 0.374382
0.009124 0.720119 -0.012077
0.013778 0.720119 0.244249
-0.125205 0.720119 -0.496309
-0.164304 0.720119 0.505524
0.108093 0.696038 -0.322867
0.034694 0.696038 -0.193292
0.033627 0.696038 0.102376
-0.14686 0.696038 -0.325248
0.029993 0.720119 -0.511636
-0.113169 0.720119 0.240898
-0.046333 0.720119 -0.485179
-0.160574 0.720119 0.014821
0.119552 0.720119 -0.275458
-0.108701 0.696038 0.386834
-0.026377 0.696038 0.447702
-0.041149 0.696038 -0.081964
0.024642 0.720119 -0.318533
-0.030619 0.696038 -0.195987
-0.039886 0.696038 -0.432904
-0.13716 0.696038 0.445819
0.137347 0.720119 0.098004
0.037626 0.720119 -0.279541
-0.120531 0.720119 -0.427732
0.130137 0.720119 -0.449651
-0.121781 0.696038 -0.370543
-0.105117 0.696038 0.50639
0.072817 0.720119 0.5132
0.02051 0.720119 -0.419281
-0.11351 0.720119 0.307835
-0.162562 0.696038 -0.194773
-0.110487 0.696038 -0.024306
-0.028689 0.696038 -0.129745
-0.106902 0.720119 0.136751
-0.058399 0.720119 -0.007916
0.095743 0.720119 -0.143291
0.104325 0.696038 -0.377983
0.063944 0.696038 0.065798
-0.097546 0.696038 0.423738
0.117842 0.720119 0.039238
-0.000487 0.720119 0.179215
-0.013336 0.696038 -0.476961
-0.01272 0.720119 0.047713
-0.167817 0.696038 -0.26006
-0.119379 0.696038 -0.264604
0.160327 0.696038 0.507286
0.124212 0.720119 0.519378
-0.062742 0.720119 -0.291945
-0.126263 0.720119 0.193452
-0.016181 0.696038 -0.539202
-0.140692 0.720119 -0.149213
0.061489 0.720119 -0.325627
0.081706 0.720119 0.317261
0.057657 0.696038 -0.117713
0.148031 0.696038 0.025797
-0.083243 0.696038 0.467062
0.011465 0.696038 0.151529
0.154952 0.696038 0.31718
0.035797 0.696038 0.411947
-0.059043 0.696038 0.205308
0.067396 0.720119 0.263375
0.154833 0.720119 -0.484377
-0.047475 0.720119 0.521026
0.097322 0.696038 0.271939
-0.077167 0.720119 0.265531
0.084314 0.696038 -0.062362
-0.107368 0.696038 -0.451174
-0.17327 0.720119 0.286442
-0.163954 0.696038 -0.436715
-0.001673 0.720119 0.463881
-0.001073 0.696038 0.53064
-0.068659 0.720119 -0.438476
0.145501 0.720119 0.427211
-0.076905 0.720119 -0.239267
-0.032622 0.696038 0.499608
0.089021 0.720119 0.37901
-0.036177 0.696038 -0.281223
0.11209 0.696038 -0.201463
0.044247 0.696038 -0.389585
-0.002322 0.720119 0.317955
0.044222 0.720119 0.492453
0.103514 0.696038 -0.252025
-0.086929 0.720119 0.086705
0.100216 0.696038 0.210342
0.12887 0.696038 0.368261
0.175948 0.720119 0.032623
-0.024453 0.696038 0.135451
-0.097131 0.696038 0.330999
0.121728 0.720119 0.341334
-0.04504 0.696038 -0.366616
0.173592 0.696038 -0.252044
0.166483 0.720119 -0.391805
-0.088575 0.696038 -0.143886
-0.163854 0.720119 0.194629
-0.149766 0.696038 0.131622
0.148113 0.720119 0.237476
-0.040741 0.696038 0.406559
0.072113 0.696038 -0.149127
-0.034345 0.696038 0.178154
0.159902 0.696038 -0.317611
0.100785 0.696038 0.114568
0.150666 0.696038 0.456994
0.094222 0.720119 -0.471889
0.134515 0.696038 0.122128
0.017654 0.720119 -0.170544
-0.141804 0.720119 0.269014
0.151568 0.720119 -0.214907
0.109319 0.720119 -0.505276
0.184461 0.720097 0.292207
-0.073774 0.720119 -0.342119
-0.058124 0.720119 -0.163961
-0.090341 0.720119 -0.397772
-0.017406 0.720119 0.014709
0.145947 0.720119 -0.173315
0.025435 0.696038 0.003876
0.067858 0.696038 -0.474012
-0.137453 0.720119 -0.465601
0.149653 0.720119 0.379983
-0.102014 0.696038 -0.09591
0.036423 0.720119 0.434365
-0.082333 0.720119 -0.514033
-0.059055 0.696038 0.135574
0.108695 0.696038 0.319305
0.015701 0.720119 -0.471315
0.033109 0.696038 -0.447014
0.038851 0.696038 -0.087984
-0.17585 0.720119 -0.045661
-0.015544 0.720119 -0.413031
-0.09549 0.720119 -0.173251
0.072662 0.696038 -0.367291
-0.059669 0.696038 -0.468311
0.125314 0.696038 0.254485
0.063671 0.696038 -0.218348
-0.120739 0.696038 -0.133256
-0.005209 0.696038 -0.252962
0.177988 0.720119 0.489927
-0.055949 0.696038 0.241409
-0.128779 0.696038 0.086193
-0.046323 0.720119 0.440632
0.16174 0.696038 0.219957
0.066385 0.696038 0.457819
-0.010408 0.696038 0.262521
-0.174274 0.720119 0.143835
0.130866 0.720119 -0.128084
0.180754 0.696038 0.355746
0.184461 0.700346 0.460713
-0.168963 0.696038 0.168821
0.163486 0.720119 -0.446963
-0.09041 0.696038 0.009438
-0.077974 0.720119 0.197855
-0.084493 0.720119 0.377877
0.104849 0.696038 -0.020983
0.027859 0.720119 0.215741
0.046306 0.696038 -0.499678
-0.153272 0.720119 0.383106
-0.034082 0.720119 0.368331
0.026023 0.696038 -0.295865
0.150669 0.720119 -0.342939
-0.034384 0.696038 -0.502555
-0.060917 0.720119 -0.078296
-0.150262 0.696038 0.408837
0.073522 0.696038 0.012557
-0.139595 0.720119 -0.284202
0.151743 0.696038 -0.465284
0.13294 0.720119 -0.0004
-0.038621 0.696038 0.04124
0.063222 0.696038 0.346616
-0.105508 0.720119 -0.250586
-0.120996 0.720119 0.348222
0.108023 0.720119 0.493264
-0.041621 0.720119 0.228199
0.122006 0.720119 0.40755
-0.150532 0.696038 -0.050657
0.037414 0.696038 0.050562
-0.157549 0.720119 -0.417382
-0.023885 0.720119 -0.089461
-0.075641 0.696038 -0.06659
-0.037976 0.696038 0.292227
-0.065111 0.696038 0.09266
0.131071 0.696038 0.052404
0.090762 0.696038 0.411721
-0.170823 0.720119 -0.234026
0.052478 0.720119 -0.43387
-0.117145 0.696038 -0.054005
-0.061744 0.696038 0.313662
0.150064 0.696038 0.286247
-0.145259 0.696038 -0.511391
0.052158 0.720119 -0.039854
0.116812 0.720119 0.449045
-0.067464 0.720119 0.032375
0.118077 0.720119 -0.184594
-0.141782 0.696038 0.485116
0.151393 0.720119 0.176367
-0.075688 0.696038 0.500756
-0.090406 0.696038 0.069286
0.184461 0.706802 -0.108273
-0.07661 0.720119 0.134114
0.052271 0.720119 -0.194428
-0.159285 0.696038 0.079433
0.088659 0.696038 0.241726
0.158419 0.696038 -0.144532
0.028325 0.720119 0.142977
0.144087 0.720119 0.473182
-0.063696 0.696038 -0.227064
0.162356 0.696038 0.132341
