0.360922 -0.214034 0.393978
0.360922 0.411186 -0.052417
0.360922 -0.575885 -0.064334
0.382693 0.098198 0.08737
0.382693 -0.190233 -0.477933
0.382693 -0.394275 -0.312594
0.360922 -0.554376 -0.02552
0.360922 0.511811 0.22145
0.360922 -0.592785 0.247956
0.382693 -0.320707 0.076165
0.382693 -0.177511 -0.326796
0.382693 -0.401773 0.005791
0.360922 0.463669 0.272073
0.360922 0.248619 0.215022
0.382693 -0.483471 -0.006413
0.382693 0.332678 -0.345482
0.360922 0.656499 -0.490982
0.360922 -0.307624 -0.241307
0.382693 0.668265 -0.165063
0.382693 0.244725 -0.438847
0.360922 -0.292997 0.095046
0.382693 -0.294306 -0.138482
0.360922 -0.100798 -0.545476
0.380126 0.597148 -0.563041
0.382693 0.252937 -0.366889
0.382693 0.444128 -0.394542
0.360922 -0.026942 0.155044
0.382693 0.648218 0.021273
0.360922 0.440751 -0.094052
0.382693 -0.296685 -0.192801
0.360922 0.651606 -0.463959
0.360922 0.511683 0.400681
0.360922 -0.347256 0.363644
0.360922 -0.563001 0.064807
0.382693 0.324054 -0.321689
0.360922 0.601256 0.136473
0.360922 -0.017938 -0.343442
0.382693 0.539186 -0.206415
0.360922 -0.524444 0.444543
0.360922 0.321658 -0.221101
0.360922 0.090487 0.43096
0.382693 -0.358778 -0.019422
0.382693 -0.506901 -0.379076
0.360922 -0.035102 -0.449669
0.360922 -0.360111 0.061448
0.382693 0.346483 -0.187672
0.382693 0.418725 0.123713
0.360922 -0.401411 -0.139323
0.360922 0.285947 -0.151084
0.360922 -0.070186 0.212099
0.360922 0.254248 0.385966
0.382693 -0.090859 -0.455509
0.382693 -0.028079 -0.179884
0.382693 -0.373542 -0.541785
0.382693 0.419166 -0.230427
0.360922 -0.588467 -0.273226
0.360922 0.247116 0.014661
0.360922 0.357602 -0.434186
0.360922 0.106145 -0.019081
0.382693 0.197608 -0.273268
0.360922 0.184088 0.324723
0.360922 0.138642 -0.140026
0.360922 -0.618102 -0.303398
0.382693 0.017409 0.439396
0.360922 -0.127732 0.144237
0.382693 -0.041568 0.010002
0.382693 0.642415 0.257479
0.360922 -0.056906 -0.507079
0.360922 -0.415975 0.387969
0.360922 -0.41371 -0.447954
0.382693 0.409317 -0.394612
0.360922 0.231572 0.349921
0.360922 -0.151202 -0.409782
0.360922 0.107306 -0.218485
0.360922 0.586038 0.445743
0.360922 -0.320898 -0.302837
0.360922 -0.026443 -0.411038
0.360922 0.55218 0.059311
0.382693 0.594079 0.106883
0.360922 0.162778 -0.382512
0.382693 -0.286871 -0.527451
0.360922 0.502458 0.153832
0.382693 -0.178423 0.13281
0.360922 -0.356539 0.125734
0.382693 0.166907 -0.153777
0.382693 -0.248972 -0.245171
0.360922 -0.546128 0.427751
0.360922 -0.30934 -0.391701
0.360922 -0.233035 0.142705
0.382693 0.670483 -0.500813
0.382693 -0.619511 0.284696
0.360922 -0.070867 0.007108
0.360922 -0.466393 0.261248
0.382693 0.203484 -0.13739
0.360922 0.570176 0.312654
0.360922 -0.553608 -0.196658
0.382693 -0.123597 -0.462782
0.382693 0.415949 0.363445
0.360922 -0.216046 -0.085439
0.360922 -0.195275 -0.269983
0.382693 0.013089 -0.072461
0.360922 -0.040153 0.045204
0.360922 0.070318 0.121836
0.382693 -0.36143 0.41923
0.360922 0.398747 -0.489309
0.382693 0.349208 -0.511721
0.360922 -0.508933 0.040999
0.381921 0.682456 -0.110784
0.382693 0.527222 0.253154
0.360922 -0.164761 0.104779
0.360922 0.202307 -0.280893
0.360922 -0.502116 -0.112183
0.382693 0.447567 -0.268106
0.360922 0.150548 -0.361344
0.382693 0.292971 -0.541082
0.382693 0.615814 0.089899
0.382693 -0.256164 -0.47987
0.382693 -0.26827 0.368987
0.382693 -0.081345 -0.489812
0.360922 0.500507 -0.048831
0.382693 0.393898 0.048285
0.360922 0.609586 -0.018317
0.382693 0.397038 0.404478
0.382693 -0.618256 0.197866
0.382693 -0.072433 -0.373412
0.360922 0.354789 0.166459
0.360922 -0.087091 0.054157
0.360922 0.586435 0.389786
0.382693 0.067782 -0.214512
0.360922 -0.181336 -0.436148
0.382693 0.637853 0.171829
0.382693 -0.469019 -0.36776
0.360922 0.409232 -0.175824
0.360922 -0.149141 0.005005
0.382693 -0.32179 -0.225142
0.382693 0.149735 0.172958
0.382693 -0.322268 0.221764
0.382693 0.00479 -0.545325
0.360922 0.267446 0.068414
0.382693 0.186636 0.077203
0.360922 0.339845 -0.299996
0.360922 -0.4491 0.205533
0.382693 -0.039928 -0.352014
0.382693 0.326932 -0.161595
0.382693 0.533571 0.393283
0.360922 -0.155191 -0.317723
0.360922 -0.115275 -0.405785
0.360922 -0.594332 0.196914
0.360922 0.485073 0.324144
0.360922 0.612036 -0.230026
0.360922 0.485543 -0.11831
0.360922 -0.064815 0.086707
0.360922 -0.589068 -0.246843
0.382693 0.639048 0.048847
0.382693 0.400433 0.108072
0.360922 0.316365 -0.280608
0.360922 0.40246 -0.128985
0.382693 0.3327 0.069783
0.360922 -0.006607 -0.465542
0.360922 -0.434319 0.041653
0.382693 -0.53626 -0.251832
0.360922 0.297624 0.437342
0.382693 -0.341324 0.025416
0.360922 -0.500106 -0.534213
0.360922 0.35223 -0.014614
0.360922 0.460264 -0.157868
0.382693 0.011661 0.239317
0.382693 0.229188 0.281662
0.360922 0.478695 -0.010341
0.360922 0.522211 0.006852
0.360922 0.610689 -0.533966
0.382693 -0.504914 0.418449
0.360922 0.124651 -0.266143
0.360922 0.413453 0.08308
-0.117195 0.425304 -0.530385
0.179077 -0.33643 -0.530385
0.010328 0.03321 -0.530385
-0.165986 -0.332208 -0.530385
0.09035 0.27546 -0.530385
-0.184066 0.141156 -0.514057
0.006228 -0.190999 -0.514057
0.008862 -0.473828 -0.514057
0.222336 0.045752 -0.514057
0.189107 -0.515224 -0.530385
0.041521 0.497217 -0.514057
-0.225362 -0.143927 -0.530385
-0.17399 -0.502899 -0.514057
0.249664 0.351593 -0.514057
-0.074009 0.262151 -0.514057
-0.228165 0.313744 -0.530385
-0.340515 0.10097 -0.530385
0.266028 -0.199936 -0.530385
-0.138224 -0.012065 -0.530385
0.216113 0.192351 -0.514057
-0.269415 0.581988 -0.514057
0.11297 -0.088101 -0.530385
0.035644 -0.335167 -0.514057
0.294514 -0.424303 -0.530385
0.131332 0.404257 -0.530385
0.08027 0.146152 -0.530385
-0.245712 0.442784 -0.514057
0.132129 -0.218521 -0.530385
-0.033181 0.606539 -0.514057
0.256365 -0.074966 -0.514057
0.008762 0.378228 -0.530385
-0.056491 0.140097 -0.530385
-0.285005 -0.390452 -0.530385
-0.255957 0.016644 -0.514057
-0.26331 -0.27199 -0.514057
-0.09999 -0.23612 -0.514057
-0.158548 0.529331 -0.514057
-0.082261 -0.409337 -0.530385
-0.280711 0.199848 -0.530385
0.121468 -0.427764 -0.514057
0.273337 0.458015 -0.514057
0.313827 0.124521 -0.514057
0.114263 0.051165 -0.514057
-0.075719 -0.527614 -0.530385
-0.05869 0.509322 -0.514057
0.092587 0.583681 -0.514057
0.280486 -0.327561 -0.514057
0.304741 0.003986 -0.530385
0.014016 -0.08252 -0.530385
0.192316 0.280224 -0.530385
-0.136549 -0.121465 -0.530385
-0.161372 0.23512 -0.514057
0.016556 0.224611 -0.514057
-0.054511 -0.314832 -0.514057
0.195516 -0.140344 -0.530385
-0.151353 -0.590724 -0.514057
-0.187327 -0.228097 -0.530385
0.284841 0.246686 -0.530385
-0.123817 0.335789 -0.514057
-0.197147 -0.415381 -0.530385
-0.12347 0.075348 -0.530385
0.146453 0.51543 -0.514057
-0.305731 -0.180628 -0.514057
0.206961 -0.432456 -0.530385
-0.050866 -0.029093 -0.530385
0.173147 -0.017829 -0.530385
0.333641 -0.248839 -0.530385
-0.196954 -0.065626 -0.514057
0.061188 -0.258264 -0.514057
-0.190241 0.387592 -0.530385
0.155806 0.120579 -0.530385
0.126059 -0.580088 -0.514057
0.331297 -0.127752 -0.530385
0.196477 0.452108 -0.530385
-0.292683 0.507069 -0.514057
-0.297868 0.276114 -0.530385
0.210757 -0.265052 -0.530385
0.103848 -0.500349 -0.530385
0.141995 0.219809 -0.530385
-0.324741 0.428016 -0.514057
-0.261099 0.090091 -0.530385
0.287071 0.531602 -0.514057
0.072752 -0.008937 -0.530385
-0.067555 -0.161523 -0.514057
0.052451 -0.405506 -0.530385
-0.288439 0.363156 -0.530385
-0.051962 0.335729 -0.530385
0.009501 0.295745 -0.530385
-0.195428 0.594813 -0.530385
0.144933 0.33254 -0.514057
0.164874 0.586409 -0.514057
-0.194549 0.067656 -0.514057
0.318712 0.404466 -0.530385
-0.114907 0.177962 -0.514057
-0.030359 0.435808 -0.514057
0.10412 -0.346321 -0.530385
-0.326529 -0.013257 -0.530385
0.001482 0.102843 -0.514057
0.275695 -0.495123 -0.530385
-0.056015 0.060351 -0.530385
0.069996 0.436022 -0.530385
-0.181239 0.465912 -0.514057
0.073398 0.360376 -0.530385
-0.319762 -0.333299 -0.530385
0.091191 -0.162478 -0.514057
0.042673 0.62803 -0.514917
0.250305 0.131551 -0.530385
-0.10657 0.605744 -0.514057
0.232254 -0.374027 -0.514057
-0.005823 -0.274077 -0.530385
-0.237516 -0.345275 -0.530385
-0.047165 0.204847 -0.530385
0.19165 0.375109 -0.530385
-0.139369 -0.184912 -0.514057
-0.122519 -0.456991 -0.514057
-0.233745 0.525605 -0.530385
-0.222255 0.226828 -0.530385
0.234759 0.62803 -0.517886
-0.247816 -0.205147 -0.514057
-0.02076 -0.398952 -0.530385
0.029305 -0.581588 -0.514057
0.225423 0.50467 -0.514057
-0.097129 -0.070343 -0.530385
-0.353359 -0.131155 -0.530385
0.271242 -0.259078 -0.514057
-0.340197 -0.41204 -0.514057
0.289978 0.180782 -0.514057
0.277738 0.071251 -0.514057
-0.268332 -0.047403 -0.514057
0.201133 -0.200649 -0.530385
0.08122 0.206683 -0.530385
-0.014764 -0.136692 -0.530385
0.336156 -0.360104 -0.514057
-0.090163 -0.58806 -0.514057
0.329528 0.488275 -0.530385
0.308765 0.343727 -0.514057
0.240311 -0.017569 -0.514057
0.23954 0.410122 -0.530385
-0.043177 -0.217094 -0.530385
0.119382 0.462028 -0.514057
-0.205172 -0.292732 -0.514057
0.060965 0.091503 -0.530385
-0.001571 0.15845 -0.530385
-0.252801 0.14738 -0.530385
-0.067441 0.391362 -0.514057
0.087483 0.52866 -0.530385
-0.124721 0.48571 -0.530385
-0.235857 -0.537988 -0.514057
0.144406 -0.27196 -0.514057
-0.151658 -0.269583 -0.514057
-0.325737 0.557931 -0.514057
-0.113598 -0.362133 -0.530385
0.022145 -0.525588 -0.530385
0.012061 0.548379 -0.514057
-0.16301 0.289591 -0.514057
0.156227 -0.386226 -0.514057
-0.304423 0.040617 -0.514057
0.33944 -0.503477 -0.514057
-0.295188 -0.441002 -0.514057
0.199553 0.094646 -0.514057
-0.30803 0.140024 -0.514057
-0.085222 0.018996 -0.514057
-0.149068 -0.397927 -0.514057
0.208004 -0.087954 -0.530385
-0.306744 -0.243829 -0.530385
0.168291 0.171656 -0.530385
0.315161 -0.080458 -0.514057
0.075307 -0.210379 -0.530385
-0.098797 -0.29193 -0.530385
0.161149 -0.457705 -0.530385
0.338786 -0.304205 -0.530385
-0.220253 -0.589007 -0.514057
0.321761 -0.201513 -0.514057
-0.099929 0.118544 -0.514057
-0.149847 0.034809 -0.514057
0.336396 0.044592 -0.514057
0.158253 0.031429 -0.530385
0.143667 0.281764 -0.514057
-0.250286 0.392403 -0.514057
-0.27894 -0.126391 -0.530385
0.147311 -0.124992 -0.530385
0.117674 -0.024701 -0.514057
0.312937 0.600525 -0.530385
-0.075716 0.45268 -0.530385
0.243344 0.555603 -0.514057
0.073568 -0.062878 -0.514057
-0.225168 -0.028312 -0.530385
0.236291 -0.52015 -0.514057
0.129347 0.620722 -0.514057
-0.338635 0.222722 -0.530385
-0.109664 0.534812 -0.514057
0.039887 0.181332 -0.514057
0.245269 -0.46023 -0.514057
-0.241462 -0.428746 -0.514057
0.235978 0.245484 -0.530385
0.341791 0.175381 -0.530385
-0.031829 -0.080015 -0.514057
0.300225 0.289753 -0.514057
0.226239 -0.325578 -0.530385
0.355198 0.366994 -0.514057
-0.144748 0.387936 -0.514057
-0.115746 0.244362 -0.530385
0.120355 0.167187 -0.514057
0.056832 -0.472185 -0.514057
0.291717 -0.154635 -0.530385
-0.261568 0.248413 -0.514057
-0.004339 -0.038018 -0.530385
0.14707 -0.529515 -0.514057
-0.189551 -0.112169 -0.514057
0.253112 0.30461 -0.514057
-0.134542 -0.522357 -0.530385
-0.207636 -0.464643 -0.514057
0.338066 -0.419314 -0.514057
-0.19057 -0.549155 -0.514057
-0.325314 -0.07183 -0.530385
-0.33569 0.51331 -0.530385
-0.183895 -0.015382 -0.514057
-0.066398 -0.359275 -0.514057
0.319685 -0.46279 -0.530385
-0.338843 0.299959 -0.514057
-0.032849 0.28247 -0.514057
-0.069583 0.578727 -0.514057
0.016969 -0.232392 -0.530385
-0.223056 0.109374 -0.514057
0.069206 -0.125987 -0.530385
0.039468 0.133906 -0.514057
-0.15222 -0.07409 -0.514057
-0.020159 -0.356567 -0.514057
0.04626 0.582817 -0.514057
0.26352 0.021217 -0.514057
0.052424 0.050267 -0.514057
-0.000612 0.336607 -0.514057
0.091196 0.322257 -0.514057
-0.170118 -0.15639 -0.530385
-0.227569 0.185321 -0.514057
0.146637 -0.063327 -0.514057
-0.283596 -0.311994 -0.514057
0.050824 0.30104 -0.514057
0.200471 0.542831 -0.514057
-0.168006 0.194106 -0.530385
0.171335 0.415186 -0.514057
-0.277466 -0.508131 -0.514057
-0.218647 0.27363 -0.514057
0.079532 -0.533631 -0.514057
-0.148997 0.119738 -0.530385
0.034652 -0.025221 -0.514057
0.21231 0.146935 -0.514057
-0.170757 0.627478 -0.514057
0.323622 -0.040465 -0.530385
0.353373 0.541318 -0.514057
-0.338974 -0.452601 -0.530385
0.026648 0.441 -0.530385
-0.161734 -0.447194 -0.530385
0.103495 -0.248095 -0.514057
0.126098 0.556148 -0.514057
-0.082128 0.309416 -0.514057
-0.277922 0.310757 -0.514057
-0.201773 0.43177 -0.530385
-0.236266 -0.389316 -0.530385
-0.16299 0.34221 -0.530385
0.196843 0.322577 -0.530385
0.003342 0.47844 -0.514057
0.132733 -0.171634 -0.514057
-0.242227 0.353997 -0.530385
-0.23808 -0.084008 -0.530385
-0.095098 0.362359 -0.530385
-0.198512 0.024346 -0.514057
-0.326741 -0.294879 -0.514057
-0.238427 0.051531 -0.530385
0.029339 -0.290999 -0.514057
0.320013 0.210408 -0.514057
-0.006936 -0.551413 -0.514057
0.045757 -0.176333 -0.514057
0.215994 0.587674 -0.514057
0.081692 0.48086 -0.514057
0.272136 0.383264 -0.530385
-0.28804 0.405176 -0.530385
0.159823 0.473162 -0.514057
0.17992 0.240175 -0.530385
0.247514 -0.590966 -0.530385
-0.294893 0.452478 -0.530385
-0.06127 -0.12347 -0.530385
-0.050225 -0.258318 -0.530385
-0.032367 0.240691 -0.514057
0.14324 0.080735 -0.530385
-0.197569 -0.37697 -0.514057
0.23608 0.46736 -0.530385
-0.294272 0.611094 -0.530385
0.01589 -0.379471 -0.530385
0.332543 0.443563 -0.530385
0.299684 -0.379815 -0.514057
0.00788 0.601953 -0.514057
-0.247817 0.484031 -0.514057
0.110504 0.368004 -0.514057
-0.206457 0.551694 -0.514057
0.305682 -0.526916 -0.514057
-0.039311 -0.58389 -0.530385
0.105782 0.234872 -0.514057
0.304409 -0.289895 -0.514057
0.313747 0.087316 -0.530385
-0.333412 -0.210114 -0.514057
-0.120343 -0.556507 -0.514057
-0.130627 -0.321844 -0.514057
-0.218691 -0.246985 -0.514057
0.038391 0.345621 -0.514057
-0.028634 0.00409 -0.530385
0.029092 -0.437891 -0.530385
0.339774 -0.005802 -0.514057
-0.317483 -0.579801 -0.514057
0.185358 0.060634 -0.530385
-0.320257 0.331189 -0.530385
0.267213 -0.361219 -0.530385
0.057965 -0.367978 -0.514057
-0.189983 0.505124 -0.514057
0.238802 0.08911 -0.514057
-0.048749 0.095709 -0.514057
0.116396 0.123827 -0.530385
0.33946 0.294137 -0.514057
0.285777 0.571043 -0.514057
0.282804 0.492664 -0.530385
0.233411 -0.237354 -0.514057
0.077587 -0.322365 -0.514057
-0.287679 -0.008384 -0.530385
-0.107511 -0.169085 -0.530385
0.24034 -0.408477 -0.530385
0.189745 -0.397478 -0.530385
-0.309106 0.07547 -0.530385
0.286476 -0.05135 -0.530385
0.000825 -0.318306 -0.514057
-0.090177 0.207697 -0.514057
-0.349692 0.394555 -0.514057
0.09299 -0.401763 -0.514057
-0.144213 0.597437 -0.514057
0.285096 0.42315 -0.530385
0.039062 0.404617 -0.530385
-0.082868 -0.44891 -0.530385
-0.171987 0.568444 -0.514057
0.068428 -0.585039 -0.530385
0.191555 -0.05342 -0.530385
0.082265 -0.448774 -0.530385
0.158211 -0.307593 -0.514057
-0.018134 0.06396 -0.530385
-0.311069 -0.366423 -0.514057
0.357872 -0.273018 -0.514057
0.16278 0.627334 -0.530385
-0.347957 0.13799 -0.530385
-0.345746 -0.174437 -0.514057
0.316934 -0.588691 -0.530385
0.049031 0.541199 -0.514057
-0.030164 0.36168 -0.514057
0.097365 0.0821 -0.530385
0.091788 0.396177 -0.530385
-0.025674 -0.179798 -0.530385
-0.151867 -0.232113 -0.514057
-0.282782 -0.205268 -0.530385
-0.026552 -0.44505 -0.514057
-0.34461 0.05001 -0.530385
0.000363 0.414502 -0.530385
0.070646 0.243894 -0.530385
0.089275 -0.278325 -0.530385
-0.073546 0.54558 -0.530385
0.022319 0.072045 -0.514057
-0.079889 0.168957 -0.530385
-0.09278 -0.49462 -0.530385
0.117426 -0.311643 -0.530385
-0.119642 0.02001 -0.530385
-0.183919 0.103097 -0.514057
0.248845 -0.283554 -0.530385
0.222389 -0.165738 -0.530385
-0.099625 -0.037388 -0.514057
0.324392 0.243114 -0.530385
0.270009 -0.10497 -0.530385
-0.183511 -0.583816 -0.530385
-0.26464 0.549455 -0.530385
-0.299699 -0.47894 -0.514057
0.19504 -0.293749 -0.514057
-0.173365 -0.192782 -0.530385
-0.337655 0.59225 -0.530385
-0.127193 0.213846 -0.514057
-0.051562 -0.550131 -0.514057
0.338337 0.580513 -0.514057
-0.023176 0.516131 -0.514057
-0.016704 0.570061 -0.514057
-0.080531 0.091231 -0.530385
0.304167 0.039942 -0.530385
0.094149 0.62803 -0.514071
-0.254031 0.279493 -0.530385
0.281077 -0.462101 -0.514057
-0.024748 0.180247 -0.514057
0.335468 -0.168138 -0.514057
-0.306834 -0.038122 -0.514057
0.137222 -0.4878 -0.530385
-0.19843 -0.327743 -0.514057
-0.304339 0.178791 -0.514057
0.107841 0.431019 -0.530385
-0.296188 0.106499 -0.514057
-0.198035 0.20661 -0.514057
-0.123327 0.573884 -0.530385
-0.22292 -0.175188 -0.514057
-0.096235 -0.128665 -0.530385
-0.116865 -0.402156 -0.530385
0.036328 0.268817 -0.514057
0.195013 -0.237967 -0.514057
0.204438 -0.017925 -0.514057
0.170598 -0.422171 -0.514057
-0.159459 -0.548087 -0.530385
0.258928 0.178628 -0.530385
-0.242945 0.598346 -0.530385
0.158662 -0.234718 -0.514057
0.287595 0.320968 -0.530385
0.316053 -0.331332 -0.514057
0.137271 -0.357815 -0.530385
-0.217802 0.147811 -0.530385
0.281388 -0.020858 -0.514057
-0.171614 0.425246 -0.514057
0.294708 -0.223565 -0.514057
0.130169 0.007862 -0.514057
0.214591 -0.542012 -0.530385
-0.104758 -0.199756 -0.514057
0.006117 -0.417426 -0.514057
0.221735 0.385135 -0.514057
0.144168 0.443954 -0.530385
-0.134185 0.30002 -0.530385
-0.022653 -0.245143 -0.514057
0.222474 0.285125 -0.514057
-0.197129 0.250665 -0.530385
-0.328692 0.464478 -0.514057
0.047278 -0.545996 -0.514057
0.143394 0.362926 -0.530385
-0.004086 0.26352 -0.514057
0.189659 0.207149 -0.530385
0.276995 0.148985 -0.514057
0.254477 0.269176 -0.514057
-0.301495 0.540201 -0.530385
-0.253217 0.215268 -0.514057
0.122619 0.497183 -0.530385
-0.274706 -0.585784 -0.530385
0.205873 0.41527 -0.530385
0.357633 -0.041411 -0.530385
-0.053127 0.476019 -0.514057
0.216092 -0.494969 -0.530385
-0.024124 0.035136 -0.514057
-0.271693 -0.359685 -0.530385
-0.191948 0.293955 -0.530385
-0.169407 0.013199 -0.530385
-0.139961 0.265555 -0.514057
-0.301815 0.219725 -0.514057
0.121968 -0.385422 -0.514057
-0.035711 -0.288595 -0.530385
-0.191042 0.169167 -0.530385
0.267528 -0.540288 -0.530385
0.334007 -0.532138 -0.530385
-0.270713 -0.425844 -0.530385
-0.323427 -0.155939 -0.530385
-0.289904 -0.283945 -0.530385
-0.183122 -0.259727 -0.514057
0.205507 -0.461051 -0.514057
-0.301732 0.579073 -0.530385
0.324464 -0.394242 -0.530385
0.167652 -0.496517 -0.514057
-0.120964 -0.491619 -0.514057
0.015217 -0.149764 -0.530385
0.080742 0.05037 -0.530385
0.122163 0.300052 -0.530385
-0.084145 0.05968 -0.514057
-0.020494 0.137834 -0.514057
-0.125056 -0.049034 -0.530385
0.232908 -0.206895 -0.530385
-0.310353 -0.417574 -0.530385
-0.352493 0.328841 -0.530385
0.306329 -0.106897 -0.530385
-0.345204 0.27158 -0.530385
0.17867 0.516588 -0.514057
-0.165573 -0.375589 -0.530385
0.300648 0.453044 -0.530385
-0.213636 -0.209536 -0.530385
0.097231 -0.048635 -0.530385
0.205408 -0.367688 -0.530385
0.16253 0.539098 -0.530385
-0.083587 0.62802 -0.514057
-0.199257 -0.152549 -0.514057
0.139572 0.18681 -0.530385
-0.272262 0.038631 -0.530385
0.003682 -0.505257 -0.514057
-0.081493 0.235851 -0.530385
-0.174142 -0.299858 -0.514057
0.280799 0.211239 -0.514057
-0.001345 0.004098 -0.514057
-0.140475 -0.357505 -0.514057
-0.223533 0.471619 -0.530385
0.057118 0.018705 -0.530385
-0.065766 -0.497336 -0.514057
-0.155166 -0.033157 -0.514057
0.114215 -0.122477 -0.530385
0.029952 -0.113354 -0.530385
-0.180709 -0.47679 -0.530385
0.06367 0.324726 -0.530385
0.182187 0.125785 -0.514057
-0.13059 -0.294974 -0.530385
0.249331 0.437735 -0.514057
-0.257038 -0.015277 -0.530385
-0.059335 -0.06486 -0.514057
0.261174 -0.153533 -0.514057
-0.291619 -0.157896 -0.530385
0.305328 0.149862 -0.530385
-0.236436 -0.294454 -0.514057
-0.007678 0.454111 -0.530385
-0.21962 0.376792 -0.530385
0.118368 0.261577 -0.530385
-0.154734 0.091913 -0.514057
-0.068745 -0.235702 -0.514057
0.261282 0.602205 -0.514057
0.251415 0.499266 -0.530385
-0.270414 0.337759 -0.530385
-0.15541 0.480458 -0.530385
0.355618 0.39782 -0.530385
0.119657 0.339837 -0.530385
0.060161 -0.288846 -0.530385
0.101335 -0.466867 -0.514057
-0.235691 0.07765 -0.514057
0.343358 -0.104123 -0.514057
0.220843 0.122178 -0.530385
0.238939 0.012369 -0.530385
0.318441 0.309588 -0.530385
0.325383 0.374282 -0.514057
0.083576 -0.372337 -0.530385
0.003359 0.196946 -0.514057
0.113202 0.209399 -0.530385
-0.223435 -0.115469 -0.514057
-0.108949 0.14779 -0.514057
0.350121 0.017907 -0.530385
-0.05647 -0.409512 -0.514057
-0.13557 -0.429415 -0.514057
0.172311 -0.281654 -0.530385
-0.226723 -0.059051 -0.514057
0.169116 0.36201 -0.514057
0.164449 0.388829 -0.530385
0.183767 0.028662 -0.514057
-0.103498 -0.33862 -0.514057
0.097895 0.008036 -0.530385
0.167192 0.097693 -0.514057
-0.331967 0.376177 -0.530385
0.179904 -0.367323 -0.514057
0.189138 -0.565491 -0.514057
0.290848 -0.180071 -0.514057
0.055147 -0.045329 -0.530385
0.07261 0.599402 -0.530385
-0.242715 0.417541 -0.530385
-0.088931 -0.006151 -0.530385
0.338328 0.515195 -0.514057
-0.144849 -0.154612 -0.514057
0.020493 -0.257468 -0.514057
-0.296891 -0.061831 -0.530385
0.346978 -0.221389 -0.514057
-0.063541 -0.385288 -0.530385
-0.208609 -0.089611 -0.530385
-0.067434 0.286442 -0.530385
0.136962 0.578793 -0.530385
0.240159 -0.105657 -0.530385
-0.098918 0.268986 -0.530385
-0.24745 -0.322385 -0.514057
-0.235631 -0.505256 -0.530385
0.128267 -0.250741 -0.530385
-0.008276 0.225498 -0.530385
-0.102523 0.391137 -0.530385
-0.136918 -0.212387 -0.530385
0.087332 -0.569244 -0.514057
-0.333845 0.176889 -0.530385
0.017908 0.12119 -0.530385
-0.219064 -0.004545 -0.514057
0.335117 0.151787 -0.514057
-0.037095 -0.49073 -0.514057
0.254903 -0.428084 -0.514057
0.032852 0.021384 -0.514057
0.226411 0.344389 -0.530385
-0.099678 0.332742 -0.530385
-0.277571 0.072191 -0.514057
0.164924 0.293563 -0.530385
-0.267706 -0.183666 -0.514057
0.129589 -0.045867 -0.530385
0.065188 -0.500219 -0.514057
-0.040091 -0.15146 -0.514057
-0.064424 -0.190573 -0.514057
-0.277536 -0.076239 -0.514057
0.064813 -0.161539 -0.530385
0.116902 0.52056 -0.514057
-0.002301 -0.064833 -0.514057
-0.109026 0.04469 -0.514057
-0.261764 -0.384476 -0.514057
-0.05775 0.178136 -0.514057
-0.299293 -0.527158 -0.514057
-0.082214 -0.268197 -0.530385
0.280898 -0.280946 -0.530385
0.272562 0.284756 -0.530385
-0.212937 -0.27009 -0.530385
0.359296 -0.142272 -0.514057
-0.291358 0.475966 -0.514057
0.206143 0.224238 -0.514057
0.248854 -0.483696 -0.530385
0.247576 -0.347942 -0.514057
0.102408 0.555673 -0.530385
-0.289406 -0.337011 -0.530385
-0.277272 0.230708 -0.530385
0.083341 0.183114 -0.514057
0.153994 -0.564221 -0.514057
-0.132084 0.50816 -0.514057
-0.138481 0.178046 -0.530385
0.160182 -0.043383 -0.530385
-0.138146 0.543007 -0.530385
0.231883 0.535119 -0.530385
-0.014525 -0.474103 -0.530385
-0.331549 0.3528 -0.514057
0.294335 0.37594 -0.514057
0.24325 -0.040753 -0.530385
-0.252172 0.62803 -0.515895
-0.303258 -0.216485 -0.514057
-0.008017 -0.218709 -0.530385
0.157884 0.150778 -0.514057
0.333386 0.107904 -0.530385
-0.031702 -0.050115 -0.530385
0.033603 -0.473361 -0.530385
0.181327 -0.188678 -0.514057
0.109019 -0.219587 -0.514057
-0.043514 0.302964 -0.530385
-0.289434 0.016729 -0.514057
0.195837 0.60738 -0.514057
-0.296459 0.253203 -0.514057
0.289394 0.602605 -0.514057
0.032537 0.606864 -0.530385
0.311091 0.558935 -0.514057
-0.163994 0.364996 -0.514057
-0.205788 0.527651 -0.530385
0.313491 0.265062 -0.514057
0.223062 -0.294105 -0.514057
0.152999 0.255353 -0.514057
-0.028515 -0.118587 -0.514057
0.043777 -0.068912 -0.514057
0.234954 -0.265296 -0.514057
-0.063323 -0.580258 -0.514057
-0.050154 0.254722 -0.530385
0.039005 0.096891 -0.514057
0.25824 0.228739 -0.530385
-0.268929 -0.09891 -0.530385
0.061015 0.565765 -0.530385
0.069542 -0.103441 -0.514057
-0.118091 -0.249539 -0.530385
-0.144185 -0.468785 -0.530385
0.032381 0.470951 -0.514057
0.267209 -0.22742 -0.514057
0.059634 0.384484 -0.530385
0.197778 0.574578 -0.530385
0.352474 0.491326 -0.514057
0.020764 0.156774 -0.514057
-0.233997 0.012604 -0.530385
0.154856 -0.004562 -0.514057
-0.191289 -0.436881 -0.514057
-0.168073 -0.117894 -0.530385
-0.3232 0.202309 -0.514057
-0.322757 0.277614 -0.514057
0.27884 -0.078899 -0.530385
-0.05126 0.558191 -0.514057
-0.354526 0.560223 -0.514057
0.359562 0.586825 -0.530385
0.144334 -0.200048 -0.514057
-0.046194 0.397434 -0.530385
0.027914 0.320268 -0.514057
0.202073 -0.345901 -0.514057
0.014283 -0.357529 -0.514057
0.075026 -0.241168 -0.530385
-0.04035 -0.427937 -0.530385
-0.266925 0.460019 -0.514057
-0.286197 0.125992 -0.530385
0.211245 -0.40148 -0.514057
0.002596 0.62803 -0.520139
-0.064942 0.608097 -0.514057
-0.058762 -0.092139 -0.514057
-0.257965 -0.297897 -0.530385
0.34804 0.335131 -0.514057
0.043085 -0.314755 -0.530385
-0.049047 0.024464 -0.514057
0.131907 -0.327639 -0.514057
-0.253557 0.507182 -0.530385
-0.264097 0.419919 -0.514057
0.213912 -0.568997 -0.530385
-0.102975 0.081808 -0.514057
0.163389 0.221107 -0.514057
-0.177302 0.547719 -0.530385
0.089992 0.118875 -0.530385
0.352951 -0.391197 -0.514057
0.203173 0.357188 -0.514057
-0.068617 0.412625 -0.530385
0.222215 0.171981 -0.530385
0.266856 0.547678 -0.530385
0.227285 -0.069378 -0.530385
-0.173476 0.271134 -0.530385
0.329248 0.536928 -0.530385
-0.130718 0.441582 -0.514057
0.164598 -0.214412 -0.530385
-0.10981 -0.002791 -0.514057
0.311347 0.059791 -0.514057
0.183943 -0.099749 -0.530385
0.092949 0.453138 -0.530385
-0.092842 0.464929 -0.514057
0.173963 0.488722 -0.530385
-0.098573 -0.468585 -0.514057
0.109249 -0.28482 -0.514057
-0.031642 -0.540518 -0.530385
0.29629 -0.584876 -0.514057
-0.121759 0.3728 -0.530385
-0.043173 -0.332366 -0.530385
0.000483 -0.164549 -0.514057
-0.085741 0.604492 -0.530385
0.086534 -0.086406 -0.530385
-0.095939 0.57622 -0.514057
0.04982 -0.426135 -0.514057
0.047225 0.517199 -0.530385
-0.040753 -0.359332 -0.530385
-0.0314 0.120254 -0.530385
0.10118 -0.424249 -0.530385
0.047705 -0.150152 -0.514057
0.21514 0.614429 -0.530385
-0.071781 0.341111 -0.514057
0.303126 0.495565 -0.514057
0.309991 -0.437778 -0.514057
-0.040477 0.453622 -0.530385
0.188462 0.303897 -0.514057
0.024688 -0.213438 -0.514057
-0.221647 -0.433756 -0.530385
-0.072459 -0.295817 -0.514057
-0.237063 0.124176 -0.530385
0.185523 0.187222 -0.514057
-0.187524 -0.359273 -0.530385
-0.336727 -0.268515 -0.514057
-0.063795 0.111226 -0.530385
-0.32878 0.029314 -0.530385
0.271775 -0.173156 -0.530385
-0.226936 0.255143 -0.530385
-0.256382 0.315909 -0.530385
0.166244 0.317797 -0.514057
0.028258 -0.404041 -0.514057
0.07569 0.301818 -0.530385
0.293079 -0.549495 -0.514057
-0.15158 0.425467 -0.530385
-0.075758 0.498833 -0.530385
0.129105 -0.520697 -0.530385
-0.10559 -0.316827 -0.530385
0.044488 0.206721 -0.514057
-0.148213 -0.502406 -0.514057
0.306952 -0.024013 -0.514057
-0.173569 -0.405743 -0.514057
0.174279 0.564216 -0.530385
0.180578 -0.533043 -0.514057
-0.014467 -0.297751 -0.514057
0.053059 0.119597 -0.530385
-0.239976 0.329517 -0.514057
0.077273 0.069767 -0.514057
-0.299259 0.427403 -0.514057
-0.132167 0.467003 -0.514057
0.094779 -0.187686 -0.514057
0.227908 -0.441607 -0.514057
0.142155 0.055307 -0.530385
-0.336585 0.067802 -0.514057
-0.165493 0.054873 -0.514057
0.256322 -0.511574 -0.530385
-0.065225 0.035246 -0.530385
0.262492 0.525291 -0.514057
0.189933 0.001176 -0.530385
0.043311 -0.355316 -0.530385
-0.176975 0.321092 -0.530385
-0.260314 0.171558 -0.530385
0.127168 0.100915 -0.530385
0.248794 0.37689 -0.514057
0.059061 -0.199905 -0.514057
0.104226 -0.57855 -0.530385
0.251098 0.035971 -0.530385
-0.143469 -0.573132 -0.530385
0.074152 -0.480646 -0.530385
0.184499 0.262671 -0.514057
-0.013626 0.401333 -0.514057
-0.192132 -0.04705 -0.530385
0.25739 -0.377701 -0.514057
0.298494 0.107368 -0.530385
-0.188597 0.406648 -0.514057
-0.214089 0.590757 -0.514057
0.066604 0.262556 -0.514057
-0.313332 0.62803 -0.52924
0.108816 -0.370979 -0.530385
0.35837 0.296196 -0.530385
0.074684 -0.417079 -0.530385
0.043095 0.431491 -0.514057
-0.176456 0.603154 -0.514057
0.023495 0.190746 -0.530385
-0.101677 -0.273263 -0.514057
-0.343023 0.412221 -0.530385
-0.320437 -0.522329 -0.530385
-0.202327 0.369251 -0.514057
-0.264607 -0.334473 -0.530385
-0.338336 -0.330274 -0.514057
0.216208 0.554484 -0.530385
0.137025 -0.081623 -0.530385
-0.200607 0.049874 -0.530385
0.240416 0.181804 -0.514057
0.139642 0.033726 -0.514057
0.240483 -0.31342 -0.514057
-0.274233 -0.474719 -0.530385
0.338237 0.21441 -0.530385
0.087019 -0.020924 -0.514057
0.262493 -0.322725 -0.530385
0.110482 0.189885 -0.514057
0.310267 -0.155965 -0.514057
0.319232 0.015629 -0.514057
0.017698 -0.55328 -0.514057
0.296958 -0.266346 -0.514057
0.053346 0.146153 -0.530385
-0.326662 -0.113562 -0.530385
-0.28073 0.627287 -0.514057
0.281564 0.089327 -0.530385
-0.318769 0.446318 -0.530385
-0.045227 0.582573 -0.514057
-0.105708 -0.424138 -0.530385
-0.3111 0.603542 -0.514057
-0.325698 -0.439809 -0.514057
-0.205802 0.46627 -0.514057
-0.00587 0.5553 -0.530385
-0.115921 -0.02628 -0.530385
0.322685 0.428203 -0.514057
0.217809 -0.217128 -0.514057
0.339707 -0.322408 -0.514057
0.137789 -0.450469 -0.530385
-0.283926 0.387452 -0.514057
0.232127 0.579263 -0.530385
-0.219948 0.336764 -0.530385
-0.096025 0.251043 -0.514057
-0.166053 0.138928 -0.530385
-0.282071 -0.411707 -0.514057
0.06142 -0.534401 -0.530385
0.33962 -0.18578 -0.530385
0.164308 -0.348572 -0.514057
0.181654 -0.444532 -0.530385
-0.007281 0.289028 -0.514057
0.157598 0.556475 -0.514057
0.048512 0.367763 -0.514057
-0.05847 0.447397 -0.514057
0.174067 0.433001 -0.530385
-0.01244 0.081033 -0.514057
0.162705 -0.143785 -0.530385
0.350073 0.463623 -0.514057
-0.034214 -0.012988 -0.514057
-0.0768 -0.476381 -0.530385
-0.07013 0.373656 -0.530385
0.320714 -0.35104 -0.530385
0.213083 0.267755 -0.530385
0.157572 -0.095758 -0.530385
0.004451 0.138958 -0.514057
-0.292268 0.300223 -0.530385
-0.079074 -0.124148 -0.514057
-0.030376 0.096168 -0.530385
-0.327377 -0.384164 -0.514057
0.340187 -0.272588 -0.530385
0.014946 0.242225 -0.530385
-0.257908 -0.070372 -0.530385
0.114727 0.398215 -0.514057
-0.322858 0.101538 -0.514057
0.136324 0.387364 -0.514057
0.051513 -0.020153 -0.530385
-0.094773 0.416768 -0.530385
-0.184745 -0.088674 -0.514057
0.002318 0.52647 -0.514057
-0.243854 -0.58485 -0.514057
-0.326863 -0.3589 -0.530385
-0.005951 0.119492 -0.530385
-0.041461 0.506418 -0.530385
-0.297442 0.338278 -0.530385
0.037069 -0.381846 -0.514057
-0.185007 0.082229 -0.530385
0.021071 0.563266 -0.530385
-0.351868 -0.233012 -0.514057
-0.051401 -0.281112 -0.514057
-0.227246 -0.478159 -0.514057
-0.20255 0.572096 -0.530385
0.033566 0.221463 -0.530385
0.334633 0.610241 -0.530385
-0.037292 0.154092 -0.530385
0.16006 0.048565 -0.514057
0.340247 -0.579709 -0.530385
0.120682 0.143465 -0.514057
0.208151 0.241311 -0.530385
0.254496 0.328391 -0.514057
0.221964 0.40928 -0.514057
-0.153006 -0.252467 -0.530385
0.02471 0.384561 -0.514057
-0.243794 -0.228489 -0.514057
0.177521 -0.043573 -0.514057
0.071306 0.105162 -0.514057
0.247707 -0.540876 -0.514057
0.346203 -0.479371 -0.514057
0.02443 0.496315 -0.530385
0.279008 -0.132431 -0.514057
-0.196498 0.489331 -0.530385
-0.128345 0.557563 -0.514057
0.043704 -0.590753 -0.530385
0.33762 0.267376 -0.530385
0.314937 0.507834 -0.530385
-0.186509 -0.288163 -0.530385
0.142633 -0.417364 -0.514057
-0.343909 -0.117007 -0.514057
0.130188 0.434307 -0.514057
-0.118147 -0.378496 -0.514057
0.285245 0.34471 -0.514057
-0.092593 -0.16123 -0.514057
0.26626 0.35438 -0.530385
0.36083 0.038979 -0.530385
0.255413 -0.176967 -0.514057
0.183025 -0.078131 -0.514057
-0.128618 -0.234856 -0.514057
-0.05035 0.616365 -0.530385
0.236463 0.064398 -0.514057
-0.153249 -0.004674 -0.514057
-0.111377 0.409605 -0.514057
-0.137974 0.161314 -0.514057
-0.304996 0.010676 -0.530385
0.238358 0.273508 -0.530385
-0.007431 -0.011426 -0.530385
-0.147321 0.365112 -0.530385
0.293081 -0.39511 -0.530385
-0.168712 -0.071901 -0.530385
-0.092348 0.147833 -0.530385
0.159459 0.609043 -0.514057
-0.074268 -0.344705 -0.530385
0.340444 -0.078373 -0.514057
0.262764 -0.402345 -0.530385
-0.292999 -0.135086 -0.514057
0.300103 -0.060693 -0.514057
0.153923 -0.162143 -0.514057
0.284407 0.13425 -0.530385
0.277265 0.030326 -0.530385
-0.305163 0.496315 -0.530385
-0.138203 0.234379 -0.514057
-0.021976 0.34744 -0.530385
0.08441 -0.51293 -0.530385
-0.219258 -0.516923 -0.514057
0.281363 0.002278 -0.514057
0.007152 -0.400867 -0.530385
-0.255157 -0.5507 -0.514057
0.224656 -0.022267 -0.530385
-0.322121 -0.249367 -0.514057
-0.095902 0.551273 -0.530385
0.194088 0.521842 -0.530385
0.032587 0.039212 -0.530385
-0.243862 0.292184 -0.514057
0.013035 0.091434 -0.530385
-0.037689 0.328007 -0.514057
-0.241791 -0.190083 -0.530385
0.338601 0.320674 -0.530385
0.319399 -0.169812 -0.530385
0.32923 -0.547533 -0.514057
-0.333792 0.479684 -0.530385
-0.204032 -0.229411 -0.514057
-0.116243 0.202138 -0.530385
-0.19648 0.267974 -0.514057
-0.032342 -0.320432 -0.514057
0.232225 -0.586235 -0.514057
0.185764 0.086571 -0.530385
-0.0031 0.058559 -0.514057
-0.065386 0.523823 -0.530385
0.326773 0.078086 -0.514057
-0.097932 0.028642 -0.530385
0.339823 -0.435132 -0.530385
-0.252829 0.231179 -0.530385
-0.050315 0.535432 -0.514057
0.210924 0.469717 -0.530385
-0.146543 -0.320386 -0.530385
-0.322594 0.157499 -0.514057
-0.046749 -0.04517 -0.514057
-0.149986 0.308227 -0.514057
-0.049766 0.358356 -0.530385
0.145107 -0.29882 -0.530385
-0.108598 0.465534 -0.530385
0.275693 0.310637 -0.514057
-0.214583 0.292513 -0.530385
0.253767 0.09399 -0.530385
-0.283709 0.088332 -0.530385
0.084467 -0.109244 -0.530385
0.310417 0.359331 -0.530385
0.13436 0.312517 -0.514057
0.215348 0.370836 -0.530385
-0.235985 -0.166586 -0.530385
0.074298 0.286247 -0.514057
0.080558 0.034746 -0.514057
0.15936 0.438175 -0.514057
0.294492 0.517922 -0.530385
0.266059 0.570206 -0.530385
0.158306 -0.56936 -0.081513
-0.098425 -0.56936 0.17494
-0.085916 -0.56936 -0.286281
0.20242 -0.56936 0.225452
-0.306599 -0.56936 0.01288
0.164707 -0.56936 -0.344442
-0.069542 -0.56936 -0.047435
-0.285566 -0.56936 -0.342858
0.035349 -0.56936 0.325116
0.065891 -0.56936 0.088575
-0.242868 -0.56936 -0.1783
-0.247596 -0.56936 0.241121
0.061142 -0.56936 -0.211454
0.233829 -0.56936 0.076257
-0.071335 -0.56936 -0.431371
0.252073 -0.56936 -0.217519
0.297238 -0.56936 -0.051017
0.298923 -0.56936 0.362206
-0.203018 -0.56936 0.376985
-0.173105 -0.56936 0.041796
0.069397 -0.56936 -0.435133
0.260237 -0.56936 -0.436109
0.194732 -0.623787 0.461485
-0.086738 -0.56936 -0.166028
-0.081872 -0.56936 0.342904
-0.185216 -0.56936 -0.4061
0.037094 -0.56936 -0.089949
0.08939 -0.56936 0.206229
0.149041 -0.56936 0.363363
0.055381 -0.56936 -0.321784
-0.174122 -0.56936 -0.091864
0.268637 -0.56936 -0.330634
-0.197742 -0.56936 -0.272351
-0.057528 -0.56936 0.079415
-0.225556 -0.56936 0.14162
0.032934 -0.56936 0.429908
-0.148284 -0.56936 0.267543
0.280612 -0.56936 0.164012
-0.205402 -0.623787 0.463114
-0.01141 -0.56936 0.238875
0.125559 -0.56936 0.012404
0.292774 -0.56936 0.26812
0.163011 -0.56936 -0.44162
0.238202 -0.56936 -0.126669
0.14967 -0.56936 -0.188418
-0.270428 -0.56936 -0.442753
0.320163 -0.56936 0.036597
-0.262951 -0.56936 -0.061751
0.019534 -0.56936 -0.005599
0.001608 -0.56936 0.145763
0.214905 -0.56936 -0.017409
-0.017922 -0.56936 -0.365483
0.225383 -0.56936 0.317505
0.18011 -0.56936 0.139547
-0.129866 -0.56936 0.421628
-0.021225 -0.56936 -0.216201
-0.149055 -0.56936 -0.334613
0.190266 -0.56936 -0.266574
0.147651 -0.56936 0.285316
0.09007 -0.623787 0.450505
-0.314472 -0.56936 0.111502
-0.137062 -0.56936 -0.222825
0.219671 -0.56936 0.41563
0.342141 -0.56936 0.119983
-0.270523 -0.56936 -0.24709
0.093258 -0.56936 -0.13805
0.316467 -0.56936 -0.139536
-0.056564 -0.56936 0.423005
0.325639 -0.56936 -0.402046
0.225593 -0.56936 -0.498775
-0.243626 -0.56936 0.049375
-0.02447 -0.56936 -0.123712
-0.165861 -0.56936 0.19397
1.3e-05 -0.56936 -0.434074
-0.349726 -0.56936 0.420128
0.096227 -0.56936 -0.05132
-0.306808 -0.56936 0.276381
-0.150722 -0.56936 0.105
0.104389 -0.56936 -0.373414
-0.071954 -0.56936 0.27691
-0.300628 -0.56936 -0.145279
0.354761 -0.56936 -0.086062
-0.176196 -0.56936 -0.170342
0.138735 -0.56936 0.427899
-0.202078 -0.56936 0.304286
-0.306044 -0.56936 0.205288
-0.013552 -0.614954 0.449298
-0.035608 -0.56936 -0.487808
0.116424 -0.56936 -0.301579
-0.212006 -0.56936 -0.346274
-0.141819 -0.623787 0.455674
-0.065577 -0.56936 0.016325
-0.216167 -0.56936 -0.018682
0.115799 -0.56936 0.127946
-0.127516 -0.56936 -0.00239
-0.140629 -0.56936 -0.451097
-0.016926 -0.56936 0.37506
0.011339 -0.56936 0.061936
0.275078 -0.604055 0.449298
0.061857 -0.56936 0.259804
-0.093341 -0.56936 -0.375591
0.231625 -0.56936 -0.38363
0.08545 -0.558475 0.455836
-0.22711 -0.56936 -0.116923
-0.3238 -0.56936 -0.05181
-0.324448 -0.56936 -0.414938
-0.019636 -0.56936 0.29874
-0.092093 -0.56936 -0.109619
-0.20147 -0.56936 0.448541
0.255113 -0.56936 -0.276175
-0.014276 -0.56936 -0.056849
0.022163 -0.56936 -0.251694
-0.201285 -0.56936 -0.459754
0.293099 -0.56936 -0.481446
0.243979 -0.56936 -0.068252
0.253599 -0.56936 0.024165
-0.3085 -0.56936 -0.206541
0.359401 -0.56936 0.356044
-0.081628 -0.56936 -0.231453
0.030637 -0.56936 -0.166112
0.302749 -0.56936 -0.197517
0.075639 -0.56936 -0.265593
0.325228 -0.56936 -0.322739
0.19632 -0.56936 -0.160803
-0.037226 -0.56936 -0.309493
0.073583 -0.56936 0.025425
-0.035461 -0.56936 0.183815
0.18266 -0.558475 0.4582
-0.198502 -0.56936 -0.219521
0.159401 -0.56936 0.052642
-0.337656 -0.56936 -0.358876
-0.243042 -0.56936 0.340679
-0.153032 -0.558475 0.467267
0.037142 -0.56936 -0.394149
0.225008 -0.56936 0.165679
-0.236822 -0.56936 -0.402046
-0.258516 -0.56936 0.101742
0.359786 -0.56936 -0.506949
-0.100084 -0.56936 0.233955
0.257077 -0.56936 0.231548
0.035593 -0.56936 0.183734
0.143794 -0.56936 -0.132723
0.311405 -0.56936 0.220871
0.070117 -0.56936 -0.487041
0.116416 -0.56936 -0.460626
0.064223 -0.56936 0.138824
-0.295867 -0.56936 0.061768
0.139127 -0.56936 0.201199
-0.11446 -0.56936 0.304031
-0.327574 -0.56936 -0.305482
-0.295096 -0.56936 0.156473
0.215359 -0.56936 -0.308448
0.046418 -0.56936 0.384005
0.273165 -0.56936 -0.159602
0.142836 -0.56936 -0.261426
-0.264341 -0.56936 -0.492027
0.173798 -0.56936 0.005243
-0.335869 -0.56936 0.346022
-0.10386 -0.597541 0.449298
-0.149592 -0.56936 -0.28803
0.00105 -0.564376 0.481954
-0.201532 -0.56936 0.247454
-0.255871 -0.56936 -0.291178
0.007206 -0.56936 -0.326683
-0.232083 -0.56936 0.412188
-0.088751 -0.56936 0.387996
-0.1028 -0.56936 0.042647
0.095729 -0.56936 0.382101
0.336458 -0.56936 -0.023938
0.103888 -0.56936 0.29735
-0.316485 -0.619664 0.449298
0.187805 -0.56936 -0.395147
-0.097458 -0.56936 0.100644
0.10856 -0.56936 -0.094522
0.340743 -0.56936 0.279417
-0.227335 -0.56936 0.186429
0.184105 -0.56936 0.184572
-0.126113 -0.56936 -0.080782
0.335349 -0.56936 0.164051
0.262188 -0.56936 -0.024197
-0.197863 -0.56936 0.078256
-0.329279 -0.56936 -0.458726
-0.037645 -0.56936 -0.175414
-0.166514 -0.56936 -0.048616
-0.183064 -0.56936 0.15174
0.330413 -0.56936 -0.459614
-0.142285 -0.56936 -0.408153
0.27277 -0.56936 -0.101318
0.178056 -0.56936 -0.220222
0.320324 -0.56936 0.325493
-0.011483 -0.56936 0.097733
0.267302 -0.56936 0.33401
-0.055581 -0.56936 0.237993
0.290273 -0.56936 0.416708
0.053458 -0.567025 0.481954
0.216089 -0.56936 0.265296
0.296321 -0.56936 -0.292217
0.204654 -0.56936 0.376375
0.258794 -0.56936 0.110044
0.166736 -0.56936 -0.302511
-0.102661 -0.56936 -0.46865
0.143872 -0.56936 -0.386565
-0.297493 -0.56936 0.317432
-0.007036 -0.56936 0.438763
-0.094167 -0.56936 -0.334667
-0.293739 -0.56936 -0.105049
-0.275817 -0.56936 -0.390086
0.055633 -0.56936 -0.052939
0.16461 -0.56936 0.239265
0.3466 -0.56936 0.407564
-0.218869 -0.56936 -0.077687
0.270601 -0.56936 -0.370232
-0.233165 -0.599467 0.449298
0.169069 -0.597709 0.481954
0.027916 -0.56936 0.222354
-0.273093 -0.56936 -0.007747
0.14386 -0.56936 0.162179
0.053425 -0.56936 -0.134107
0.25394 -0.56936 0.275771
0.165635 -0.56936 0.09135
0.208717 -0.56936 -0.085369
0.032733 -0.56936 -0.455605
0.104855 -0.56936 0.090318
0.286766 -0.56936 0.056692
-0.172106 -0.56936 -0.131723
-0.219139 -0.56936 -0.304593
0.065219 -0.56936 0.298514
-0.304904 -0.56936 -0.264816
0.231712 -0.623787 0.450276
0.196612 -0.56936 0.04286
0.023548 -0.605067 0.449298
0.066605 -0.593446 0.449298
0.085834 -0.56936 -0.175681
0.295045 -0.56936 0.008007
0.319516 -0.56936 0.089424
-0.176863 -0.60286 0.449298
-0.265216 -0.56936 -0.131981
-0.17454 -0.56936 0.004211
0.103681 -0.56936 -0.419749
-0.290539 -0.56936 0.2426
-0.185011 -0.56936 0.344138
-0.050249 -0.56936 0.149404
-0.280094 -0.56936 -0.181879
-0.060376 -0.56936 -0.133753
-0.01767 -0.56936 -0.004462
-0.045359 -0.56936 0.351193
0.233128 -0.56936 -0.34143
-0.105505 -0.56936 -0.203085
-0.036461 -0.56936 -0.418831
-0.168067 -0.56936 0.389011
-0.17169 -0.56936 -0.244792
-0.052422 -0.56936 -0.352555
0.147933 -0.56936 -0.486454
-0.289882 -0.56936 0.395199
0.247485 -0.56936 0.19462
-0.343997 -0.56936 0.382035
0.2668 -0.56936 0.388658
-0.147305 -0.56936 0.158871
0.100182 -0.56936 -0.238889
-0.000221 -0.56936 0.027238
0.109959 -0.56936 0.174731
0.331478 -0.56936 -0.366509
-0.107422 -0.56936 -0.417169
-0.312097 -0.56936 0.429642
0.356218 -0.56936 -0.420902
-0.339489 -0.56936 -0.188416
-0.237435 -0.56936 0.298432
-0.244188 -0.56936 0.013415
-0.007851 -0.56936 0.332355
-0.236684 -0.56936 -0.469643
0.182242 -0.56936 -0.128249
-0.335351 -0.56936 0.033542
0.069103 -0.56936 -0.354267
-0.164421 -0.617571 0.481954
0.232808 -0.56936 -0.46432
-0.167035 -0.56936 0.314004
-0.099033 -0.56936 -0.02261
-0.131716 -0.56936 -0.045901
0.008386 -0.56936 -0.112045
0.355708 -0.56936 0.042981
-0.267565 -0.56936 0.365249
0.148153 -0.558475 0.461668
0.277571 -0.56936 0.300984
-0.147912 -0.56936 -0.484748
-0.15118 -0.56936 0.233276
0.165187 -0.587681 0.449298
-0.18482 -0.56936 -0.306412
0.164366 -0.56936 0.315303
0.018087 -0.56936 -0.294146
-0.309504 -0.56936 -0.383776
-0.341581 -0.56936 0.156924
0.040615 -0.56936 0.034601
-0.273141 -0.623787 0.450252
-0.136791 -0.56936 0.039447
0.01733 -0.56936 0.355236
-0.132281 -0.56936 -0.114225
-0.066047 -0.56936 -0.472763
-0.038208 -0.56936 -0.452632
0.222571 -0.569384 0.449298
0.220863 -0.590721 0.481954
0.022519 -0.56936 -0.059046
-0.072623 -0.56936 -0.082276
0.119475 -0.594301 0.449298
-0.285286 -0.56936 -0.306413
-0.003474 -0.56936 0.405296
0.336482 -0.56936 0.242358
0.258395 -0.56936 -0.502435
-0.339051 -0.56936 0.227161
0.279374 -0.56936 -0.235427
-0.088416 -0.56936 0.429487
0.02202 -0.56936 0.295472
0.330256 -0.56936 -0.055785
-0.20491 -0.56936 0.015577
0.342488 -0.56936 -0.120221
0.300153 -0.621403 0.481954
0.349826 -0.56936 -0.159568
0.290127 -0.56936 -0.396012
0.077651 -0.56936 -0.109847
0.080549 -0.56936 0.326843
-0.336608 -0.56936 0.086446
-0.246431 -0.56936 0.441147
0.131625 -0.56936 -0.329679
0.215491 -0.56936 -0.411142
-0.034338 -0.56936 -0.245101
-0.072249 -0.56936 0.050993
0.215765 -0.56936 -0.054195
-0.017817 -0.56936 -0.088136
-0.113801 -0.56936 0.147464
-0.104824 -0.56936 0.274066
-0.010655 -0.56936 -0.151887
0.199941 -0.56936 -0.480719
0.34904 -0.56936 0.312915
-0.130892 -0.56936 -0.360129
-0.237614 -0.56936 -0.433244
0.07234 -0.56936 -0.385296
0.3338 -0.56936 -0.199428
0.253241 -0.589593 0.481954
-0.000134 -0.56936 0.176797
0.185092 -0.56936 0.263115
-0.332487 -0.56936 -0.227868
-0.051308 -0.56936 0.381531
-0.17387 -0.56936 -0.434835
0.193302 -0.56936 0.104948
0.165217 -0.623787 0.452591
0.108541 -0.56936 0.422263
0.329185 -0.56936 -0.504831
0.121632 -0.56936 -0.034302
-0.213169 -0.56936 0.048213
-0.219016 -0.56936 -0.377327
-0.355214 -0.56936 -0.442823
-0.137863 -0.56936 0.391916
0.322046 -0.56936 0.381794
-0.182898 -0.56936 0.424595
-0.065221 -0.56936 -0.325157
-0.061483 -0.56936 0.320677
0.246444 -0.594971 0.449298
-0.068177 -0.56936 -0.25831
0.191623 -0.56936 -0.19044
-0.119641 -0.56936 -0.289311
0.032423 -0.56936 0.083101
-0.297251 -0.56936 0.362254
-0.037686 -0.56936 0.261812
-0.223984 -0.56936 -0.048354
-0.246019 -0.56936 0.211401
-0.213653 -0.56936 0.114425
-0.351613 -0.56936 0.272498
0.22611 -0.56936 0.041665
0.241503 -0.56936 0.133882
0.05172 -0.56936 -0.248504
-0.145352 -0.56936 0.076138
-0.239581 -0.56936 -0.2668
-0.351343 -0.56936 -0.127338
0.088295 -0.56936 -0.332159
0.13953 -0.56936 0.10422
0.119076 -0.56936 0.272554
0.221358 -0.56936 -0.175587
0.067137 -0.56936 -0.295241
0.071882 -0.56936 0.229292
0.125801 -0.56936 0.346109
-0.152897 -0.581159 0.449298
0.140033 -0.56936 -0.104079
0.292898 -0.56936 0.137883
-0.342698 -0.56936 0.001248
0.243993 -0.56936 0.350948
-0.130202 -0.56936 -0.250726
0.355632 -0.56936 -0.473376
-0.29577 -0.56936 -0.413483
-0.318129 -0.56936 -0.013517
0.245903 -0.56936 -0.313294
-0.296341 -0.56936 -0.059773
-0.072489 -0.56936 0.215023
0.11234 -0.56936 -0.186108
0.242273 -0.56936 -0.154796
0.009704 -0.56936 -0.387046
0.064392 -0.623787 0.462381
-0.323654 -0.56936 0.250865
0.197456 -0.56936 0.288436
0.228605 -0.56936 0.01123
0.04788 -0.56936 0.110148
0.35394 -0.56936 -0.309385
0.038733 -0.56936 -0.482999
-0.175095 -0.56936 0.118811
0.131469 -0.56936 -0.437113
0.025337 -0.56936 0.402262
-0.137153 -0.56936 0.132314
0.297555 -0.56936 -0.32015
-0.292211 -0.56936 -0.22976
0.294795 -0.584566 0.449298
-0.295243 -0.56936 -0.501363
-0.048382 -0.56936 -0.005322
0.210123 -0.56936 -0.247351
0.080171 -0.56936 -0.073761
0.132429 -0.56936 0.046921
-0.311747 -0.56936 -0.328015
-0.078908 -0.56936 -0.192392
0.12726 -0.56936 -0.074492
-0.202525 -0.56936 0.220113
0.165854 -0.56936 0.425854
-0.007298 -0.56936 -0.242278
-0.10863 -0.623787 0.454184
0.237182 -0.56936 -0.0945
0.143885 -0.56936 0.401455
-0.280438 -0.56936 -0.033647
0.180153 -0.56936 -0.462373
0.229272 -0.56936 0.226233
-0.260305 -0.56936 -0.415076
0.327843 -0.56936 -0.432963
0.251232 -0.56936 0.305449
-0.265951 -0.56936 0.260471
0.305219 -0.56936 -0.371162
0.170764 -0.56936 0.341159
0.226321 -0.56936 -0.224306
0.011581 -0.56936 -0.352928
-0.274775 -0.56936 0.331194
-0.273046 -0.56936 0.048203
0.138472 -0.56936 -0.355273
-0.127054 -0.56936 0.2224
0.071019 -0.56936 -0.031412
0.338938 -0.56936 0.002391
-0.211891 -0.597393 0.481954
0.053847 -0.56936 0.057476
0.071612 -0.56936 -0.153244
0.249067 -0.563133 0.449298
-0.245182 -0.56936 0.159171
-0.196332 -0.56936 -0.0641
0.294136 -0.56936 0.326116
0.329213 -0.56936 0.350123
0.186711 -0.56936 0.075945
-0.156118 -0.579795 0.481954
0.319465 -0.56936 0.1434
0.360614 -0.56936 0.170281
0.061657 -0.566596 0.449298
-0.227073 -0.558475 0.454575
0.004402 -0.56936 -0.212378
0.081193 -0.56936 0.119252
0.077996 -0.56936 0.182986
0.035968 -0.56936 -0.217324
0.308209 -0.56936 -0.17232
-0.105943 -0.56936 0.352068
0.009736 -0.623787 0.460265
0.119023 -0.56936 0.394936
0.08919 -0.56936 -0.20115
0.027242 -0.56936 0.145632
0.280118 -0.56936 0.242741
0.089243 -0.56936 0.005208
-0.207939 -0.56936 0.160092
-0.310629 -0.56936 0.082534
0.002924 -0.56936 0.217774
0.094129 -0.594483 0.449298
0.255625 -0.56936 -0.250837
-0.150879 -0.56936 0.012915
0.115713 -0.56936 0.32303
0.172038 -0.56936 0.29118
0.208899 -0.56936 0.18827
-0.0945 -0.56936 -0.049272
0.242778 -0.56936 -0.03999
-0.176742 -0.56936 -0.464558
0.024322 -0.56936 -0.131261
-0.142627 -0.56936 0.334395
0.150782 -0.56936 0.0146
0.32473 -0.56936 -0.079972
0.298953 -0.56936 0.390798
0.006452 -0.558475 0.456474
0.238159 -0.56936 0.25423
-0.262265 -0.56936 -0.334858
-0.209441 -0.593281 0.449298
-0.106382 -0.56936 -0.244943
0.013973 -0.582507 0.449298
-0.154326 -0.56936 0.421599
-0.154837 -0.56936 -0.264172
-0.223273 -0.56936 0.355007
0.204862 -0.56936 -0.137959
-0.322571 -0.56936 0.172122
0.317102 -0.56936 0.285088
0.359704 -0.56936 -0.257858
-0.044818 -0.623787 0.450527
-0.278113 -0.56936 0.1737
0.109539 -0.56936 -0.500091
0.012633 -0.56936 -0.08838
-0.127176 -0.56936 0.171916
-0.109062 -0.56936 -0.315999
-0.048384 -0.56936 0.050202
0.1053 -0.56936 0.223973
0.099042 -0.56936 -0.443103
-0.218004 -0.56936 -0.205966
0.019184 -0.56936 -0.409672
-0.160847 -0.56936 0.137777
0.167151 -0.56936 0.165595
-0.033043 -0.56936 0.22965
0.32495 -0.56936 0.431444
-0.110194 -0.56936 0.375083
0.166184 -0.56936 -0.26228
0.334272 -0.56936 -0.296783
0.053401 -0.56936 -0.371497
-0.223819 -0.56936 0.229374
-0.076479 -0.56936 -0.017281
-0.065702 -0.56936 0.36224
-0.282797 -0.56936 -0.271598
0.354894 -0.56936 -0.44391
-0.077469 -0.56936 -0.492762
-0.17807 -0.56936 -0.284268
-0.351098 -0.56936 0.246746
0.265992 -0.56936 0.146303
0.08679 -0.56936 0.076179
-0.085242 -0.56936 -0.45378
-0.194528 -0.56936 0.131923
-0.032043 -0.56936 -0.396414
0.201366 -0.56936 -0.376824
