-0.34665 -0.233729 -0.284799
-0.302633 0.402492 -0.284799
0.58509 -0.5557 -0.291166
0.208795 -0.162613 -0.291166
0.310507 0.615361 -0.291166
0.182546 0.586245 -0.291166
-0.041881 0.345481 -0.284799
-0.052943 0.700936 -0.284799
-0.346497 0.118727 -0.291166
0.035042 -0.30031 -0.291166
-0.338874 -0.115469 -0.284799
-0.279633 0.569375 -0.284799
0.288994 -0.710961 -0.284799
-0.119771 -0.297171 -0.291166
-0.419951 0.528875 -0.291166
-0.219559 0.299828 -0.291166
-0.10178 0.433657 -0.291166
-0.510713 -0.262095 -0.291166
0.109011 -0.61127 -0.284799
-0.556373 -0.512544 -0.284799
0.344445 -0.016096 -0.291166
0.361835 0.360854 -0.284799
-0.469311 -0.087368 -0.284799
-0.143648 -0.420801 -0.284799
0.186494 0.366 -0.284799
0.126216 -0.211941 -0.284799
0.509021 0.089625 -0.284799
0.077883 0.55987 -0.284799
-0.035118 0.600262 -0.284799
0.158262 -0.09506 -0.291166
-0.424922 -0.502197 -0.284799
0.130955 -0.355124 -0.291166
-0.157078 0.3215 -0.291166
-0.522174 0.102941 -0.291166
0.570332 -0.20954 -0.284799
-0.170026 -0.064516 -0.291166
-0.02653 0.279516 -0.284799
0.150308 0.163558 -0.291166
0.56315 -0.494156 -0.284799
-0.22558 0.477818 -0.291166
0.587966 0.500382 -0.284799
0.565013 0.563291 -0.284799
0.45724 -0.294925 -0.291166
0.465038 0.149021 -0.291166
-0.409228 0.593516 -0.284799
0.544371 0.651344 -0.284799
0.162008 -0.5481 -0.291166
0.468474 -0.19754 -0.291166
0.274902 -0.311768 -0.291166
-0.094667 0.219349 -0.291166
-0.03473 0.544964 -0.291166
-0.067754 -0.359218 -0.291166
0.090577 0.266945 -0.284799
0.015773 -0.36144 -0.284799
0.499477 0.279126 -0.284799
-0.085188 -0.175803 -0.284799
-0.419574 -0.428159 -0.284799
0.085439 0.081811 -0.291166
0.237942 0.095485 -0.284799
0.274997 0.333908 -0.291166
-0.362889 -0.594522 -0.284799
0.080997 -0.420685 -0.291166
-0.40419 0.417983 -0.291166
0.243852 -0.121226 -0.291166
-0.148093 -0.527569 -0.284799
-0.395179 0.333204 -0.291166
0.533467 -0.584325 -0.284799
-0.155434 0.418418 -0.284799
-0.350275 -0.703005 -0.284799
0.010845 -0.025208 -0.291166
-0.304611 0.085779 -0.284799
-0.316308 -0.515755 -0.284799
0.287762 -0.568959 -0.284799
0.069584 0.384589 -0.291166
0.427685 0.45687 -0.284799
-0.306575 -0.345146 -0.284799
0.487377 0.547569 -0.284799
-0.320839 0.604644 -0.291166
0.291504 0.553756 -0.284799
-0.260531 0.680838 -0.284799
-0.274594 -0.101951 -0.291166
-0.020447 0.222903 -0.291166
-0.339587 0.250444 -0.291166
-0.069661 -0.483082 -0.291166
0.251303 0.436181 -0.291166
-0.140483 0.581265 -0.284799
0.579178 0.014407 -0.284799
-0.216751 -0.258708 -0.291166
-0.050022 -0.278035 -0.284799
-0.387095 0.151858 -0.284799
0.01182 0.070618 -0.291166
0.070615 0.720501 -0.291166
0.103401 -0.095663 -0.284799
-0.243886 -0.576546 -0.284799
0.208241 -0.269367 -0.291166
0.14736 0.399142 -0.291166
0.220479 -0.639975 -0.291166
0.370446 -0.322371 -0.291166
0.053414 -0.52399 -0.291166
0.334856 0.472904 -0.284799
0.08381 0.140353 -0.284799
-0.474999 -0.362086 -0.284799
-0.1314 -0.728535 -0.284799
0.249869 -0.207655 -0.284799
-0.190741 -0.111236 -0.291166
-0.346725 0.514007 -0.291166
-0.028147 -0.390475 -0.284799
-0.246629 -0.436323 -0.284799
0.471911 -0.371015 -0.291166
0.000293 0.484496 -0.291166
-0.555796 -0.410277 -0.284799
-0.388856 -0.311323 -0.284799
0.167263 0.302146 -0.284799
-0.124662 0.142556 -0.284799
0.281148 -0.395559 -0.291166
0.224559 0.715193 -0.284799
0.411061 0.287548 -0.284799
0.121623 0.700819 -0.284799
0.364561 0.115298 -0.291166
0.236616 0.527963 -0.291166
0.609876 -0.470129 -0.287463
0.2322 0.263476 -0.291166
-0.212042 0.239175 -0.284799
0.379349 -0.402099 -0.284799
-0.073289 0.049958 -0.291166
0.426122 -0.102983 -0.291166
-0.435321 0.216494 -0.291166
-0.554207 -0.289556 -0.284799
-0.210734 -0.504795 -0.284799
0.517304 0.740977 -0.289144
0.186743 -0.714187 -0.291166
0.096759 -0.008428 -0.284799
-0.197389 0.585118 -0.284799
0.234466 -0.593187 -0.291166
-0.154251 -0.5783 -0.284799
-0.437368 -0.560751 -0.284799
0.425742 0.238324 -0.291166
-0.54817 0.211275 -0.284799
0.026703 0.406039 -0.284799
0.492124 -0.15568 -0.291166
0.603732 0.199019 -0.284799
-0.020135 0.165179 -0.291166
0.586883 -0.09092 -0.291166
0.575757 0.2413 -0.291166
-0.315781 0.449982 -0.291166
-0.468789 -0.462664 -0.291166
-0.065493 -0.673293 -0.284799
-0.154707 -0.63307 -0.284799
-0.064159 0.40511 -0.284799
0.260275 0.627639 -0.284799
0.13754 0.553306 -0.291166
0.054323 0.316672 -0.291166
0.17373 0.010242 -0.291166
-0.066795 -0.120913 -0.291166
0.218727 -0.407313 -0.291166
-0.536301 0.269948 -0.291166
-0.5167 -0.071452 -0.291166
0.514809 -0.279331 -0.291166
-0.195279 0.645436 -0.284799
-0.550211 0.412903 -0.284799
0.338382 0.52123 -0.291166
-0.054946 -0.60485 -0.284799
0.195659 0.635359 -0.284799
0.520179 -0.67664 -0.284799
0.373173 -0.618823 -0.284799
0.455929 -0.022263 -0.291166
0.495869 0.342223 -0.291166
-0.489731 0.382418 -0.291166
-0.257858 -0.357192 -0.284799
0.077745 -0.283306 -0.284799
0.455703 -0.629392 -0.284799
-0.140362 0.223766 -0.284799
0.019798 0.667264 -0.291166
-0.481606 0.188229 -0.291166
-0.401808 0.036624 -0.284799
0.473553 0.387023 -0.291166
0.033961 -0.201755 -0.291166
-0.060384 -0.012546 -0.284799
0.474558 -0.248677 -0.291166
-0.457638 -0.251329 -0.291166
0.423319 -0.415712 -0.284799
-0.303504 -0.257336 -0.284799
0.030031 -0.091907 -0.284799
0.177888 0.690989 -0.284799
0.275241 -0.476415 -0.291166
-0.013899 0.381288 -0.284799
-0.519577 0.540385 -0.284799
-0.044047 -0.523791 -0.291166
0.293652 -0.219656 -0.284799
0.143713 -0.43691 -0.284799
0.209746 -0.499578 -0.291166
0.415138 -0.314747 -0.291166
0.225832 0.390032 -0.284799
0.396463 0.424279 -0.284799
-0.512469 -0.394159 -0.284799
-0.297473 0.294152 -0.291166
0.424494 -0.212419 -0.284799
0.252729 0.144133 -0.291166
-0.447982 0.424664 -0.284799
0.474035 -0.537954 -0.284799
-0.366113 -0.051944 -0.284799
0.523597 -0.187269 -0.291166
0.609876 0.4502 -0.289117
-0.173615 -0.271568 -0.291166
0.518612 -0.376458 -0.291166
-0.056018 -0.209176 -0.284799
0.168779 0.479028 -0.291166
0.569983 0.341282 -0.291166
-0.249224 -0.169457 -0.291166
-0.143609 0.375292 -0.284799
0.590261 -0.396184 -0.291166
0.378858 -0.566132 -0.284799
0.317352 -0.302135 -0.284799
-0.052661 0.451825 -0.284799
-0.434705 -0.19811 -0.291166
-0.4926 0.017179 -0.291166
0.046511 0.494649 -0.291166
0.4709 -0.110533 -0.284799
-0.462851 0.293795 -0.291166
0.490221 0.497239 -0.291166
-0.471477 0.463643 -0.284799
-0.166449 -0.352836 -0.291166
-0.554661 -0.674916 -0.291166
0.142372 0.206231 -0.291166
0.133894 0.264222 -0.284799
0.336362 0.224926 -0.284799
-0.310309 0.350596 -0.284799
-0.112406 -0.489599 -0.291166
-0.147114 0.104913 -0.284799
-0.198455 0.165558 -0.291166
-0.248442 0.07298 -0.291166
0.174367 0.071454 -0.284799
0.420512 0.347436 -0.284799
0.59623 -0.715214 -0.291166
0.065679 0.21743 -0.284799
0.165963 -0.033385 -0.284799
0.320511 0.350243 -0.284799
-0.31217 -0.190628 -0.284799
0.5741 -0.596724 -0.284799
0.288154 -0.667287 -0.284799
-0.534673 -0.548337 -0.291166
-0.002737 -0.647791 -0.284799
-0.346323 -0.357865 -0.291166
0.303465 0.725744 -0.284799
0.128727 -0.496782 -0.291166
0.368542 0.193801 -0.291166
-0.274915 0.528145 -0.291166
-0.311402 -0.722713 -0.291166
0.585475 0.085164 -0.291166
-0.011868 -0.601968 -0.284799
-0.231059 -0.122141 -0.291166
-0.431956 0.162899 -0.291166
-0.522629 0.728519 -0.291166
0.564652 0.383877 -0.291166
0.504629 0.130515 -0.291166
-0.091233 0.118641 -0.291166
-0.574317 -0.617338 -0.28649
0.550027 0.186812 -0.284799
0.320664 -0.176573 -0.291166
0.311688 -0.094293 -0.291166
-0.450598 0.725071 -0.291166
-0.407502 0.373566 -0.291166
-0.002775 0.109621 -0.291166
-0.132004 -0.255066 -0.291166
-0.005283 0.314748 -0.284799
-0.557802 -0.245417 -0.291166
0.202789 -0.120779 -0.291166
0.166674 -0.177639 -0.291166
-0.454575 0.254173 -0.284799
-0.390004 -0.71059 -0.291166
0.167825 -0.272414 -0.284799
0.306045 -0.258714 -0.291166
-0.440569 -0.333698 -0.291166
-0.377457 -0.272283 -0.284799
-0.543877 0.023649 -0.291166
0.472086 0.244578 -0.291166
0.125943 0.456543 -0.291166
-0.344075 -0.486937 -0.291166
0.28742 -0.350278 -0.291166
-0.204698 0.339545 -0.284799
-0.230729 0.138465 -0.284799
-0.189863 -0.173516 -0.284799
-0.07641 0.735422 -0.291166
0.309656 0.424038 -0.284799
-0.535996 0.17323 -0.291166
0.124024 0.36691 -0.284799
-0.265294 0.454487 -0.291166
0.475597 0.677627 -0.284799
-0.513427 -0.738216 -0.284799
-0.061059 0.241387 -0.291166
-0.561961 -0.113759 -0.291166
0.050384 0.439217 -0.291166
-0.127761 0.018066 -0.291166
-0.205188 0.443957 -0.284799
-0.216705 -0.614027 -0.284799
-0.019326 -0.103348 -0.284799
-0.457292 0.509636 -0.291166
0.40934 0.195154 -0.284799
0.202862 0.549097 -0.291166
-0.197259 -0.675612 -0.291166
-0.392817 -0.398709 -0.284799
0.535455 0.030856 -0.291166
0.380615 0.326445 -0.291166
-0.115214 -0.136451 -0.291166
0.321549 -0.549269 -0.291166
0.496478 -0.571645 -0.291166
-0.213618 -0.457254 -0.291166
0.118788 -0.570655 -0.284799
0.38617 0.516268 -0.291166
-0.565071 0.065276 -0.284799
0.292892 0.298856 -0.291166
-0.072354 -0.082347 -0.284799
0.129215 -0.310725 -0.284799
-0.040348 0.49395 -0.291166
-0.466644 -0.172047 -0.284799
0.373037 0.459803 -0.284799
-0.219563 -0.352842 -0.291166
0.272322 -0.438019 -0.284799
-0.435448 0.016865 -0.284799
-0.34785 -0.440304 -0.291166
0.074102 -0.203792 -0.284799
-0.515948 -0.492316 -0.291166
0.07005 -0.62277 -0.284799
-0.360735 0.610123 -0.284799
-0.380921 0.283915 -0.291166
0.232126 0.043841 -0.284799
0.109873 -0.387838 -0.291166
-0.395929 -0.574018 -0.284799
0.496011 0.439397 -0.291166
0.526958 0.478251 -0.284799
0.4132 0.55768 -0.284799
0.009228 -0.529273 -0.291166
0.471429 -0.330921 -0.291166
-0.007566 -0.176322 -0.284799
-0.45618 0.110696 -0.291166
0.381641 -0.239407 -0.284799
-0.424642 -0.28769 -0.291166
-0.121923 -0.451916 -0.291166
0.156846 0.342448 -0.291166
0.253912 0.482021 -0.291166
0.359616 -0.489745 -0.284799
-0.080315 0.527936 -0.291166
-0.394219 0.188826 -0.291166
-0.279654 -0.526389 -0.284799
-0.155721 -0.190331 -0.284799
0.370868 -0.086951 -0.291166
-0.103511 0.326567 -0.291166
0.188832 -0.432025 -0.291166
0.103965 0.231369 -0.284799
0.381721 -0.282386 -0.291166
0.238632 0.354271 -0.284799
-0.273056 0.183307 -0.291166
-0.271248 0.63921 -0.284799
0.299458 0.460236 -0.291166
-0.179052 0.048549 -0.284799
0.274621 -0.524426 -0.284799
0.23326 -0.296987 -0.284799
0.200237 -0.672716 -0.291166
0.57876 -0.154216 -0.284799
0.309507 0.14292 -0.291166
-0.002332 0.617818 -0.291166
-0.436121 0.328566 -0.284799
-0.398897 -0.668361 -0.284799
0.09962 -0.247645 -0.284799
-0.194601 0.499048 -0.291166
0.358394 0.594388 -0.291166
-0.332268 -0.563515 -0.291166
-0.482038 -0.551787 -0.284799
-0.086929 -0.2791 -0.291166
0.078878 0.344238 -0.284799
0.0728 -0.320008 -0.291166
0.021281 0.1518 -0.291166
-0.53513 -0.038455 -0.284799
0.267012 0.072823 -0.291166
0.342229 0.262375 -0.284799
0.410612 0.119128 -0.284799
-0.384504 -0.215667 -0.284799
-0.001608 -0.292136 -0.291166
-0.411045 -0.030758 -0.284799
-0.31743 -0.604029 -0.284799
0.326802 -0.733915 -0.284799
0.219407 0.455906 -0.284799
0.222408 -0.235726 -0.284799
0.086475 -0.70563 -0.284799
0.123865 0.0694 -0.284799
0.532006 0.338129 -0.284799
-0.243429 0.566477 -0.291166
0.347716 -0.384475 -0.291166
-0.037037 -0.040903 -0.284799
-0.086762 -0.396163 -0.284799
-0.461078 -0.013363 -0.284799
0.249497 0.295963 -0.284799
0.046466 -0.397308 -0.291166
-0.169092 0.544156 -0.291166
-0.04739 0.122949 -0.291166
0.403022 -0.177593 -0.291166
0.530511 -0.09687 -0.291166
-0.545763 -0.16205 -0.284799
0.102939 0.669595 -0.284799
-0.573383 0.184309 -0.284799
0.113174 -0.464064 -0.291166
0.493366 0.179738 -0.291166
-0.212817 -0.201533 -0.284799
0.534347 0.269684 -0.291166
-0.542439 0.332187 -0.284799
0.380109 -0.366645 -0.291166
0.05271 -0.738152 -0.284799
-0.117388 -0.197683 -0.291166
0.440929 0.049056 -0.284799
0.163482 0.443527 -0.291166
-0.011185 0.571247 -0.284799
0.195781 -0.559983 -0.291166
-0.364364 0.417951 -0.284799
-0.514355 -0.624452 -0.291166
-0.134835 0.448494 -0.291166
0.311535 0.388991 -0.291166
0.600161 0.536052 -0.284799
0.42939 -0.051936 -0.291166
-0.308083 0.539367 -0.284799
0.217259 0.202989 -0.291166
-0.474967 0.326618 -0.284799
-0.304919 0.703081 -0.284799
-0.089644 -0.314887 -0.284799
-0.246495 0.276678 -0.291166
-0.368322 0.091102 -0.284799
-0.057366 0.313608 -0.284799
0.440877 0.177279 -0.284799
0.548685 -0.543721 -0.284799
-0.184286 0.297774 -0.291166
0.543408 -0.02459 -0.284799
0.553054 -0.323053 -0.284799
-0.231536 -0.543503 -0.284799
0.278858 0.592125 -0.291166
0.532346 -0.713284 -0.284799
-0.534411 -0.587214 -0.284799
-0.329505 0.213744 -0.291166
0.027028 -0.057506 -0.291166
0.594673 -0.508162 -0.291166
0.550076 0.085618 -0.284799
0.108651 0.398385 -0.284799
-0.33928 0.032128 -0.284799
-0.573936 -0.35759 -0.291166
-0.057623 -0.712562 -0.284799
0.277651 0.217234 -0.291166
0.211768 -0.361261 -0.284799
0.466826 0.010871 -0.291166
0.175461 -0.639194 -0.284799
0.020498 -0.590708 -0.291166
0.484486 0.712878 -0.284799
-0.152048 -0.308328 -0.284799
-0.249809 0.501753 -0.284799
-0.046279 0.190542 -0.291166
-0.390974 -0.504211 -0.291166
0.46492 0.573014 -0.291166
-0.030775 -0.677507 -0.291166
-0.174551 0.136695 -0.291166
0.402119 -0.071993 -0.284799
0.245736 0.232483 -0.284799
0.409347 0.617901 -0.284799
0.166083 -0.346433 -0.291166
0.173529 -0.138612 -0.291166
0.300569 0.075427 -0.284799
0.211886 -0.196727 -0.291166
-0.054842 -0.244794 -0.291166
-0.439428 -0.730922 -0.284799
0.077599 0.481964 -0.284799
-0.240081 0.35352 -0.284799
-0.47959 0.534734 -0.284799
-0.374638 0.532568 -0.284799
0.247782 -0.503654 -0.291166
-0.519938 -0.294884 -0.291166
-0.303143 -0.482787 -0.284799
0.017576 0.448127 -0.291166
-0.250059 -0.022017 -0.291166
-0.42406 -0.386957 -0.291166
0.595924 0.740977 -0.286764
0.43217 -0.717203 -0.284799
0.315066 -0.038393 -0.291166
0.591888 0.16791 -0.291166
-0.024369 0.681223 -0.291166
-0.506762 0.461725 -0.284799
-0.003969 0.251742 -0.284799
0.16827 0.104594 -0.291166
0.482868 -0.609371 -0.284799
0.518231 -0.418718 -0.284799
0.462594 0.347509 -0.291166
0.443822 -0.461461 -0.284799
0.408193 -0.503933 -0.284799
-0.269854 -0.195952 -0.291166
0.312738 -0.380721 -0.291166
0.519494 0.554788 -0.291166
0.151604 -0.597498 -0.284799
0.504406 -0.492472 -0.284799
0.324572 -0.700538 -0.284799
-0.144289 -0.221705 -0.284799
0.56047 0.476388 -0.284799
0.372967 0.283226 -0.284799
-0.270427 0.408804 -0.291166
-0.279022 0.059846 -0.291166
-0.111497 0.597479 -0.284799
0.59842 0.362802 -0.291166
0.410795 0.026377 -0.284799
0.267429 -0.595941 -0.291166
-0.205952 -0.423954 -0.291166
0.046475 -0.490575 -0.284799
0.555406 -0.257745 -0.291166
-0.282709 0.376262 -0.284799
-0.421479 0.561145 -0.284799
-0.016943 0.039468 -0.291166
-0.562051 0.101055 -0.284799
-0.52606 -0.424175 -0.284799
-0.238227 -0.652311 -0.291166
0.532513 0.159872 -0.291166
0.098375 -0.181564 -0.284799
-0.392008 -0.096147 -0.284799
0.33448 0.017338 -0.291166
-0.499824 -0.187626 -0.284799
0.342607 -0.153321 -0.284799
-0.12377 0.400332 -0.291166
-0.398646 0.460117 -0.291166
0.254291 -0.172718 -0.284799
-0.142778 -0.685422 -0.284799
0.353498 0.067627 -0.291166
0.025865 0.302399 -0.284799
0.136695 0.65955 -0.284799
0.204315 0.023679 -0.291166
0.129255 -0.114026 -0.291166
-0.230276 -0.227957 -0.291166
-0.203176 -0.583755 -0.284799
-0.32688 0.38222 -0.291166
-0.177203 -0.515351 -0.291166
0.592553 -0.261041 -0.284799
0.555369 -0.181113 -0.284799
-0.329719 -0.664258 -0.284799
0.352235 -0.53998 -0.291166
-0.230477 0.689966 -0.291166
-0.168681 0.599201 -0.284799
0.043117 0.07153 -0.284799
0.456785 0.443708 -0.284799
-0.013708 -0.506439 -0.291166
0.390499 -0.112489 -0.284799
-0.415734 0.243692 -0.291166
0.141118 -0.401411 -0.291166
-0.229837 -0.29353 -0.291166
-0.319095 0.731569 -0.284799
-0.347475 0.354799 -0.284799
0.219716 -0.093945 -0.291166
-0.493285 -0.687884 -0.284799
0.497181 0.02293 -0.291166
0.553014 0.68183 -0.284799
0.028288 -0.242658 -0.291166
-0.493212 0.276399 -0.291166
-0.332211 0.640536 -0.284799
0.323951 0.64754 -0.284799
0.292278 0.69701 -0.291166
0.180244 -0.073438 -0.284799
-0.486945 0.112023 -0.284799
0.250454 0.013273 -0.291166
-0.230163 -0.402547 -0.291166
-0.162574 -0.095023 -0.291166
0.326501 0.550298 -0.291166
-0.127567 -0.32798 -0.284799
0.250087 -0.407495 -0.291166
-0.340645 0.077957 -0.291166
-0.441105 0.637107 -0.284799
-0.264741 0.099685 -0.291166
0.513992 0.313355 -0.291166
-0.434711 -0.088595 -0.291166
-0.188753 0.418176 -0.291166
0.110947 0.575644 -0.284799
-0.079887 -0.512493 -0.291166
-0.207133 0.271999 -0.284799
-0.137165 0.626722 -0.284799
-0.071139 0.361287 -0.284799
0.366001 0.397807 -0.291166
-0.047743 -0.574654 -0.284799
0.455028 -0.397065 -0.291166
-0.333784 0.14959 -0.284799
0.112206 0.127823 -0.284799
0.599052 -0.197931 -0.284799
-0.296205 -0.217166 -0.284799
0.147901 0.504682 -0.284799
0.603403 0.322779 -0.291166
0.010294 0.224285 -0.284799
0.081584 -0.586006 -0.284799
0.197685 0.337567 -0.291166
0.488697 -0.220496 -0.284799
-0.28612 -0.642807 -0.291166
-0.412278 -0.634372 -0.291166
0.210234 0.501303 -0.291166
0.279836 -0.12836 -0.291166
-0.345046 -0.327015 -0.291166
-0.479976 0.601694 -0.291166
0.442175 -0.181616 -0.291166
-0.054108 -0.405659 -0.291166
-0.287511 -0.607012 -0.291166
-0.574317 -0.048194 -0.286824
-0.5423 0.302173 -0.291166
-0.509366 -0.149398 -0.291166
-0.031183 -0.352083 -0.291166
0.223716 0.620538 -0.284799
0.180877 -0.509999 -0.291166
-0.432514 0.080927 -0.291166
0.561526 0.413608 -0.284799
0.127742 -0.635412 -0.284799
0.532649 0.116351 -0.284799
0.28417 0.004923 -0.284799
0.429415 0.426384 -0.284799
0.210325 0.237308 -0.284799
-0.255818 0.211877 -0.284799
0.558311 -0.082259 -0.284799
0.16232 0.724267 -0.284799
-0.531201 0.659511 -0.284799
0.340525 -0.617404 -0.284799
0.568149 0.53373 -0.291166
-0.501343 0.580352 -0.284799
0.314787 0.249352 -0.284799
0.524563 0.429216 -0.291166
-0.257876 -0.26055 -0.291166
0.585913 -0.121208 -0.291166
-0.182211 -0.620393 -0.284799
0.218312 0.072475 -0.284799
0.565532 0.212766 -0.284799
0.47787 0.089915 -0.284799
0.286674 -0.027206 -0.284799
0.580727 -0.458587 -0.284799
0.526107 0.059568 -0.291166
-0.04252 0.630156 -0.284799
-0.233778 -0.716815 -0.284799
-0.150415 0.292112 -0.291166
0.586224 0.597551 -0.284799
0.600066 0.257912 -0.284799
0.133307 -0.532118 -0.291166
0.349205 0.669602 -0.284799
0.176461 0.660924 -0.284799
-0.045231 0.381763 -0.284799
0.406344 -0.534936 -0.291166
0.045056 -0.034435 -0.284799
-0.011068 0.193009 -0.284799
0.349049 -0.217358 -0.291166
-0.094138 0.674193 -0.284799
0.032463 0.036877 -0.284799
0.363974 -0.42773 -0.284799
0.101626 -0.34945 -0.291166
0.422124 -0.285134 -0.291166
-0.375972 -0.422515 -0.291166
-0.507468 0.143292 -0.284799
0.083581 0.588394 -0.291166
-0.435931 -0.051215 -0.284799
-0.543275 -0.709247 -0.284799
0.463971 0.632821 -0.291166
0.434303 -0.346174 -0.291166
0.014673 -0.332511 -0.291166
0.064939 -0.44799 -0.284799
0.40268 0.374784 -0.284799
0.417489 0.50668 -0.291166
0.307086 0.21473 -0.291166
0.438778 0.137107 -0.284799
0.463428 0.484868 -0.291166
-0.306576 0.196327 -0.284799
0.402429 -0.342421 -0.284799
0.534481 -0.495319 -0.291166
0.4559 -0.224083 -0.291166
-0.317949 0.322952 -0.291166
-0.393821 0.713264 -0.284799
-0.093231 0.464756 -0.284799
0.450046 0.2627 -0.284799
-0.116634 -0.411621 -0.291166
-0.167819 0.35444 -0.291166
-0.446787 -0.369768 -0.284799
-0.501276 0.339253 -0.284799
-0.451297 -0.514636 -0.284799
-0.222481 0.509649 -0.291166
-0.464595 0.395677 -0.284799
-0.22699 -0.038592 -0.284799
-0.103554 -0.004828 -0.284799
-0.165014 -0.734563 -0.284799
-0.519263 -0.001772 -0.284799
-0.116804 0.048959 -0.284799
-0.118823 0.562978 -0.291166
-0.310562 0.251672 -0.291166
-0.112286 -0.167524 -0.291166
-0.24917 -0.505429 -0.291166
-0.312978 -0.098724 -0.284799
0.609876 -0.667349 -0.290855
0.193242 0.262031 -0.291166
0.010534 -0.559382 -0.284799
0.000904 -0.070579 -0.291166
-0.546121 0.136029 -0.291166
0.303713 -0.431431 -0.284799
0.015329 -0.160002 -0.291166
0.414206 0.590223 -0.291166
0.417323 -0.132064 -0.291166
0.046862 0.684281 -0.291166
0.283993 0.174107 -0.291166
0.154595 0.579427 -0.291166
0.052862 -0.68217 -0.284799
-0.051411 -0.156694 -0.291166
0.490259 -0.038334 -0.284799
-0.134161 -0.047732 -0.284799
0.0454 -0.604916 -0.291166
-0.466634 -0.698556 -0.284799
0.23014 -0.666194 -0.284799
0.551185 -0.658328 -0.291166
-0.459348 -0.579125 -0.284799
0.37235 -0.015151 -0.284799
0.126919 0.291255 -0.291166
-0.245592 0.31175 -0.291166
-0.148743 -0.487022 -0.291166
-0.21368 -0.081843 -0.284799
-0.527816 0.243397 -0.284799
-0.167111 -0.549078 -0.291166
-0.470048 -0.325299 -0.284799
0.39762 -0.431522 -0.291166
-0.343053 -0.166453 -0.291166
-0.56729 0.269111 -0.291166
-0.148174 -0.011125 -0.291166
-0.171907 0.629259 -0.284799
0.609876 0.481955 -0.287311
-0.362187 -0.566855 -0.291166
0.115395 0.168378 -0.291166
0.202621 -0.472109 -0.291166
0.13618 -0.245088 -0.291166
0.006685 -0.464268 -0.284799
0.556643 -0.376859 -0.284799
0.365897 0.221954 -0.291166
-0.439317 -0.455436 -0.284799
0.449899 0.704495 -0.284799
0.126493 0.428306 -0.291166
-0.077767 0.022819 -0.284799
0.316766 -0.667778 -0.284799
-0.119955 0.662813 -0.284799
-0.247485 -0.747291 -0.291166
0.356433 -0.298742 -0.284799
-0.049971 -0.32861 -0.284799
0.243758 -0.33162 -0.284799
0.548952 -0.230304 -0.291166
-0.150022 -0.449772 -0.291166
0.20115 0.294396 -0.284799
0.097358 0.625182 -0.284799
0.228395 0.129993 -0.291166
-0.360407 -0.202609 -0.291166
0.208294 -0.61323 -0.284799
-0.421464 0.443413 -0.291166
0.070535 -0.555246 -0.291166
-0.17923 -0.409296 -0.284799
0.209762 0.583591 -0.284799
0.007296 0.716704 -0.284799
0.304604 0.024097 -0.284799
0.286089 0.128922 -0.284799
-0.022927 -0.705439 -0.284799
-0.390886 0.650841 -0.284799
0.447328 0.370207 -0.284799
-0.560104 -0.325567 -0.291166
0.080994 0.532056 -0.284799
-0.289051 -0.07885 -0.284799
-0.472344 0.666877 -0.291166
0.081231 0.027889 -0.284799
-0.216989 -0.172306 -0.291166
0.30108 -0.518342 -0.291166
-0.087293 0.303895 -0.291166
-0.417272 0.698293 -0.284799
-0.397854 -0.173028 -0.284799
-0.297878 0.025218 -0.284799
0.179578 0.044176 -0.284799
0.565319 0.159921 -0.291166
0.407211 -0.682756 -0.291166
0.123075 -0.170703 -0.291166
0.017314 -0.667326 -0.284799
0.092681 0.317815 -0.284799
0.609876 0.066105 -0.286578
0.136715 0.631905 -0.284799
0.606398 -0.014168 -0.284799
-0.355258 -0.51228 -0.291166
-0.24344 -0.334526 -0.291166
0.475346 0.041732 -0.284799
0.461891 0.516229 -0.291166
0.08307 -0.035516 -0.291166
0.249516 0.703874 -0.291166
0.29065 -0.610786 -0.291166
-0.373802 0.122297 -0.291166
-0.374307 -0.680674 -0.284799
0.601815 0.572885 -0.284799
-0.559958 0.470189 -0.284799
0.002137 -0.26019 -0.291166
-0.398581 0.740977 -0.289439
0.547468 -0.349911 -0.284799
0.295787 0.360261 -0.291166
0.41768 0.320923 -0.291166
-0.235703 0.449137 -0.291166
0.266383 -0.683358 -0.291166
0.074781 -0.087102 -0.284799
-0.081181 -0.143302 -0.284799
0.364486 -0.591005 -0.291166
0.604204 0.226369 -0.284799
0.486457 0.606774 -0.291166
0.447444 -0.740892 -0.291166
0.213735 -0.059873 -0.284799
-0.169787 -0.031389 -0.291166
0.553239 0.738414 -0.291166
0.329223 0.443063 -0.284799
0.577058 -0.235975 -0.284799
-0.370797 -0.146703 -0.291166
-0.294151 0.615359 -0.284799
0.535091 0.606281 -0.284799
-0.298737 -0.370426 -0.291166
-0.565644 0.684621 -0.284799
0.104987 -0.287388 -0.291166
-0.259853 -0.554537 -0.284799
0.177755 0.391724 -0.284799
0.100117 0.733107 -0.291166
0.494705 -0.065121 -0.284799
-0.109482 0.532904 -0.284799
-0.089909 -0.057145 -0.284799
-0.524502 0.353243 -0.284799
-0.21394 0.372663 -0.284799
0.286521 -0.086554 -0.284799
-0.136399 0.697816 -0.284799
0.074939 0.455872 -0.291166
-0.216227 -0.326831 -0.284799
0.196352 -0.03878 -0.291166
0.125706 -0.026068 -0.284799
0.554947 -0.696957 -0.284799
0.210635 -0.697649 -0.284799
-0.113572 -0.633254 -0.284799
-0.50568 -0.368885 -0.291166
0.341319 0.573581 -0.291166
0.071411 0.693268 -0.284799
0.254602 -0.146583 -0.291166
-0.040505 -0.653262 -0.284799
0.173957 -0.247022 -0.291166
-0.021737 -0.275496 -0.284799
0.363568 -0.137756 -0.291166
-0.526616 -0.222349 -0.284799
-0.063836 0.082967 -0.284799
0.24961 0.401257 -0.291166
-0.547538 -0.617393 -0.284799
-0.257437 -0.411804 -0.284799
-0.475671 0.433527 -0.291166
0.311265 0.275893 -0.284799
0.559589 -0.567324 -0.291166
0.040097 -0.327091 -0.284799
-0.135086 -0.112503 -0.291166
-0.524878 0.404418 -0.284799
0.401147 0.227912 -0.291166
-0.559521 0.160593 -0.291166
-0.485381 -0.256637 -0.284799
-0.117286 -0.557256 -0.284799
-0.069759 0.600585 -0.284799
-0.008487 -0.007654 -0.284799
0.45628 -0.268074 -0.291166
0.555912 -0.048094 -0.284799
-0.088445 -0.661417 -0.291166
-0.32046 -0.225881 -0.291166
0.009245 -0.624108 -0.284799
0.463189 -0.156011 -0.291166
0.071982 0.248032 -0.284799
-0.322343 0.683086 -0.284799
0.140421 -0.659441 -0.291166
0.331966 0.601229 -0.284799
-0.517772 0.024618 -0.284799
0.313794 -0.637115 -0.291166
-0.233498 0.094746 -0.291166
0.609761 -0.376736 -0.291166
0.338721 -0.083794 -0.284799
0.30107 -0.194406 -0.284799
0.132106 -0.087309 -0.291166
0.124008 0.482777 -0.291166
0.085506 -0.380248 -0.284799
-0.186637 0.232397 -0.284799
0.239116 -0.272167 -0.291166
0.05073 0.468714 -0.291166
-0.06236 -0.630055 -0.284799
-0.15053 -0.710509 -0.284799
0.313728 -0.32814 -0.284799
0.031016 -0.637819 -0.291166
0.498204 -0.361247 -0.284799
-0.389641 -0.59867 -0.291166
-0.25377 -0.084101 -0.284799
0.515909 -0.60751 -0.284799
-0.493879 -0.057297 -0.284799
0.568847 0.638789 -0.291166
0.585042 -0.303325 -0.284799
-0.499249 -0.717124 -0.291166
0.111225 0.550277 -0.291166
0.42027 -0.476503 -0.284799
-0.170485 0.093201 -0.284799
0.482401 -0.513205 -0.284799
0.450712 -0.093953 -0.284799
-0.093007 0.409058 -0.291166
-0.285438 -0.013426 -0.291166
0.482659 -0.635033 -0.291166
0.498247 0.367762 -0.284799
-0.340995 0.427591 -0.291166
-0.38003 0.568916 -0.284799
0.475477 0.12518 -0.291166
0.049212 -0.656017 -0.284799
0.381967 0.064858 -0.291166
-0.365176 0.313923 -0.284799
-0.148826 0.248436 -0.291166
-0.293026 -0.42547 -0.284799
0.169689 0.276335 -0.284799
0.359777 0.169414 -0.291166
0.53661 -0.626905 -0.284799
-0.325037 0.579094 -0.291166
-0.523367 -0.178934 -0.291166
-0.095641 0.250705 -0.284799
0.031023 -0.70928 -0.291166
0.584863 0.470745 -0.291166
-0.041966 0.059548 -0.284799
0.292888 0.633081 -0.284799
0.063406 0.105887 -0.291166
-0.042365 -0.115742 -0.284799
-0.442606 -0.666356 -0.291166
0.339546 -0.473653 -0.284799
-0.520755 -0.67727 -0.291166
0.331048 0.40445 -0.284799
-0.467471 -0.390776 -0.284799
0.520164 -0.303636 -0.284799
-0.081076 0.143769 -0.291166
-0.48713 -0.105824 -0.284799
-0.148401 0.132917 -0.284799
0.373931 -0.21126 -0.291166
0.191575 -0.096407 -0.284799
0.068621 -0.004281 -0.284799
-0.087071 -0.253509 -0.291166
0.299447 0.329878 -0.284799
0.197692 0.707146 -0.284799
-0.533502 0.684955 -0.284799
0.056652 -0.110532 -0.284799
-0.058493 0.554279 -0.291166
0.232616 -0.476851 -0.291166
0.102637 0.055261 -0.284799
0.421589 -0.441151 -0.284799
0.464362 0.409937 -0.284799
0.039979 -0.356605 -0.291166
0.123618 0.740537 -0.284799
-0.055803 -0.058087 -0.284799
0.468062 0.17344 -0.284799
0.482693 -0.088028 -0.284799
-0.056559 0.521595 -0.284799
-0.330262 -0.535995 -0.291166
0.411655 0.262181 -0.284799
0.393746 0.540467 -0.291166
-0.498172 -0.223818 -0.291166
-0.371151 0.037739 -0.291166
-0.343148 0.280271 -0.284799
-0.315842 0.276434 -0.291166
0.143104 -0.186875 -0.291166
-0.43665 0.580378 -0.291166
0.205764 -0.587816 -0.284799
-0.047561 0.262785 -0.291166
-0.285239 0.718961 -0.284799
-0.546814 0.437948 -0.284799
0.502463 0.472171 -0.284799
-0.343671 -0.141231 -0.291166
-0.354131 0.653985 -0.291166
0.349828 0.621633 -0.284799
-0.366332 -0.619457 -0.284799
0.500732 0.51917 -0.284799
-0.278788 -0.665959 -0.284799
-0.283006 0.273667 -0.291166
0.367117 0.088665 -0.291166
0.497833 -0.257965 -0.291166
-0.472304 0.363376 -0.284799
-0.104945 0.026913 -0.284799
0.059441 0.358585 -0.291166
-0.1453 -0.069167 -0.291166
-0.316123 0.487607 -0.291166
-0.079189 -0.61085 -0.284799
0.467704 -0.587949 -0.291166
-0.499068 -0.414192 -0.291166
0.382123 0.590261 -0.284799
-0.029504 -0.218569 -0.291166
-0.387398 -0.546988 -0.291166
0.13446 0.528595 -0.291166
-0.45664 -0.065025 -0.284799
-0.38239 -0.031407 -0.284799
-0.541283 -0.101484 -0.284799
0.60663 -0.282157 -0.284799
0.235194 0.503972 -0.284799
0.386238 0.651263 -0.291166
-0.294681 -0.505314 -0.291166
-0.132607 0.325752 -0.291166
-0.067076 -0.306706 -0.291166
0.003367 0.411594 -0.291166
-0.234336 0.162992 -0.284799
-0.033204 -0.173511 -0.291166
-0.204156 0.721245 -0.284799
0.088288 -0.515835 -0.291166
0.348784 -0.244629 -0.284799
-0.030064 -0.29958 -0.284799
0.609748 -0.586375 -0.291166
-0.492791 -0.486712 -0.284799
-0.425855 -0.221127 -0.291166
-0.351042 -0.025177 -0.291166
0.336105 -0.197414 -0.284799
0.254609 -0.773579 -0.07374
-0.246858 -0.773579 -0.106003
-0.560022 -0.773579 0.054847
0.052073 -0.773579 -0.291781
-0.002539 -0.748113 0.024122
0.41508 -0.773579 0.080333
-0.336276 -0.773579 0.134804
0.464168 -0.748113 -0.126334
-0.4666 -0.748113 -0.130479
-0.065687 -0.773579 -0.145503
0.23407 -0.773579 0.107054
-0.013504 -0.748113 0.204711
-0.172381 -0.748113 0.07279
0.570347 -0.773579 0.161117
0.206691 -0.773579 -0.236188
0.092693 -0.748113 -0.110025
-0.11754 -0.773579 -0.304867
-0.424615 -0.748113 0.008998
0.484102 -0.773579 -0.263171
-0.254489 -0.773579 -0.249867
0.101102 -0.748113 0.125663
0.335418 -0.773579 -0.187989
-0.468796 -0.773579 0.166093
0.321199 -0.773579 0.206735
-0.293993 -0.748113 0.009816
0.503868 -0.748113 -0.00547
0.371875 -0.748113 -0.040254
0.125512 -0.748113 0.005173
-0.355414 -0.748113 -0.162855
-0.211428 -0.773579 0.17906
-0.468932 -0.773579 -0.245576
-0.106557 -0.748113 -0.02164
-0.432502 -0.773579 0.270235
0.463042 -0.773579 0.180158
0.563661 -0.773579 -0.092843
-0.158786 -0.748113 -0.185638
-0.086718 -0.773579 0.137298
0.57046 -0.773579 -0.201677
0.31776 -0.773579 0.04119
0.21633 -0.773579 0.203805
0.086498 -0.748113 -0.205871
-0.026949 -0.748113 -0.229312
-0.550978 -0.773579 -0.164784
0.388471 -0.748113 0.270404
0.17545 -0.773579 -0.144319
0.280317 -0.773579 -0.295217
0.557823 -0.748113 0.069405
-0.014983 -0.748113 -0.072979
-0.508368 -0.748113 -0.027139
0.001759 -0.773579 0.110995
-0.392793 -0.748113 -0.078435
-0.158744 -0.773579 -0.08991
0.229579 -0.748113 0.021767
-0.290295 -0.748113 0.215026
-0.107982 -0.748113 0.218486
0.01949 -0.773579 -0.153103
0.39235 -0.773579 -0.251432
-0.259698 -0.773579 0.098043
0.334923 -0.748113 0.119894
0.091113 -0.773579 0.218296
-0.20201 -0.773579 -0.001543
-0.37854 -0.748113 0.201598
-0.362749 -0.773579 0.056852
-0.435396 -0.748113 0.090398
-0.275808 -0.748113 -0.177249
0.381589 -0.773579 -0.115238
0.161896 -0.773579 0.075808
0.511972 -0.748113 0.232119
0.056065 -0.773579 -0.016606
-0.079974 -0.773579 0.062641
-0.331672 -0.748113 -0.248321
-0.421892 -0.773579 -0.187533
0.483694 -0.748113 0.095337
0.412394 -0.748113 -0.184995
0.393739 -0.748113 0.183329
-0.309369 -0.748113 -0.075939
0.267248 -0.748113 -0.186155
0.17945 -0.773579 -0.035646
-0.527116 -0.748113 0.131827
-0.500018 -0.773579 -0.310058
0.153148 -0.773579 0.167542
0.056184 -0.748113 0.064545
-0.151166 -0.748113 0.152776
0.314139 -0.748113 -0.101443
-0.278562 -0.748177 -0.310265
-0.097931 -0.773579 -0.238581
-0.526426 -0.773579 0.204238
-0.491749 -0.773579 0.045278
0.306465 -0.773579 -0.028571
0.552572 -0.773579 -0.28665
0.526953 -0.748113 -0.15372
-0.356829 -0.748113 -0.02086
0.445136 -0.773579 0.016877
-0.460608 -0.773579 -0.068522
-0.080527 -0.773579 -0.077813
0.132132 -0.773579 -0.247062
-0.531869 -0.748113 -0.250444
0.57856 -0.773579 0.225611
0.216496 -0.755433 -0.310265
0.274307 -0.773579 0.156274
-0.516603 -0.748113 -0.091477
-0.2747 -0.748113 0.153974
0.479097 -0.748113 -0.063247
-0.469077 -0.748113 0.226016
-0.22041 -0.773579 -0.1904
-0.371731 -0.773579 0.262951
0.389838 -0.748113 0.022344
-0.18263 -0.748113 0.226553
0.565183 -0.748113 -0.026612
0.248092 -0.748113 -0.12861
-0.130742 -0.773579 0.029496
0.029415 -0.748113 0.157615
-0.252678 -0.748113 -0.033164
-0.242833 -0.748113 0.046856
-0.196648 -0.773579 -0.309436
0.427621 -0.748113 0.132305
0.530626 -0.748113 -0.236984
-0.05538 -0.773579 -0.009342
-0.19326 -0.748113 -0.129411
0.326663 -0.773579 -0.259962
0.102034 -0.773579 -0.052311
-0.047533 -0.773579 0.244284
-0.119074 -0.748113 -0.123297
0.259077 -0.748113 -0.24811
0.523102 -0.748113 0.140733
-0.420499 -0.748113 -0.262116
0.020889 -0.773579 0.242468
0.161261 -0.748113 -0.193211
-0.162101 -0.773579 -0.236121
-0.496664 -0.748113 -0.203411
-0.39407 -0.773579 0.15369
0.105464 -0.773579 0.054216
0.42943 -0.773579 -0.085345
0.499827 -0.773579 -0.197357
0.27415 -0.748113 0.065506
0.20522 -0.748113 -0.080528
0.075682 -0.773579 -0.15671
0.038131 -0.773579 -0.216741
-0.201964 -0.748113 -0.066226
0.193528 -0.748113 0.134953
-0.308427 -0.748113 0.091836
0.609876 -0.772732 -0.162027
0.037913 -0.748113 -0.106981
0.156845 -0.773579 -0.0933
-0.324476 -0.773579 -0.297788
0.173999 -0.748113 0.225167
0.299663 -0.773579 -0.148184
0.267646 -0.748113 0.242132
-0.446815 -0.769545 -0.310265
-0.574317 -0.751715 -0.122249
-0.333091 -0.773579 0.193007
0.524112 -0.773579 -0.047413
-0.050588 -0.748113 0.165442
0.447902 -0.773579 -0.213881
-0.244937 -0.773579 0.22548
-0.317649 -0.773579 -0.195445
-0.36003 -0.773579 -0.117908
0.541479 -0.773579 0.018931
-0.021128 -0.748113 0.072481
0.383461 -0.773579 0.136113
0.332353 -0.768345 -0.310265
-0.376598 -0.773579 -0.264255
0.33307 -0.773579 0.273464
-0.022998 -0.748113 -0.122951
-0.127229 -0.773579 0.079866
0.032635 -0.773579 -0.064044
0.077931 -0.748113 0.177121
0.292783 -0.773579 0.109643
-0.069996 -0.773579 -0.279655
0.008165 -0.748113 -0.024279
0.171926 -0.748113 0.022172
-0.179509 -0.773579 0.11454
-0.166442 -0.773579 -0.041098
-0.289056 -0.773579 0.054529
0.344312 -0.748113 0.168037
-0.117653 -0.773579 -0.180949
0.226839 -0.773579 -0.025494
-0.430996 -0.773579 0.211237
-0.386419 -0.748113 0.113846
-0.323865 -0.773579 0.239981
-0.219413 -0.748113 0.099784
0.274537 -0.773579 0.021596
0.57424 -0.748113 0.113928
0.394383 -0.773579 0.223205
-0.084211 -0.748113 0.02319
-0.535831 -0.773579 -0.055658
0.172763 -0.773579 -0.270569
0.381609 -0.773579 -0.305401
0.376053 -0.748113 0.084717
-0.301553 -0.773579 -0.028659
-0.286482 -0.773579 -0.139531
0.08781 -0.773579 -0.261821
-0.523356 -0.773579 0.083506
-0.198779 -0.748113 -0.257255
0.592151 -0.748113 -0.125282
0.418829 -0.748113 -0.136296
0.589699 -0.748113 0.021076
0.469126 -0.755514 -0.310265
0.024812 -0.773579 0.19629
0.208642 -0.748113 -0.197677
0.289471 -0.773579 -0.224545
0.445862 -0.748113 -0.031264
0.067956 -0.748113 0.254614
0.275342 -0.773579 0.202243
0.507532 -0.748113 0.18639
0.500937 -0.773579 -0.116264
-0.459183 -0.748113 -0.177064
-0.035513 -0.748113 -0.168567
0.26923 -0.748113 -0.021519
0.349404 -0.748113 -0.223187
0.138075 -0.748113 -0.040776
0.228962 -0.748113 0.168708
-0.532342 -0.748113 0.011101
0.348216 -0.773579 -0.069036
0.124027 -0.773579 -0.192392
0.577241 -0.773579 -0.249024
0.110182 -0.773579 -0.309967
-0.386392 -0.773579 -0.220465
0.526845 -0.748113 -0.089791
-0.407445 -0.773579 0.055924
0.464062 -0.773579 0.127857
-0.123911 -0.773579 -0.062156
0.563434 -0.773579 -0.153902
-0.551555 -0.773579 -0.288162
0.044441 -0.748113 -0.179298
0.463194 -0.748113 0.048062
-0.016239 -0.773579 -0.275965
-0.509943 -0.748113 -0.138458
-0.202337 -0.773579 0.053074
0.463601 -0.773579 -0.162188
0.440506 -0.773579 -0.258264
0.498342 -0.773579 0.062785
-0.405031 -0.773579 -0.147057
0.047961 -0.773579 0.127144
-0.550105 -0.773579 -0.208532
0.197464 -0.748113 0.075604
0.066697 -0.748113 -0.073823
-0.035403 -0.773579 0.040072
-0.150748 -0.748113 0.256288
-0.474116 -0.773579 0.0055
0.335386 -0.773579 0.080972
0.086814 -0.773579 0.014989
0.384375 -0.773579 -0.205888
0.387876 -0.748113 -0.080293
-0.436482 -0.748113 0.153309
-0.506769 -0.773579 0.254892
-0.11845 -0.773579 0.166371
-0.420467 -0.773579 -0.09914
-0.232633 -0.748113 -0.146143
-0.047562 -0.773579 0.200455
0.139782 -0.773579 0.225377
0.347278 -0.748113 0.228797
0.609876 -0.751173 0.155097
-0.167561 -0.773579 -0.152654
-0.293584 -0.773579 -0.265995
0.304756 -0.748113 0.006593
0.349956 -0.748113 0.049725
0.119872 -0.748113 -0.278017
-0.475292 -0.748113 0.103165
-0.132721 -0.748113 -0.21841
0.36 -0.773579 0.007714
-0.328631 -0.773579 0.003245
-0.418048 -0.773579 -0.02354
0.360759 -0.748113 -0.279631
-0.051436 -0.748113 -0.052545
0.027894 -0.773579 -0.257736
-0.019155 -0.773579 0.155589
-0.063567 -0.773579 -0.215102
0.348994 -0.748113 -0.124069
-0.384614 -0.748113 0.019709
-0.233567 -0.773579 0.130103
0.205723 -0.748113 -0.268582
-0.20414 -0.748113 0.147614
0.134626 -0.773579 -0.149002
0.299855 -0.773579 0.242579
-0.499094 -0.773579 -0.168753
-0.446614 -0.748113 -0.039558
0.281272 -0.773579 -0.104883
-0.119384 -0.773579 0.250497
0.608584 -0.773579 -0.070149
0.404927 -0.773579 -0.005725
-0.256953 -0.748113 -0.213304
0.221297 -0.773579 -0.111636
-0.540147 -0.773579 -0.11967
0.144286 -0.773579 0.036607
-0.171105 -0.748113 -0.001076
-0.16537 -0.74863 -0.310265
-0.214405 -0.773579 -0.229854
0.594738 -0.748113 0.199588
-0.448263 -0.748113 0.041052
0.108354 -0.773579 0.179705
-0.175713 -0.773579 0.19641
0.015711 -0.773579 -0.307439
-0.314113 -0.748113 0.156716
0.151674 -0.748113 -0.12299
0.489564 -0.773579 0.211969
-0.354005 -0.748113 -0.085181
-0.565682 -0.748113 0.255665
0.297124 -0.773579 -0.066647
-0.406079 -0.748113 0.229481
-0.114332 -0.748113 0.126728
-0.258349 -0.773579 0.021752
-0.08895 -0.748113 -0.174478
-0.015109 -0.748113 0.26279
0.302881 -0.748113 0.149579
-0.479902 -0.773579 -0.033699
0.201465 -0.748113 -0.011268
-0.331076 -0.748113 -0.120608
0.537753 -0.773579 0.090344
-0.075847 -0.748113 0.249642
-0.50718 -0.773579 0.168388
-0.007213 -0.773579 -0.208537
0.151401 -0.773579 0.112557
0.367441 -0.773579 0.193905
0.426668 -0.748113 0.202291
-0.244032 -0.748113 0.17623
-0.55794 -0.748113 0.189836
-0.298026 -0.748113 -0.231117
0.232118 -0.748113 -0.054016
-0.05088 -0.748113 0.127684
-0.19352 -0.748113 -0.200347
-0.301406 -0.773579 0.120434
-0.270238 -0.748113 0.252424
0.3646 -0.748113 -0.18658
0.227661 -0.748113 -0.165429
-0.06091 -0.748113 0.082302
0.153891 -0.748113 0.140214
0.51464 -0.773579 -0.29185
0.06419 -0.748113 0.216524
0.118842 -0.773579 -0.103755
-0.44327 -0.773579 -0.218889
0.176309 -0.773579 -0.307372
-0.230454 -0.773579 -0.048098
0.081749 -0.773579 0.107216
-0.560413 -0.773579 0.144891
0.151858 -0.748113 -0.228776
0.2363 -0.748113 0.222917
-0.534863 -0.773579 -0.018936
0.421643 -0.748113 -0.239704
0.053533 -0.748113 -0.140201
-0.455647 -0.748113 0.188981
0.591033 -0.748113 -0.306383
-0.48483 -0.748113 0.138449
-0.282747 -0.773579 -0.208789
0.589546 -0.748113 -0.17974
0.176239 -0.773579 0.199113
0.458411 -0.773579 0.089334
0.471237 -0.773579 -0.025811
0.200465 -0.773579 -0.173054
0.482406 -0.773579 0.009068
0.221624 -0.773579 0.066429
-0.356426 -0.773579 0.220785
0.25405 -0.773579 0.274096
-0.363451 -0.748113 0.0826
0.062709 -0.748113 0.024019
-0.232305 -0.748113 -0.003251
0.234246 -0.773579 -0.195501
-0.070938 -0.748113 -0.2397
0.132658 -0.748113 -0.082128
-0.095936 -0.773579 0.194648
0.104992 -0.773579 -0.223199
-0.135404 -0.773579 0.218376
0.315524 -0.748113 -0.172413
-0.190492 -0.748113 -0.032283
-0.392416 -0.748113 -0.168832
-0.007401 -0.773579 -0.096933
-0.035484 -0.773579 0.10791
-0.13334 -0.748113 0.054392
-0.43967 -0.773579 -0.129203
0.461929 -0.748113 0.207534
-0.321779 -0.773579 0.040673
0.118193 -0.748113 0.156803
-0.439385 -0.748113 0.246567
-0.249571 -0.748113 -0.068426
0.046513 -0.748113 -0.241737
0.087174 -0.748113 0.083311
0.598105 -0.773579 -0.003635
-0.467646 -0.773579 0.266992
0.357557 -0.773579 -0.160516
0.424754 -0.748113 -0.061448
0.428495 -0.773579 -0.165005
0.419267 -0.773579 0.155128
0.589526 -0.748113 -0.223998
-0.078217 -0.773579 -0.036084
-0.39631 -0.748113 -0.03393
0.114804 -0.748113 0.222296
-0.280876 -0.773579 0.177127
-0.229918 -0.773579 0.078287
-0.368637 -0.773579 -0.000184
0.378029 -0.773579 0.061026
-0.392124 -0.748113 -0.127144
0.23745 -0.748113 -0.09329
-0.4057 -0.748113 0.266754
-0.204502 -0.773579 0.234821
0.248241 -0.773579 -0.268747
-0.019908 -0.773579 -0.050204
0.461553 -0.748113 -0.268904
0.17946 -0.748113 0.259264
-0.234719 -0.748113 -0.262006
0.229517 -0.748113 -0.224994
0.302283 -0.773579 0.176167
0.559856 -0.748113 -0.264928
0.130184 -0.748113 0.103927
0.170858 -0.748113 0.100509
0.496903 -0.748113 -0.244213
0.109955 -0.748113 -0.174524
0.524732 -0.773579 0.171582
-0.259681 -0.773579 -0.297597
-0.151117 -0.748113 0.099368
-0.318025 -0.748113 -0.172927
0.148581 -0.748113 0.202623
-0.408703 -0.748113 -0.222205
0.266228 -0.773579 -0.142591
0.185398 -0.773579 -0.070301
0.387012 -0.748113 -0.147762
0.083882 -0.773579 0.155793
-0.062061 -0.761976 -0.310265
-0.49664 -0.748113 0.206731
-0.003262 -0.773579 0.002214
-0.074942 -0.748113 0.212575
0.569832 -0.748113 -0.059846
0.533994 -0.773579 -0.013748
0.541729 -0.773579 -0.184403
-0.27883 -0.748113 0.108438
0.351082 -0.748113 -0.01401
0.304693 -0.748113 -0.305453
0.588384 -0.748113 0.055882
0.442232 -0.773579 0.053361
0.122317 -0.748113 0.067707
0.042847 -0.773579 0.015578
-0.222296 -0.748113 -0.092641
0.352103 -0.773579 0.147372
-0.374155 -0.748113 -0.237884
0.609876 -0.773446 -0.19517
-0.23149 -0.748113 0.206813
0.446628 -0.748113 0.167047
0.427708 -0.773579 0.248112
-0.477516 -0.748113 -0.080898
-0.542386 -0.773579 0.110373
-0.449537 -0.773579 0.075222
-0.254912 -0.773579 -0.010842
-0.08935 -0.748113 -0.272721
0.170756 -0.773579 -0.004134
-0.137354 -0.748113 -0.032279
0.169282 -0.748113 0.056887
-0.398504 -0.773579 0.208994
-0.254098 -0.773579 -0.137807
-0.119707 -0.748113 -0.081759
-0.419849 -0.773579 -0.292758
0.527742 -0.748113 0.107497
-0.554763 -0.748113 0.221967
-0.139405 -0.748113 -0.249987
0.198703 -0.748113 0.194743
-0.441638 -0.773579 -0.001129
0.289166 -0.748113 -0.277249
0.36418 -0.773579 0.110414
0.317063 -0.773579 0.136074
0.444914 -0.748113 0.103435
0.194021 -0.748113 -0.050469
0.014853 -0.748113 0.129058
0.541679 -0.748113 0.220327
-0.34838 -0.773579 0.164342
-0.036402 -0.748113 -0.28138
-0.147917 -0.773579 -0.127578
-0.376211 -0.748113 0.146921
0.452665 -0.773579 -0.107096
-0.05096 -0.773579 -0.18591
-0.168544 -0.773579 0.054205
0.06323 -0.748113 0.111304
0.189642 -0.773579 -0.109356
0.532987 -0.748113 -0.286461
-0.35521 -0.748113 0.118987
-0.336608 -0.773579 -0.268579
-0.416576 -0.748113 0.199277
0.400439 -0.748113 -0.026813
-0.146265 -0.748113 0.183929
0.046633 -0.773579 0.222662
0.083498 -0.773579 0.264798
0.002796 -0.748113 -0.144958
-0.487195 -0.748113 0.018679
-0.216972 -0.773579 -0.136274
0.202627 -0.773579 0.106673
-0.554248 -0.748113 -0.055214
0.397361 -0.773579 -0.174369
-0.014264 -0.748113 0.173292
0.154605 -0.748113 -0.26804
0.213946 -0.773579 -0.055796
0.175716 -0.773579 -0.231796
-0.145614 -0.748113 -0.102178
0.268671 -0.748113 0.139236
0.495091 -0.773579 0.125207
0.141764 -0.748113 0.243186
-0.53629 -0.748113 -0.19715
0.171558 -0.773579 0.137968
0.140147 -0.773579 -0.058396
-0.46435 -0.748113 -0.207665
0.429844 -0.748113 0.025377
0.015744 -0.748113 0.261245
-0.154839 -0.773579 0.004888
0.119945 -0.773579 0.255141
-0.029681 -0.748113 0.009687
0.000275 -0.773579 0.270431
-0.15986 -0.748113 -0.056955
-0.271399 -0.773579 0.126974
-0.075005 -0.773579 -0.116242
0.392338 -0.748113 0.121514
0.491886 -0.773579 -0.051939
-0.211093 -0.748113 -0.285283
0.328647 -0.773579 -0.092629
-0.47974 -0.748113 -0.258662
0.068639 -0.773579 -0.238014
0.163677 -0.773579 0.253349
-0.110638 -0.748113 0.082673
0.494101 -0.773579 -0.161397
-0.418544 -0.773579 0.024574
0.448387 -0.748113 -0.155401
-0.430898 -0.748113 -0.201438
0.333239 -0.748113 0.017068
-0.087741 -0.748113 -0.049517
-0.49021 -0.773579 -0.281426
-0.031235 -0.773579 -0.244902
-0.270748 -0.748113 -0.136449
-0.060097 -0.773579 0.020364
0.587529 -0.773579 0.071841
0.1775 -0.748113 -0.160132
-0.027538 -0.773579 -0.020577
-0.55813 -0.773579 0.084888
0.525378 -0.773579 0.123073
0.381672 -0.748113 0.210734
-0.524012 -0.773579 -0.145509
0.017043 -0.748113 -0.062056
-0.181416 -0.748113 -0.160064
-0.052472 -0.748113 -0.118103
0.210478 -0.748113 0.04875
0.290701 -0.748113 -0.052598
-0.415315 -0.748113 0.042653
-0.34221 -0.773579 -0.025473
-0.177882 -0.773579 -0.286399
-0.462758 -0.773579 -0.1105
0.308829 -0.748113 0.254913
0.042929 -0.773579 0.057027
0.11696 -0.748113 -0.245846
-0.274482 -0.748113 -0.249105
0.581251 -0.748113 0.148375
0.260665 -0.748113 0.027278
0.164499 -0.748113 0.177332
0.484964 -0.748113 0.167348
0.096988 -0.748113 -0.002328
0.537884 -0.748113 -0.041877
0.532075 -0.748113 0.002997
-0.246595 -0.748113 0.08845
0.37082 -0.748113 0.143706
-0.373731 -0.773579 0.029585
-0.203438 -0.748113 0.249343
0.109607 -0.748113 -0.133981
0.335601 -0.773579 -0.129716
0.252739 -0.773579 -0.305109
0.047346 -0.748113 -0.005157
-0.174211 -0.748113 0.127905
-0.104013 -0.748113 -0.199514
0.467962 -0.748113 0.019237
-0.08464 -0.773579 -0.194878
0.355611 -0.773579 -0.027548
-0.176214 -0.748113 -0.23726
-0.277859 -0.773579 0.221778
-0.001112 -0.773579 -0.125372
-0.189673 -0.748113 0.196642
0.079657 -0.748113 -0.281255
-0.283731 -0.748113 0.076746
-0.018062 -0.773579 0.217683
-0.536204 -0.773579 0.024273
-0.184105 -0.773579 0.261709
-0.445828 -0.773579 -0.262976
-0.511592 -0.773579 -0.00178
0.401242 -0.773579 0.111146
0.41254 -0.773579 -0.055335
0.516994 -0.773579 -0.236396
-0.087421 -0.773579 0.222254
0.061021 -0.773579 -0.199121
-0.048352 -0.773579 0.077195
-0.542088 -0.773579 -0.241643
0.322126 -0.748113 0.083296
0.593344 -0.773579 0.142584
-0.494796 -0.748113 0.173417
0.529251 -0.748113 0.066122
-0.050285 -0.748113 0.270319
0.165819 -0.773579 -0.180664
0.547009 -0.773579 0.144332
-0.1906 -0.773579 0.088043
-0.27008 -0.748113 0.027978
0.005357 -0.773579 0.170545
-0.563754 -0.773579 -0.103354
-0.47575 -0.773579 0.12886
-0.190373 -0.748113 -0.092453
0.348088 -0.748113 -0.082172
0.55418 -0.773579 0.2106
0.001242 -0.748113 -0.224319
-0.289214 -0.773579 -0.302499
-0.262961 -0.748113 0.206633
0.528894 -0.748113 -0.182617
0.345179 -0.773579 0.033163
0.498448 -0.748113 -0.086677
-0.300576 -0.773579 -0.066479
0.360102 -0.748113 -0.308129
-0.424848 -0.773579 0.183437
0.560243 -0.773579 0.056907
-0.507198 -0.748113 0.038933
-0.468353 -0.748113 -0.021248
-0.406868 -0.773579 -0.240162
0.398298 -0.773579 0.031664
0.398618 -0.773579 0.194917
-0.331203 -0.773579 -0.170528
0.575423 -0.748113 -0.088747
0.543982 -0.773579 -0.113235
-0.54683 -0.748113 -0.015611
-0.383107 -0.748113 -0.274829
0.353759 -0.748113 -0.252187
0.412196 -0.773579 -0.200658
-0.3815 -0.773579 -0.083455
0.18429 -0.748113 -0.297956
0.109077 -0.748113 -0.062335
0.404037 -0.748113 0.088631
0.510147 -0.773579 0.096335
-0.435261 -0.748113 -0.162041
0.022614 -0.773579 0.147536
-0.059533 -0.748113 -0.079553
0.495806 -0.773579 0.183405
-0.299849 -0.773579 0.197914
-0.312938 -0.748113 -0.03237
-0.506399 -0.748113 0.11279
-0.15588 -0.773579 -0.197235
-0.463626 -0.773579 0.045953
0.097069 -0.773579 -0.174897
0.542382 -0.773579 -0.074536
0.079996 -0.748113 0.144155
0.248457 -0.773579 0.19423
-0.206212 -0.773579 0.206828
-0.441628 -0.773579 0.142753
0.264442 -0.748113 -0.062421
0.585624 -0.773579 0.042601
0.593542 -0.748113 -0.033977
0.556178 -0.748113 -0.30213
0.452657 -0.748113 -0.24237
-0.512349 -0.748113 -0.054797
-0.117515 -0.773579 -0.258493
0.534208 -0.748113 0.177981
-0.001615 -0.748113 0.092405
0.505736 -0.773579 0.15095
0.270703 -0.773579 -0.196839
0.41166 -0.748113 0.004311
0.088178 -0.773579 -0.012781
-0.345897 -0.748113 0.217199
-0.036115 -0.773579 -0.210811
0.103714 -0.748113 0.043309
0.541782 -0.748113 0.029972
0.396493 -0.773579 -0.138654
0.398966 -0.773579 -0.283847
0.228077 -0.748113 -0.284886
-0.525696 -0.763313 -0.310265
0.040422 -0.773579 -0.117457
-0.039376 -0.748113 0.237467
-0.487183 -0.773579 -0.076523
-0.352654 -0.748113 0.053813
-0.115279 -0.748113 -0.049272
-0.278058 -0.748113 -0.02257
-0.085432 -0.773579 0.253578
0.463884 -0.773579 -0.281801
0.318238 -0.748113 -0.254025
-0.005344 -0.773579 -0.164613
0.169464 -0.748113 -0.035481
0.424709 -0.773579 -0.228383
