0.189465 0.255618 0.212563
0.322562 0.286712 -0.24314
0.243434 0.286712 -0.021001
-0.363607 0.286712 0.080716
0.287042 0.286712 0.374008
0.091536 0.255618 0.38819
-0.261511 0.255618 -0.286248
-0.170082 0.286712 -0.324264
0.373954 0.255618 0.140016
-0.405437 0.286712 -0.324716
-0.32698 0.286712 -0.136002
-0.339552 0.286712 0.346635
0.087659 0.255618 -0.056733
0.291206 0.255618 -0.195032
-0.101612 0.286712 0.195654
0.164858 0.286712 -0.045857
-0.165189 0.286712 -0.425577
-0.112263 0.255618 -0.358646
-0.28572 0.286712 -0.350717
0.117494 0.286712 -0.361902
-0.253364 0.286712 -0.050839
0.211374 0.255618 -0.293042
-0.251134 0.286712 -0.453543
-0.31036 0.286712 -0.271218
0.375813 0.286712 -0.480194
0.315216 0.255618 -0.325162
0.218781 0.286712 0.12752
0.199107 0.255618 0.164117
0.382231 0.286712 0.327794
-0.388299 0.286712 -0.37883
0.114462 0.255618 -0.458913
0.248172 0.255618 0.048027
0.057677 0.286712 0.123221
0.421021 0.252712 -0.502674
0.421021 -0.321632 -0.502662
0.400292 0.010218 -0.032153
0.421021 0.365568 0.179203
0.421021 0.670753 -0.526584
0.400292 -0.245983 0.241194
0.421021 -0.443254 -0.217656
0.421021 0.473531 -0.313158
0.421021 0.080892 0.232548
0.400292 -0.253044 -0.025896
0.421021 0.109734 -0.269994
0.421021 0.416067 -0.069341
0.421021 -0.501002 0.218075
0.400292 0.217545 0.020477
0.400292 0.489162 0.357736
0.421021 -0.244799 -0.294933
0.421021 -0.505302 -0.418768
0.421021 0.573579 0.065759
0.421021 0.302479 -0.227073
0.421021 -0.077135 -0.205073
0.421021 -0.122337 0.37941
0.421021 -0.534572 -0.055795
0.421021 -0.382342 0.361952
0.400292 -0.078301 0.149607
0.421021 -0.398747 0.068457
0.421021 0.673337 0.277841
0.421021 0.310429 0.35256
0.421021 0.506154 -0.493176
0.421021 0.653033 -0.268023
0.400292 0.142815 -0.112875
0.421021 -0.101684 -0.35249
0.400292 0.530914 -0.161338
0.421021 0.516329 0.213817
0.421021 0.342362 -0.377225
0.400292 -0.391347 -0.075609
0.421021 0.137177 -0.411367
0.421021 0.087535 0.084388
0.421021 0.029782 0.387731
0.400292 -0.380693 -0.359568
0.421021 -0.122552 0.015044
0.421021 0.217124 0.237573
0.421021 -0.291874 -0.165393
0.400292 0.592352 -0.391654
0.400292 -0.234242 0.104124
0.412432 0.680572 -0.00998
0.421021 0.286883 -0.091968
0.421021 0.437162 0.0706
0.421021 -0.254051 0.375899
0.400292 -0.374132 0.208347
0.421021 -0.037203 0.267036
0.421021 0.088959 -0.523935
0.405159 -0.452843 -0.529413
0.400292 0.668498 0.139655
0.400292 0.143797 0.33808
0.421021 0.026266 -0.363166
0.421021 -0.221803 -0.414303
0.421021 0.034161 -0.153285
0.400292 0.336878 0.013936
0.400292 0.536186 -0.040939
0.421021 0.226793 -0.31242
0.400292 0.425385 -0.212606
0.400292 0.39651 0.284816
0.421021 -0.081138 -0.091199
0.421021 0.188513 0.131746
0.421021 0.658916 -0.158108
0.421021 0.598156 0.355116
0.421021 -0.141736 0.261816
0.400292 0.193011 -0.210114
0.421021 -0.341068 -0.257159
0.421021 -0.496307 0.3231
0.400292 -0.018267 0.066913
0.400292 0.446793 -0.413959
0.421021 -0.204623 -0.114925
0.400292 0.014697 -0.249914
0.418894 -0.127442 -0.529413
0.421021 -0.471693 -0.312233
0.421021 0.558894 -0.253825
0.421021 0.123626 -0.022031
0.412932 0.680572 -0.358741
0.421021 -0.184799 -0.221749
0.421021 -0.454717 -0.00919
0.421021 -0.456172 0.41732
0.421021 -0.319797 0.137248
0.421021 0.35596 -0.151715
0.400292 0.007568 0.183229
0.421021 -0.456361 0.138545
0.421021 -0.23053 -0.519821
0.421021 -0.491304 -0.140812
0.400292 -0.309153 -0.416575
0.400292 -0.402738 -0.455814
0.421021 0.585761 0.267961
0.421021 -0.323669 0.022615
0.421021 0.370378 -0.28145
0.421021 0.587343 0.163804
0.400292 -0.316685 0.30947
0.400292 0.390836 0.374683
0.421021 -0.541792 0.134169
0.421021 -0.161033 0.151924
0.421021 0.501609 0.125964
0.421021 0.038073 -0.456385
0.421021 0.616472 -0.062907
0.400292 0.225095 0.321179
0.421021 -0.374599 -0.168514
0.421021 0.318681 0.267807
0.421021 -0.553577 0.380303
0.400292 -0.43516 0.261199
0.400292 -0.152175 -0.057037
0.400292 0.309123 -0.447164
0.421021 -0.543564 -0.217169
0.421021 -0.199735 0.317745
0.421021 -0.314656 -0.07923
0.421021 -0.054568 -0.282929
0.400292 0.031298 0.29995
0.421021 0.652155 -0.448341
0.421021 -0.060377 -0.419184
0.421021 0.675029 0.370566
0.421021 0.11034 -0.180632
0.400292 0.47398 0.005289
0.400292 -0.197238 0.036129
0.421021 0.516225 -0.386991
0.400292 0.100152 -0.343697
0.421021 0.328504 -0.527654
0.400292 0.364061 0.10492
0.421021 0.068659 -0.07794
0.400292 0.12794 0.174645
0.421021 0.490447 -0.099518
0.400292 -0.19104 0.412692
0.421021 0.471581 0.286974
0.421021 -0.049868 0.341141
0.400292 0.206685 -0.05638
0.421021 0.008305 -0.528177
0.421021 0.301787 -0.31114
0.421021 0.226786 -0.135043
0.421021 0.443602 0.200966
0.421021 -0.186157 -0.338587
0.400292 -0.320463 0.398309
0.421021 0.59643 -0.321865
0.421021 0.217832 0.390551
0.404666 0.445269 -0.529413
0.421021 0.208121 -0.426104
0.400292 -0.297457 -0.345368
0.421021 -0.058046 -0.021949
0.421021 0.382942 -0.439684
0.421021 -0.234845 0.172396
0.400292 -0.412629 -0.278397
0.400292 0.160254 0.062601
0.400292 0.108928 0.399673
0.421021 0.665308 0.208182
0.400292 -0.135789 -0.161272
0.400292 -0.141784 0.08567
0.400292 0.061983 0.023195
0.400292 0.15838 0.26798
0.421021 0.278282 0.046097
0.421021 -0.173154 -0.478371
0.421021 0.028444 0.119084
0.400292 -0.271377 -0.235381
0.421021 -0.122297 -0.27547
0.421021 -0.449493 -0.376435
0.400292 0.542766 0.401394
0.421021 -0.038941 -0.143934
0.421021 0.351796 -0.048207
0.421021 0.420424 -0.354095
0.400292 -0.38093 -0.0095
0.421021 0.593955 -0.142372
0.400292 0.45255 -0.150484
0.400292 0.433034 0.138665
0.421021 -0.311719 0.246628
0.421021 0.162938 -0.33943
0.421021 -0.14442 -0.402822
0.400292 -0.039067 -0.35289
0.400292 0.604202 -0.000775
0.400292 0.498359 -0.21842
0.421021 0.156025 -0.528961
0.400292 -0.187305 0.212276
0.421021 -0.079746 0.06415
0.400292 0.27904 -0.015334
0.400292 0.502191 0.065049
0.421021 -0.375792 0.274456
0.400292 -0.380488 0.136205
0.421021 0.336358 0.422524
0.400292 -0.124732 0.319618
0.421021 -0.093582 -0.476055
0.400292 0.099273 0.290207
0.421021 -0.561137 0.199527
0.400292 -0.221346 -0.175283
0.400292 0.547551 0.325047
0.421021 -0.013116 -0.086142
0.400292 -0.454606 -0.094888
0.421021 -0.381756 -0.518828
0.421021 0.238567 0.094974
0.421021 0.543437 -0.443858
0.400292 0.589419 -0.203601
0.421021 -0.45989 0.060479
0.400292 0.614111 0.110621
0.419464 0.605906 -0.529413
0.421021 -0.435041 0.319035
0.400292 -0.125961 0.201897
0.421021 -0.259916 0.301412
0.400292 0.080738 -0.402294
0.421021 0.451825 0.40086
0.421021 0.035075 -0.303668
0.421021 -0.279252 0.070358
0.421021 0.441629 -0.469984
0.400292 0.221474 0.177072
0.400292 -0.080318 0.416345
0.400292 -0.334796 0.077347
0.421021 0.183609 -0.271655
0.421021 0.419362 -0.003962
0.421021 -0.429227 -0.14608
0.400292 -0.018241 -0.201072
0.421021 0.382114 0.045155
0.420643 0.680572 -0.068109
0.400292 -0.001658 -0.418848
0.421021 -0.456987 -0.451585
0.421021 0.602026 0.417313
0.400292 -0.438065 0.189696
0.421021 0.253631 -0.36451
0.421021 -0.196667 -0.026495
0.400292 -0.265151 -0.118628
0.400292 -0.260493 -0.463416
0.400292 -0.047351 0.199798
0.400758 -0.061209 -0.529413
0.421021 0.560427 -0.096015
0.400292 0.538771 0.021068
0.400292 -0.331547 -0.204795
0.400292 0.368476 -0.21421
0.400292 0.064199 0.34635
0.421021 0.318918 0.13359
0.421021 -0.551474 0.310082
0.400292 0.546046 -0.304977
0.421021 0.102809 -0.456353
0.421021 0.243619 -0.195603
0.421021 -0.147703 -0.110148
0.400292 -0.02436 0.13342
0.400292 0.36075 -0.099691
0.400292 -0.189082 -0.282891
0.421021 -0.506676 -0.52842
0.400292 -0.506543 -0.011945
0.400292 -0.552473 -0.396
0.421021 -0.285715 0.194785
0.400292 0.085652 -0.135633
0.400292 0.587304 0.215118
0.400292 -0.356675 -0.120704
0.421021 -0.341933 -0.312108
0.400292 0.360345 0.238633
0.421021 -0.021938 0.406211
0.421021 0.44349 0.333962
0.421021 0.467974 -0.049659
0.421021 0.352778 0.318148
0.400292 0.269033 0.25914
0.421021 0.176906 -0.011553
0.400292 0.059313 0.167394
0.400292 0.349146 -0.326559
0.400292 -0.38205 -0.22886
0.400292 -0.488334 -0.190506
0.421021 0.126895 0.125136
0.421021 -0.087273 0.2324
0.421021 -0.511061 0.42004
0.400292 0.485454 0.175362
0.421021 -0.284114 0.431659
0.400292 0.142218 -0.225965
0.421021 0.532766 0.26619
0.421021 0.394933 -0.527528
0.40254 0.205364 -0.529413
0.400292 0.648565 -0.319232
0.421021 -0.250052 -0.353441
0.421021 0.038147 -0.205458
0.400292 0.259488 0.366758
0.400292 0.46159 -0.266697
0.421021 0.422849 -0.300453
0.421021 -0.35607 -0.426036
0.400292 0.163208 -0.167361
0.400292 0.400739 -0.132776
0.421021 0.491578 -0.442664
0.400292 0.090374 -0.226197
0.400292 0.282868 0.313855
0.405868 0.680572 0.087257
0.400292 0.160441 0.396565
0.421021 0.261905 -0.447646
0.421021 0.072433 -0.026342
0.400292 0.636593 -0.224024
0.400292 -0.451138 0.363112
0.400292 0.647525 -0.398407
0.421021 0.239637 -0.252895
0.421021 0.16546 -0.455941
0.421021 0.178118 0.193696
0.400292 -0.551722 0.245348
0.421021 0.53578 0.163571
0.400292 -0.280746 -0.524572
0.400292 0.182873 -0.381262
0.421021 -0.083956 0.297802
0.421021 0.027777 0.062611
0.400292 0.678268 0.324585
0.400292 -0.320222 -0.034034
0.421021 -0.252302 0.02831
0.400292 -0.416085 0.025898
0.421021 0.63261 0.034603
0.421021 -0.408804 -0.323989
0.400292 -0.557708 0.091851
0.421021 0.059851 -0.259332
0.421021 0.51009 -0.262335
0.421021 0.145683 -0.066387
0.421021 0.555486 -0.496191
0.421021 -0.08927 -0.157179
0.400292 -0.003186 0.015367
0.421021 -0.30553 0.352833
0.421021 -0.493341 0.096651
0.400292 0.410802 0.237687
0.400292 0.548927 -0.354029
0.421021 0.256433 -0.053326
0.400292 0.127771 0.223468
0.421021 -0.006224 0.229384
0.421021 -0.334391 0.189236
0.421021 -0.11648 0.127615
0.421021 0.106002 0.024292
0.400292 0.324238 -0.185868
0.421021 -0.196944 0.26936
0.400292 -0.052648 0.029803
0.421021 0.503729 0.432983
0.421021 -0.530329 -0.169193
0.400292 -0.416035 -0.409604
0.400292 -0.006855 -0.31723
0.400292 -0.119895 -0.211059
0.421021 -0.504636 -0.095008
0.421021 0.392537 -0.393024
0.400292 0.480545 0.24511
0.421021 0.184888 -0.093248
0.400292 -0.065021 0.104378
0.421021 -0.500387 0.029929
0.400292 0.064278 0.41446
0.421021 -0.200921 0.371712
0.400292 -0.341336 -0.46537
0.404734 0.680572 0.035915
0.421021 0.198507 0.280095
0.400292 -0.393843 0.311797
0.400292 -0.194121 -0.379268
0.400292 0.317286 0.077913
0.421021 0.325622 -0.270184
0.421021 -0.025583 -0.452385
0.421021 0.484647 -0.179593
0.400292 -0.013184 0.359684
0.421021 -0.421713 -0.496043
0.400292 -0.47348 -0.046981
0.421021 -0.194546 0.114022
0.421021 0.617548 -0.485084
0.421021 -0.183681 -0.159336
0.400292 -0.280442 0.126615
0.400292 0.245155 0.138079
0.421021 -0.329567 -0.381448
0.400292 0.076444 -0.304759
0.411793 0.680572 -0.22657
0.400292 -0.215672 -0.45606
0.421021 0.540672 -0.212333
0.421021 0.54409 0.110197
0.421021 0.214937 -0.470889
0.400292 -0.226242 -0.232147
0.421021 0.200059 0.061742
0.421021 -0.24396 -0.085035
0.421021 0.308251 0.219816
0.421021 0.574001 -0.030375
0.400292 0.247937 -0.096695
0.421021 -0.535131 0.059042
0.421021 -0.413503 0.159318
0.400292 -0.049501 -0.244231
0.421021 -0.484847 -0.247218
0.421021 0.300416 -0.047893
0.400292 0.408042 0.101739
0.400292 -0.560204 0.418616
0.421021 -0.47681 -0.490924
0.400292 0.597508 -0.249788
0.421021 -0.545288 -0.477284
0.421021 -0.157171 0.346579
0.421021 -0.160374 0.047504
0.421021 0.378451 -0.48704
0.421021 -0.484532 0.17172
0.400292 -0.367569 0.402886
0.421021 -0.424286 -0.056227
0.421021 0.343059 -0.422388
0.400292 -0.09645 -0.431581
0.400292 -0.048945 -0.070743
0.400292 0.405537 -0.251191
0.421021 -0.546886 -0.349825
0.421021 0.288484 0.391178
0.400292 0.133067 -0.315742
0.400292 0.418693 0.035484
0.400292 -0.415557 -0.191988
0.400292 -0.011064 0.307566
0.400292 0.20946 -0.347587
0.400292 0.327303 -0.127488
0.400292 0.498791 -0.340877
0.400292 -0.315071 -0.136005
0.400292 0.634587 0.363671
0.421021 0.251704 0.292269
0.421021 0.01577 0.333953
0.421021 -0.287009 -0.269292
0.421021 0.449982 -0.112851
0.400292 -0.419061 0.118193
0.400292 0.023769 -0.072447
0.400292 -0.252088 0.337688
0.400292 -0.347148 0.350577
0.421021 0.176926 0.363502
0.400292 0.1171 -0.493621
0.400292 0.594417 -0.445141
0.400292 0.292512 -0.408306
0.400292 0.379195 0.418817
0.400292 0.525949 -0.119405
0.400292 0.08886 0.121148
0.400292 -0.088135 -0.00087
0.421021 -0.088475 -0.250525
0.421021 0.528086 0.368069
0.400292 0.614672 -0.290355
0.400292 -0.079256 -0.388105
0.400292 -0.415964 -0.11227
0.400292 -0.135729 0.428872
0.400292 -0.134591 -0.367672
0.421021 -0.528367 0.17378
0.400292 0.351156 0.388017
0.400292 0.285078 -0.264587
0.421021 0.044832 0.200446
0.421021 0.006685 0.268868
0.421021 -0.008111 -0.277711
0.421021 -0.085692 -0.310376
0.400292 0.398644 0.198023
0.421021 -0.369905 -0.046808
0.421021 -0.089041 0.191106
0.421021 0.492447 0.39325
0.400292 0.616889 0.324835
0.400292 0.00294 -0.493132
0.421021 0.123231 0.263949
0.400292 -0.289278 -0.0068
0.421021 0.301647 0.012134
0.409373 0.520813 -0.529413
0.400292 0.507002 0.290061
0.410451 0.680572 -0.419874
0.421021 -0.475006 0.249382
0.400292 -0.26857 -0.419249
0.421021 0.218915 -0.386934
0.421021 -0.373488 -0.479086
0.421021 -0.145341 -0.02282
0.421021 -0.191455 -0.076537
0.400292 -0.157871 -0.196805
0.421021 0.676436 0.411364
0.400292 0.044634 -0.120086
0.400292 0.06772 -0.187218
0.400292 0.355039 0.28354
0.400292 -0.18607 0.080411
0.421021 -0.414909 -0.016241
0.421021 0.233095 -0.020441
0.421021 0.431665 0.292573
0.400292 0.214514 -0.176023
0.405392 0.045306 -0.529413
0.419252 0.680572 -0.304262
0.400292 0.18343 0.095305
0.400292 -0.393707 0.243304
0.400292 -0.337422 0.269132
0.400292 0.278737 -0.480557
0.400292 0.577014 -0.066218
0.421021 0.617703 0.199776
0.400292 0.596331 0.038274
0.421021 -0.28176 -0.377535
0.421021 0.087344 0.371035
0.400292 0.336566 0.201486
0.421021 0.372543 0.137534
0.400292 0.555186 -0.405161
0.400292 -0.372977 -0.299143
0.400292 -0.533764 -0.133059
0.421021 0.463207 0.116773
0.421021 -0.221818 0.209668
0.421021 0.050722 -0.417268
0.421021 0.340035 -0.4617
0.421021 -0.160435 -0.300328
0.400292 -0.482395 0.396467
0.421021 -0.308455 -0.458975
0.406775 0.291873 -0.529413
0.400292 0.133365 0.092339
0.400292 -0.561814 -0.021093
0.421021 0.332642 0.047051
0.400292 0.12628 -0.1514
0.421021 0.065149 -0.358043
0.421021 0.066224 0.286783
0.400292 0.449436 -0.077217
0.421021 -0.509361 -0.301627
0.421021 0.493989 0.031764
0.400292 -0.223211 0.006884
0.400292 -0.19405 0.155002
0.421021 0.636013 -0.114581
0.421021 0.286158 -0.131041
0.421021 0.404591 -0.165645
0.421021 -0.360567 -0.087279
0.421021 0.289115 0.10568
0.400292 -0.351737 0.039778
0.400292 0.446829 0.366683
0.400292 -0.419511 -0.360888
0.421021 -0.387705 -0.131393
0.400292 0.507671 -0.067252
0.413848 0.680572 -0.487017
0.421021 0.479822 -0.523088
0.421021 -0.518571 0.253646
0.421021 -0.462849 -0.167077
0.400292 -0.367293 0.099852
0.421021 0.417712 0.419421
0.400292 0.653798 -0.049133
0.421021 -0.385053 -0.399605
0.421021 -0.269443 -0.196711
0.400292 0.077273 -0.49371
0.421021 -0.125517 0.166621
0.421021 0.56253 -0.168122
0.421021 0.030648 0.015242
0.400292 0.257953 -0.224521
0.421021 0.008217 -0.118015
0.421021 -0.135067 -0.473884
0.421021 0.312252 0.171854
0.421021 0.131323 0.30834
0.400292 -0.151604 -0.262277
0.400292 0.389076 -0.307576
0.421021 0.390322 0.325015
0.421021 0.164959 0.030983
0.400292 -0.069167 0.258702
0.421021 0.515352 -0.313198
0.421021 0.631359 0.250001
0.421021 0.385403 -0.030633
0.421021 -0.016697 -0.015302
0.421021 0.262598 -0.327679
0.421021 0.161402 -0.199036
0.400292 -0.469642 0.213612
0.421021 0.094552 0.197299
0.421021 0.374466 0.008155
0.400292 -0.454653 0.09157
0.421021 0.481377 -0.406359
0.421021 0.581674 0.305441
0.400292 0.359942 -0.529224
0.400292 0.185516 0.22423
0.421021 0.625762 -0.175873
0.400292 -0.268067 0.162125
0.400292 0.328501 -0.027202
0.421021 -0.50833 -0.466141
0.421021 -0.390173 0.424541
0.400292 -0.040011 -0.390338
0.400292 0.479375 0.321611
0.421021 -0.285438 0.27405
0.400292 0.674397 -0.185097
0.421021 -0.010654 -0.168327
0.421021 -0.321424 0.430525
0.421021 0.675141 0.172195
0.400292 0.574984 0.096742
0.421021 0.614279 0.079612
0.421021 0.3154 -0.351462
0.400292 0.008009 0.413883
0.421021 0.258194 -0.410674
0.400292 -0.047038 0.296182
0.421021 0.462436 -0.236023
0.421021 0.046612 -0.492563
0.400292 -0.216481 -0.307793
0.400292 -0.535572 0.010975
0.400292 0.244627 0.407881
0.400292 -0.058256 -0.449706
0.400292 0.136308 -0.446664
0.400292 0.404723 -0.461161
0.421021 0.584329 -0.362147
0.421021 0.323559 -0.096187
0.400292 -0.535074 -0.092983
0.421021 -0.402021 0.19601
0.421021 0.501103 -0.146661
0.421021 0.41526 0.172545
0.421021 -0.207649 -0.256197
0.400292 -0.53543 -0.428607
0.421021 -0.226049 -0.052935
0.400292 -0.453861 -0.406473
0.421021 0.063842 0.053469
0.421021 0.2943 -0.181046
0.400292 0.550629 0.213087
0.421021 0.247178 0.013408
0.400292 0.179015 0.328018
0.400292 -0.23723 0.142316
0.421021 0.122012 0.057152
0.400292 0.584583 0.132136
0.421021 0.659547 0.061525
0.400292 0.357031 0.064574
0.421021 -0.387652 -0.258336
0.421021 0.027587 0.160895
0.400292 0.573173 0.371651
0.421021 -0.211103 0.062673
0.400292 -0.185133 -0.418977
0.400292 -0.216729 0.345945
0.400292 -0.527389 0.395108
0.421021 0.110703 -0.076003
0.400292 0.282549 -0.371543
0.421021 0.352687 -0.239392
0.400292 -0.459629 0.302369
0.400292 0.179486 -0.41831
0.400292 -0.079475 0.343158
0.400292 0.3809 -0.05994
0.421021 0.627233 -0.376824
0.421021 -0.2973 -0.110941
0.400292 0.128872 0.429816
0.400292 0.484413 -0.374024
0.421021 -0.0229 0.096093
0.412278 -0.026682 -0.529413
0.421021 -0.215629 -0.486958
0.400292 0.108103 0.342881
0.400292 0.185938 -0.320338
0.400292 0.57264 -0.279784
0.421021 0.650429 0.315338
0.421021 -0.110749 0.082216
0.400292 0.047822 -0.010527
0.421021 -0.253078 -0.492011
0.421021 -0.441132 0.219807
0.421021 -0.415342 0.375672
0.400292 -0.227778 0.271909
0.421021 0.266771 0.338053
0.400292 0.210551 -0.260871
0.400292 0.454214 -0.191656
0.421021 -0.159198 0.109587
0.400292 0.476348 0.091015
0.421021 0.439267 0.242752
0.421021 0.252023 -0.287387
0.400292 -0.443527 -0.306028
0.400292 -0.25913 0.404288
0.421021 0.532786 0.076588
0.400292 -0.446996 -0.482445
0.421021 -0.312407 0.095273
0.421021 -0.020012 0.17539
0.421021 0.455599 -0.350648
0.400292 0.512311 -0.462327
0.421021 -0.354187 0.000449
0.400292 -0.562662 -0.238263
0.421021 -0.149336 0.218101
0.400292 -0.000647 -0.351829
0.421021 0.139587 0.377307
0.421021 -0.089842 -0.527478
0.400292 -0.285856 0.328009
0.400292 -0.28418 -0.489275
0.400292 0.163373 -0.036377
0.400292 -0.119068 0.244932
0.421021 -0.549395 -0.311
0.421021 0.375344 0.214759
0.400292 0.368818 -0.411023
0.400292 -0.315376 -0.268545
0.421021 -0.272639 0.22716
0.400292 -0.053094 -0.16818
0.400292 0.393153 -0.347441
0.421021 0.444997 0.019662
0.421021 0.536546 -0.07064
0.421021 -0.126394 -0.2382
0.400292 0.268057 0.082805
0.400292 0.362358 0.354821
0.421021 -0.105754 -0.066721
0.405858 0.680572 -0.135617
0.421021 -0.113712 -0.386672
0.400292 0.018065 -0.17597
0.421021 -0.523454 0.363139
0.400292 0.228399 0.058811
0.400292 -0.482304 -0.283008
0.421021 -0.521438 0.288167
0.421021 -0.242229 -0.254753
0.400292 -0.285225 -0.041143
0.400292 -0.227974 -0.372369
0.421021 0.265642 0.202825
0.400292 -0.55512 0.279635
0.400292 0.57836 -0.515341
0.421021 0.463331 0.151205
0.421021 -0.064286 0.372391
0.421021 0.315016 -0.49603
0.421021 -0.076229 -0.125439
0.421021 -0.240589 -0.130536
0.400292 0.397611 -0.192534
0.400292 0.053674 -0.333285
0.400292 -0.355964 -0.510024
0.400292 -0.158978 -0.340588
0.400292 0.078122 -0.445003
0.421021 -0.010907 -0.049215
0.400292 -0.359626 0.24121
0.400292 -0.181703 0.005781
0.421021 -0.025382 0.030855
0.421021 0.154893 -0.253296
0.400292 -0.411038 0.341118
0.400292 -0.474914 0.008558
0.400292 0.026509 0.358583
0.421021 -0.378785 -0.202166
0.421021 -0.093744 0.032896
0.400292 0.192361 -0.118992
0.400292 0.152339 -0.364009
0.400292 -0.418874 -0.522584
0.400292 -0.484643 -0.376118
0.400292 0.162486 -0.296114
0.400292 0.009137 0.086469
0.421021 0.569466 0.19449
0.421021 0.060225 0.103982
0.400292 -0.040325 -0.319284
0.400292 -0.550964 -0.506247
0.421021 0.192561 -0.161475
0.421021 -0.308523 0.054192
0.400292 -0.265818 -0.170782
0.400292 0.177399 -0.511309
0.421021 -0.385508 0.01627
0.421021 0.37443 -0.180458
0.400292 -0.368551 0.167343
0.400292 -0.518192 0.088705
0.400292 0.238488 -0.528874
0.400292 0.6145 -0.100128
0.421021 -0.515895 -0.334074
0.421021 -0.284571 0.021047
0.400292 0.183964 0.013166
0.421021 0.392476 0.255714
0.421021 -0.025506 -0.235059
0.400292 -0.29461 -0.312551
0.421021 0.100373 0.144642
0.400292 0.008701 0.143748
0.421021 0.210035 0.201192
0.421021 -0.347776 0.292326
0.421021 0.154274 0.24292
0.421021 -0.472361 -0.345005
0.400292 0.326364 0.237566
0.421021 -0.526507 -0.393831
0.421021 -0.347242 -0.224675
0.400292 0.414601 -0.094601
0.400292 0.216024 0.106389
0.421021 0.563895 0.348168
0.400292 0.092589 0.059663
0.421021 -0.360486 0.075561
0.421021 0.101481 -0.301853
0.400292 0.508851 -0.186471
0.421021 -0.063783 0.170502
0.400292 0.426994 -0.046706
0.421021 -0.349213 0.375626
0.421021 0.320925 -0.151798
0.421021 -0.478914 -0.071502
0.419428 -0.563195 0.348878
0.400292 0.521698 0.238269
0.421021 -0.406829 0.264865
0.421021 -0.496666 0.141603
0.421021 0.677442 0.116331
0.400292 -0.429186 0.071457
0.400292 -0.299719 -0.210926
0.421021 0.622241 0.141033
0.421021 0.56092 0.009811
0.400292 0.596725 -0.040389
0.421021 0.656937 -0.202746
0.421021 0.133095 0.199252
0.400292 -0.318983 -0.527287
0.421021 0.500568 0.334421
0.400292 0.491327 -0.039412
0.400292 0.036034 -0.385783
0.421021 0.67625 -0.099977
0.421021 0.586666 -0.415576
0.421021 0.014181 -0.400052
0.400292 0.256848 -0.14926
0.421021 0.64835 0.395788
0.421021 0.102003 -0.117385
0.421021 -0.195819 0.235197
0.421021 -0.158657 -0.522688
0.421021 -0.11647 -0.17613
0.421021 -0.172741 -0.446373
0.421021 0.233654 0.343977
0.400292 0.327786 -0.059173
0.400292 0.400072 -0.417699
0.400292 -0.481374 0.342293
0.421021 0.080477 -0.329509
0.421021 0.429596 -0.440534
0.421021 0.320238 0.390237
0.400292 0.564879 0.04334
0.421021 0.180086 0.410428
0.400292 0.598309 0.185341
0.400292 -0.205236 0.184672
0.421021 0.395325 -0.21641
0.421021 -0.290478 0.153592
0.400292 -0.05321 -0.204006
0.400292 0.409887 -0.375601
0.421021 0.182519 -0.050703
0.421021 0.151522 0.170993
0.421021 -0.374122 0.325142
0.421021 -0.283544 -0.437758
0.421021 -0.154471 -0.140975
0.400292 -0.403631 -0.162849
0.400292 -0.192919 -0.049827
0.400292 -0.404355 0.405672
0.400292 0.482638 -0.290011
0.421021 0.071542 -0.210441
0.421021 -0.47072 -0.422872
0.400292 0.441076 -0.012917
0.400292 0.015797 -0.463821
0.421021 0.563794 0.411802
0.400292 -0.178329 -0.095934
0.421021 0.216035 -0.090813
0.421021 -0.229136 0.295243
0.421021 -0.366575 -0.340994
0.400292 -0.477119 0.12792
0.421021 0.041963 0.420989
0.421021 0.016057 -0.333745
0.400292 -0.456467 -0.198552
0.421021 0.571787 -0.218721
0.400292 0.203023 0.256
0.400292 -0.349483 -0.39326
0.400292 -0.335049 -0.173924
0.421021 0.63724 0.003913
0.421021 0.158113 0.08559
0.421021 0.424074 -0.513786
0.400292 0.08044 -0.00475
0.400292 -0.439454 0.154146
0.400292 0.352016 -0.488419
0.421021 -0.395606 -0.295411
0.421021 -0.114556 -0.020013
0.400292 0.552868 -0.139601
0.421021 0.288547 0.247172
0.421021 -0.351643 0.419286
0.421021 -0.513599 -0.365804
0.400292 -0.198549 -0.196037
0.400292 0.548857 -0.191128
0.421021 -0.410684 0.29537
0.400292 -0.495966 -0.319945
0.421021 -0.347622 0.124225
0.421021 0.462378 0.053051
0.400292 -0.483028 -0.526425
0.421021 -0.110107 0.351262
0.421021 0.493285 -0.006461
0.421021 -0.02887 -0.482867
0.421021 -0.233056 -0.327932
0.400292 0.058554 0.229369
0.400292 -0.551936 -0.175671
0.400292 0.227205 -0.500408
0.400292 0.166109 0.133886
0.400292 -0.264518 -0.269236
0.421021 -0.483365 -0.019788
0.421021 0.532453 0.046074
0.421021 0.533842 -0.411927
0.400292 -0.327528 -0.329212
0.400292 -0.210162 -0.529008
0.421021 -0.249269 -0.430488
0.400292 0.097035 0.175113
0.400292 0.599393 0.291886
0.400292 0.462761 -0.477129
0.421021 -0.110278 -0.449066
0.421021 -0.361164 -0.280278
0.400292 -0.197043 0.295676
0.400292 -0.289032 0.252116
0.400292 -0.1051 0.290959
0.421021 -0.120529 0.409743
0.400292 0.356388 -0.009351
0.400292 -0.052656 0.233202
0.400292 -0.355652 -0.151063
0.400292 0.162246 0.298109
0.421021 -0.529793 0.208404
0.421021 -0.133959 0.062467
0.400292 0.31954 -0.394487
0.421021 -0.476357 -0.209094
0.421021 0.514216 -0.038523
0.400292 0.200811 0.303058
0.421021 0.284228 0.291807
0.400292 -0.485158 0.076139
0.400292 -0.319065 0.173363
0.400292 -0.184849 0.356613
0.421021 0.100091 -0.365736
0.400292 -0.265942 -0.084659
0.421021 0.432842 0.116688
0.400292 0.297214 0.13695
0.421021 0.291213 -0.434591
0.400292 0.074454 -0.10766
0.421021 0.629084 -0.306793
0.400292 0.191659 0.391924
0.421021 -0.257389 -0.004532
0.400292 -0.447106 -0.13369
0.400292 -0.504988 -0.444666
0.400292 -0.080028 -0.358091
0.400292 0.03141 0.041217
0.400292 0.339397 0.126418
0.400292 -0.435312 -0.450832
0.400292 -0.151695 -0.226161
0.421021 0.320809 0.099302
0.421021 0.434296 -0.169591
0.400292 0.546246 0.18245
0.421021 -0.021126 -0.3334
0.400292 0.678572 -0.254105
0.400292 -0.507754 0.304909
0.400292 0.115937 -0.099964
0.400292 0.10611 -0.034292
0.421021 0.203286 0.004091
0.400292 -0.235352 -0.275109
0.400292 0.156634 -0.004888
0.421021 -0.031165 0.314683
0.421021 -0.461428 0.275839
0.421021 -0.107485 -0.104962
0.421021 0.363915 0.263946
0.400292 0.116205 -0.40769
0.400292 0.51271 0.144109
0.400292 0.308105 0.329507
0.400292 -0.251616 0.186839
0.421021 0.407883 -0.483144
0.421021 -0.410402 -0.212605
0.421021 0.085203 0.263961
0.400292 -0.312729 0.11723
0.400292 0.419591 0.354928
0.400292 -0.320517 0.367806
0.400292 0.390633 -0.005519
0.400292 0.612736 -0.131703
0.421021 -0.154902 -0.361745
0.400292 0.065182 -0.057118
0.400292 0.053301 -0.286343
0.421021 0.077755 0.330197
0.400292 0.185934 0.174139
0.421021 0.150743 -0.499907
0.421021 0.57196 -0.300795
0.421021 0.650325 -0.50527
0.400292 0.143944 0.030842
0.400292 0.404512 -0.280669
0.421021 0.502176 0.245904
0.421021 0.16681 -0.394655
0.400292 0.58064 -0.101212
0.421021 -0.026326 -0.117376
0.421021 0.131118 -0.130115
0.421021 0.355927 0.085344
0.421021 0.189944 -0.361745
0.421021 -0.420592 -0.259238
0.400292 0.403081 0.060311
0.400292 0.571663 -0.335534
0.400292 0.225307 -0.286193
0.400292 0.550626 0.14914
0.421021 0.240774 0.18737
0.421021 0.225073 0.133187
0.421021 -0.496437 0.27297
0.400292 0.012262 0.212089
0.400292 0.376454 -0.248336
0.400292 -0.292875 0.088828
0.421021 0.341819 0.354685
0.421021 -0.49823 -0.172533
0.421021 0.518345 0.30713
0.421021 -0.106739 -0.503751
0.400292 0.647737 -0.013632
0.400292 0.525931 -0.249411
0.421021 0.262583 0.117641
0.421021 0.213435 -0.210251
0.400292 -0.324819 -0.233099
0.421021 -0.510232 -0.233014
0.400292 0.01527 -0.145589
0.421021 -0.561829 -0.045654
0.400292 -0.36837 -0.442298
0.400292 -0.489396 -0.120514
0.400292 0.471911 -0.44799
0.400292 -0.444104 -0.051553
0.400292 -0.262336 0.096892
0.421021 -0.411871 -0.388566
0.421021 0.279158 -0.209839
0.421021 -0.336414 -0.120518
0.421021 -0.437182 -0.180517
0.421021 -0.053427 -0.09963
0.400292 -0.212262 0.246955
0.421021 0.103472 0.316228
0.400292 -0.241916 -0.150695
0.400292 0.280252 0.221405
0.400292 0.157491 0.425674
0.400292 0.61438 -0.505395
0.421021 -0.507182 -0.265534
0.421021 0.067131 -0.387506
0.400292 -0.269062 0.362555
0.421021 0.590518 -0.46484
0.421021 0.045597 0.31404
0.400292 -0.086367 -0.270443
0.421021 -0.344247 -0.063551
0.421021 0.656111 -0.238643
0.400292 -0.181725 -0.139464
0.400292 -0.42001 -0.078116
0.421021 -0.40088 0.133482
0.400292 0.138361 -0.519964
0.400292 -0.038888 0.395967
0.421021 0.075028 0.397827
0.421021 -0.256957 0.140988
0.421021 -0.348718 -0.195014
0.421021 0.260223 -0.118972
0.421021 0.446685 -0.322989
0.400292 0.121374 -0.289653
0.400292 -0.500029 0.247117
0.400292 -0.234435 -0.200654
0.400292 -0.550648 0.039121
0.421021 -0.332614 -0.018824
0.400292 0.516409 0.113097
0.400292 -0.046578 0.151296
0.421021 -0.043127 0.116191
0.400292 -0.08506 0.08296
0.400292 -0.232395 0.314512
0.421021 0.114841 0.098416
0.421021 0.297834 0.077328
0.421021 0.241365 0.252408
0.400292 -0.240514 -0.39786
0.421021 -0.404375 0.224309
0.421021 0.496402 0.159345
0.400292 -0.111907 -0.29185
0.421021 0.290634 -0.462967
0.400292 0.663301 0.348696
0.400292 0.230536 -0.041007
0.400292 0.059167 -0.145805
0.421021 0.453126 -0.49592
0.400292 -0.224658 -0.08632
0.421021 0.345129 -0.349008
0.421021 0.471442 -0.078485
0.421021 0.484488 -0.470102
0.400292 0.355628 -0.450293
0.421021 0.170756 -0.143408
0.400292 -0.286747 -0.136883
0.421021 0.141231 -0.278031
0.421021 0.111549 -0.426296
0.421021 0.237402 -0.340415
0.400292 0.562804 -0.01491
0.400292 -0.262708 -0.378512
0.400292 0.488179 0.418042
0.401529 0.680572 0.221586
0.400292 -0.103443 0.381674
0.400292 0.050645 -0.43904
0.400292 -0.140404 -0.288066
0.400292 0.040532 -0.260967
0.421021 0.64445 0.342755
0.421021 -0.471956 0.02723
0.400292 0.214063 -0.444044
0.421021 0.147484 0.283412
0.400292 0.452901 0.284156
0.400292 0.535116 0.284906
0.400292 0.309267 -0.293833
0.421021 -0.054445 0.076185
0.400292 0.570929 -0.42987
0.421021 -0.063651 0.276719
0.400292 0.23515 -0.368172
0.400292 0.542924 -0.089062
0.421021 0.402074 -0.330879
0.400292 0.495234 -0.512304
0.400292 0.640112 -0.073541
0.421021 -0.233748 0.085361
0.400292 0.628551 -0.469882
0.400292 0.427443 -0.124514
0.400292 -0.451426 0.043749
0.421021 0.162591 0.316846
0.400292 -0.32859 0.238547
0.421021 -0.050557 -0.222515
0.400292 -0.016007 -0.067672
0.421021 0.559508 -0.466669
0.421021 -0.23444 -0.020391
0.421021 -0.355715 -0.371749
0.400292 0.260355 -0.388424
0.421021 -0.287423 0.374037
0.421021 0.030359 -0.089885
0.421021 -0.263671 -0.041186
0.421021 -0.552638 -0.421503
0.421021 0.107254 0.418837
0.421021 -0.198887 -0.464031
0.421021 0.38786 0.356381
0.400292 0.356498 -0.175836
0.400292 -0.336845 0.009639
0.400292 0.527136 -0.435147
0.421021 -0.531512 0.108373
0.400292 0.505892 0.380593
0.421021 0.124952 0.335401
0.421021 0.610859 0.379771
0.400292 -0.372602 0.292588
0.421021 0.090352 -0.153398
0.421021 0.224292 -0.061631
0.421021 0.207537 0.334827
0.400292 0.101903 -0.253446
0.421021 -0.219342 0.420585
0.421021 -0.440664 0.103243
0.421021 0.126274 -0.24792
0.421021 0.530111 0.005078
0.400292 0.466127 -0.335826
0.421021 0.469855 -0.202857
0.421021 0.1339 -0.197222
0.400292 0.136178 -0.386334
0.400292 -0.458589 -0.22734
0.400292 -0.249391 -0.509768
0.421021 0.131629 0.004317
0.400292 0.352878 -0.286163
0.400292 0.482473 -0.161607
0.421021 -0.168306 0.376716
0.400292 0.41833 -0.153894
0.400292 0.306527 0.401969
0.421021 0.046666 0.342097
0.400292 0.025457 -0.508877
0.400292 0.335342 -0.244331
0.421021 -0.128006 -0.133599
0.421021 0.371977 -0.313215
0.400292 -0.222609 -0.115085
0.400956 0.680572 -0.324707
0.400292 0.477206 0.038143
0.421021 -0.242899 0.258864
0.421021 0.448796 -0.030074
0.421021 -0.195516 0.01722
0.421021 -0.013131 0.202859
0.421021 -0.116065 0.216829
0.400292 -0.535469 -0.241449
0.421021 -0.20858 -0.291747
0.400292 0.232122 0.361795
0.421021 0.490638 0.306605
0.421021 -0.457524 -0.247883
0.400292 -0.297234 -0.244196
0.421021 -0.320951 -0.184776
0.400292 -0.264044 0.263148
0.421021 0.361564 0.373552
0.421021 -0.546889 0.406855
0.421021 0.012265 -0.429846
0.421021 0.281867 0.175114
0.400292 0.675961 -0.463822
0.421021 0.612105 -0.031652
0.421021 0.325128 -0.001685
0.421021 -0.014599 0.377307
0.400292 -0.119959 0.11029
0.421021 0.19838 0.105476
0.400292 -0.33744 -0.28451
0.400292 -0.459032 -0.361591
0.400292 0.005906 0.38675
0.421021 0.387981 0.163794
0.400292 -0.553823 -0.202918
0.421021 0.607839 0.225087
0.421021 0.337435 0.219018
0.400292 0.18935 -0.028446
0.421021 -0.484805 0.42698
0.421021 -0.148432 0.00416
0.400292 -0.481602 0.188986
0.421021 -0.047231 0.415999
0.421021 -0.143256 -0.083396
0.421021 -0.175007 0.253415
0.400292 -0.291318 0.057061
0.400292 0.127735 0.280796
0.400292 -0.093763 -0.173989
0.421021 0.64458 0.225583
0.400292 0.169315 -0.243579
0.400292 -0.310857 -0.096192
0.400292 -0.107004 -0.521127
0.400292 -0.058869 -0.126109
0.400292 0.606554 -0.41467
0.400292 0.098205 0.433639
0.421021 0.312573 -0.378339
0.400292 -0.442621 -0.27902
0.421021 0.285868 0.363829
0.421021 -0.53374 -0.028802
0.400292 -0.534586 0.30201
0.400292 0.260652 0.182011
0.400292 0.48918 -0.42556
0.421021 -0.46394 0.197322
0.400292 -0.528579 0.191032
0.421021 -0.120455 0.278368
0.400292 -0.275029 0.035393
0.421021 0.199244 -0.135368
0.400292 -0.399127 0.051253
0.421021 0.325571 0.330304
0.400292 -0.142447 0.037027
0.421021 0.426952 0.390629
0.421021 0.619402 -0.273899
0.400292 -0.308129 0.029736
0.400292 -0.130151 -0.013093
0.421021 0.344195 -0.503571
0.404396 0.680572 -0.281924
0.421021 0.369256 -0.51499
0.421021 -0.16958 -0.184467
0.400292 0.092277 0.219972
0.400292 -0.427597 0.23002
0.421021 -0.092251 0.258699
0.400292 -0.245437 -0.316399
0.400292 0.445221 -0.449804
0.400292 0.461743 0.344477
0.400292 0.409773 0.404514
0.421021 0.567435 -0.13106
0.400292 -0.437465 -0.16365
0.421021 0.561283 0.28817
0.421021 0.469717 0.195376
0.400292 0.119224 0.367153
0.421021 0.23028 -0.16151
0.400292 -0.011657 -0.25415
0.421021 -0.430893 0.397359
0.421021 -0.451802 -0.111443
0.421021 -0.429108 0.006324
0.400292 0.463653 -0.099763
0.400292 -0.389259 0.08226
0.421021 -0.466187 -0.278647
0.400292 -0.008519 -0.453001
0.421021 -0.432654 0.277703
0.400292 0.424712 0.186293
0.400292 -0.317314 -0.060478
0.421021 -0.387999 0.173409
0.400292 0.376909 0.024592
0.421021 0.467574 -0.283001
0.421021 -0.289473 -0.328343
0.421021 -0.037145 -0.053341
0.421021 0.654735 -0.421908
0.400292 -0.541153 0.220503
0.400292 -0.032685 0.250698
0.421021 0.536468 -0.141799
0.400292 0.282572 -0.114888
0.421021 0.548188 -0.321372
0.400292 -0.084135 -0.455346
0.421021 -0.293207 -0.412475
0.421021 0.405915 0.118055
0.400292 -0.562125 -0.356012
0.421021 -0.432877 -0.334949
0.400292 0.623015 0.02128
0.421021 -0.430843 0.129623
0.421021 0.282635 -0.509145
0.400292 -0.135567 0.343721
0.421021 -0.052261 -0.379458
0.400292 0.510278 0.033467
0.421021 -0.557429 0.230049
0.400292 -0.091003 -0.334097
0.421021 0.024261 -0.279618
0.400292 -0.233495 -0.434487
0.421021 -0.270302 -0.103214
0.421021 0.273428 0.015482
0.421021 0.032258 -0.015061
0.421021 -0.059703 0.015237
0.400292 0.648332 -0.126811
0.400292 -0.241971 0.365166
0.421021 -0.400999 -0.038537
0.400292 -0.480859 0.268766
0.421021 0.655086 0.1301
0.400292 0.263162 -0.180517
0.400292 0.380274 0.312452
0.400292 0.676371 0.195718
0.421021 -0.061657 0.219885
0.400292 0.017132 0.256703
0.421021 -0.491348 -0.044688
0.400292 -0.216456 0.404918
0.400292 0.643224 0.064256
0.400292 0.487187 -0.261602
0.400292 0.039787 0.275318
0.421021 0.365324 -0.084586
0.421021 -0.011662 0.124103
0.400292 -0.083463 -0.235622
0.400292 -0.463731 -0.022868
0.400292 0.074374 0.250005
0.421021 -0.228382 0.380049
0.421021 0.238841 0.223277
0.421021 0.070805 -0.122914
0.400292 -0.073177 0.385303
0.421021 -0.300004 0.321278
0.400292 -0.29199 -0.396861
0.421021 0.419246 0.209998
0.421021 0.643716 0.193762
0.400292 -0.081789 -0.106819
0.400292 0.611454 -0.217544
0.400292 0.158465 0.370683
0.421021 -0.305122 0.290921
0.400292 0.365412 0.151355
0.421021 0.421774 0.316514
0.400292 0.026457 -0.316581
0.400292 -0.449123 0.006219
0.400292 -0.324169 0.050059
0.421021 -0.095535 -0.28295
0.400292 -0.030959 -0.41458
0.421021 -0.335682 0.061907
0.421021 0.152504 0.350855
0.400292 -0.508845 -0.139955
0.421021 -0.095361 0.403852
0.421021 0.182915 0.159009
0.400292 -0.460798 -0.434675
0.421021 0.514964 -0.200625
0.400292 -0.107072 -0.366915
0.421021 0.111769 -0.048579
0.400292 0.571085 0.263463
0.400292 -0.055174 -0.037022
0.421021 -0.499198 0.004204
0.400292 0.379186 0.264482
0.421021 -0.284121 -0.22698
0.400292 0.164606 -0.129454
0.421021 0.587081 -0.188549
0.400292 -0.347427 -0.013795
0.421021 0.259641 -0.473247
0.400292 0.051376 0.392236
0.421021 -0.434817 -0.292034
0.421021 0.538412 -0.180148
0.400292 -0.143017 0.284985
0.400292 -0.449224 0.40389
0.421021 -0.182601 0.425236
0.400292 0.541608 0.125105
0.400292 -0.493037 -0.085365
0.421021 -0.360599 0.201693
0.421021 -0.350797 -0.495861
0.400292 0.50893 0.200686
0.421021 -0.005181 0.077584
0.400292 -0.294922 0.396744
0.421021 -0.107202 0.308484
0.400292 -0.415941 0.144108
0.421021 0.401378 0.385304
0.400292 0.466789 -0.221714
0.400292 0.113453 0.151884
0.409325 -0.545076 -0.529413
0.421021 -0.094421 -0.225481
0.400292 -0.352476 -0.238655
0.421021 -0.034968 0.3619
0.421021 0.210912 -0.27578
0.400292 -0.116361 -0.342676
0.400292 -0.106712 0.016624
0.400292 -0.40109 0.37159
0.421021 0.663666 -0.376007
0.421021 -0.52339 -0.509187
0.421021 -0.170722 -0.020635
0.400292 -0.270819 -0.354368
0.400292 -0.112463 -0.151145
0.400292 0.541749 -0.229505
0.421021 -0.263177 -0.515332
0.400292 -0.39475 -0.319689
0.400292 0.081286 0.154652
0.400292 0.638241 -0.280912
0.421021 0.519199 -0.288101
0.421021 -0.145649 -0.172106
0.400292 -0.518644 -0.057876
0.400292 0.349395 0.33239
0.421021 0.561309 0.380212
0.400292 0.065394 0.301388
0.400292 0.474137 0.063316
0.400292 0.529365 0.342692
0.400292 -0.348886 0.21037
0.400292 0.00206 -0.104834
0.400292 -0.035966 -0.294346
0.421021 0.53277 -0.021309
0.421021 0.09896 -0.214497
0.421021 0.043213 0.082634
0.421021 -0.134204 0.105802
0.421021 -0.135398 0.309916
0.421021 0.2934 -0.287333
0.421021 0.39686 -0.292868
0.421021 0.336463 -0.17829
0.400292 0.244871 0.266315
0.400292 0.274027 0.126274
0.421021 0.562848 0.157875
0.400292 0.552767 0.065438
0.421021 0.017395 0.296619
0.421021 -0.356212 0.255087
0.400292 0.198752 0.416078
0.400292 0.524337 0.089222
0.400292 -0.407794 -0.003904
0.400292 -0.004794 -0.29154
0.400292 -0.54544 -0.335686
0.421021 0.526156 -0.235242
0.421021 -0.166413 -0.238849
0.400292 -0.166889 0.06425
0.400292 0.250462 0.23955
0.400292 -0.057364 -0.485178
0.421021 0.291045 -0.156275
0.421021 -0.559601 0.174591
0.421021 -0.20772 -0.211873
0.421021 -0.162938 0.275235
0.421021 0.12961 0.400135
0.421021 -0.333597 -0.453924
0.421021 0.013598 0.198348
0.400292 0.671491 -0.113105
0.421021 -0.4377 0.045028
0.421021 -0.222488 0.32783
0.400292 -0.265499 0.070211
0.421021 0.084927 -0.482299
0.400292 0.206538 -0.392883
0.400292 -0.195769 -0.165852
0.421021 -0.290139 -0.475782
0.400292 -0.010025 0.335026
0.421021 0.413357 0.275761
0.400292 -0.533316 0.123391
0.400292 0.116755 0.015797
0.400292 0.16452 0.194631
0.421021 0.347446 0.115426
0.421021 0.550031 0.248403
0.421021 0.429065 -0.099553
0.400292 0.576091 -0.168003
0.400292 -0.5393 0.147487
0.400292 -0.502947 0.357148
0.421021 0.11006 -0.325075
0.421021 -0.283778 -0.019137
0.400292 -0.544485 -0.064938
0.421021 0.458963 -0.171294
0.400292 0.269459 -0.521271
0.400292 0.20573 -0.48069
0.400292 0.024886 -0.227405
0.421021 -0.285783 -0.502609
0.400292 0.305626 0.206671
0.400292 0.325023 -0.504948
0.400292 0.383186 -0.150127
0.400292 0.112916 0.073657
0.421021 -0.341922 -0.339864
0.400292 0.259428 0.326865
0.421021 0.60314 -0.382142
0.400292 -0.085061 0.12588
0.415487 -0.357163 -0.529413
0.421021 -0.302469 -0.140421
0.421021 0.079587 -0.18114
0.421021 -0.548113 -0.095669
0.400292 0.005471 0.282108
0.400292 0.342553 -0.409112
0.421021 -0.209264 -0.441707
0.400292 -0.455776 -0.327364
0.421021 0.415164 -0.129345
0.400292 0.304247 -0.249231
0.400292 -0.373722 0.261447
0.400292 -0.401563 0.164876
0.421021 -0.153654 -0.425529
0.400292 0.178345 -0.081935
0.400292 0.172746 -0.192555
0.421021 -0.018371 -0.299962
0.400292 -0.187874 0.249228
0.421021 0.484791 0.105204
0.400292 0.05442 -0.463234
0.421021 -0.4426 -0.412978
0.400292 0.08773 0.383972
0.421021 0.340091 0.256061
0.421021 -0.056415 0.317624
0.421021 0.581304 0.243962
0.400292 0.161119 0.22482
0.400292 -0.33243 0.139691
0.400292 0.088546 -0.467057
0.421021 -0.401608 -0.175542
0.421021 -0.316241 -0.33534
0.421021 0.657404 0.017602
0.421021 0.421938 0.145071
0.400292 0.043263 0.187735
0.421021 0.216073 0.033198
0.400292 0.243708 0.08193
0.421021 0.394394 -0.360156
0.400292 0.629375 -0.051692
0.400292 0.022743 -0.42258
0.421021 0.312643 0.243773
0.421021 0.402319 -0.091205
0.421021 0.53678 -0.357848
0.421021 -0.403796 -0.073023
0.421021 -0.243154 0.346715
0.400292 0.046138 -0.356353
0.421021 0.441741 -0.223353
0.421021 -0.093509 -0.187179
0.421021 -0.367537 -0.022671
0.400292 0.257826 -0.433985
0.400292 0.33371 -0.150858
0.421021 0.215996 -0.2476
0.400292 0.422368 0.300976
0.400292 -0.267901 0.215563
0.400292 -0.383704 0.349499
0.400292 -0.354017 -0.213814
0.400292 -0.312812 0.342671
0.421021 0.294251 -0.010909
0.400292 -0.341456 0.113367
0.421021 -0.173595 0.090137
0.400292 0.328087 0.41319
0.421021 0.639154 -0.355783
0.421021 -0.167905 0.307662
0.421021 -0.133248 -0.31149
0.421021 0.633788 0.093883
0.400292 0.610445 0.144919
0.403426 0.680572 -0.16197
0.400292 0.463934 0.3837
0.400292 -0.306953 0.152501
0.421021 -0.46159 0.369664
0.421021 -0.184013 0.344334
0.400292 -0.523963 0.047886
0.400292 -0.027739 0.274847
0.400292 -0.13747 -0.514281
0.421021 -0.467579 -0.136811
0.421021 -0.071998 -0.456262
0.400292 0.107434 -0.313192
0.421021 0.60922 0.273197
0.421021 0.268299 0.273848
0.421021 0.421486 -0.276494
0.400292 0.318036 0.279876
0.400292 -0.02775 -0.020183
0.421021 0.005136 0.09923
0.400292 -0.2595 0.313453
0.421021 -0.195801 0.143102
0.421021 -0.244582 0.202178
0.400292 0.057064 -0.081095
0.421021 -0.325335 -0.044875
0.400292 -0.200531 -0.08697
0.400292 -0.06245 0.067285
0.421021 0.135117 -0.458567
0.421021 -0.472673 -0.370492
0.400292 0.425022 0.006561
0.400292 0.202486 -0.505774
0.400292 -0.550342 -0.44729
0.400292 -0.027195 0.107186
0.400292 0.421166 0.159396
0.421021 -0.225162 -0.360844
0.400292 -0.452279 0.127415
0.421021 0.171284 0.29044
0.421021 -0.041013 -0.433137
0.400292 0.170657 -0.445316
0.421021 0.278608 -0.038288
0.421021 -0.217651 -0.186401
0.421021 -0.153636 -0.499416
0.421021 0.495008 0.282792
0.421021 -0.398689 0.322384
0.421021 -0.058799 -0.156998
0.421021 0.143743 -0.356209
0.400292 -0.042765 0.331969
0.421021 -0.335943 -0.089759
0.400292 0.232818 -0.144929
0.400292 0.601702 -0.46775
0.421021 0.06285 0.249236
0.400292 0.577301 0.348288
0.421021 -0.507512 -0.194365
0.400292 -0.408099 0.213391
0.400292 0.622157 -0.315958
0.421021 0.170457 -0.479094
0.421021 -0.227828 0.113554
0.400292 0.409389 -0.019914
0.421021 -0.43415 -0.239874
0.421021 0.521645 0.102783
0.400292 -0.105063 -0.492525
0.421021 0.481406 0.080858
0.421021 -0.320436 0.386987
0.400292 0.256273 -0.00905
0.400292 -0.496396 0.052672
0.400292 0.030602 -0.044032
0.421021 0.115721 -0.155283
0.421021 -0.205262 -0.377727
0.421021 0.617265 0.05622
0.400292 0.114687 0.316
0.400292 -0.149352 -0.121215
0.400292 0.188139 -0.29689
0.421021 -0.465477 0.083354
0.400292 -0.345234 -0.428687
0.400292 0.470585 -0.028289
0.421021 0.533884 -0.48685
0.400292 0.091874 0.01582
0.400292 0.480114 -0.071532
0.400292 0.50785 0.326032
0.421021 -0.292627 0.409737
0.400292 -0.171433 0.337308
0.421021 -0.466385 0.117303
0.421021 -0.269257 0.399918
0.421021 -0.498421 -0.396319
0.421021 -0.277091 0.334701
0.421021 -0.435071 -0.028261
0.404199 0.068738 -0.529413
0.400292 -0.39156 -0.141671
0.400292 0.064497 0.11409
0.400292 0.187885 0.277349
0.421021 0.371244 0.11412
0.421021 0.465999 0.30975
0.400292 0.339261 0.300853
0.400292 0.427927 0.076341
0.421021 0.248621 0.367074
0.400292 0.209303 -0.321274
0.421021 0.583025 -0.438641
0.421021 -0.414222 -0.128211
0.400292 0.369852 -0.346371
0.421021 -0.449871 -0.492743
0.421021 0.32712 -0.06984
0.421021 0.152713 -0.035629
0.400292 0.517778 -0.376436
0.400292 0.380468 -0.278002
0.421021 0.300256 0.322291
0.421021 0.474617 0.172597
0.421021 0.191301 -0.527533
0.400292 -0.502489 0.332466
0.421021 0.593356 0.194726
0.421021 -0.182318 -0.049344
0.400292 -0.412784 -0.252065
0.400292 0.195192 0.033554
0.400292 -0.03491 -0.447396
0.400292 -0.018357 -0.482169
0.400292 -0.525112 -0.324436
0.400292 0.20893 -0.227025
0.400292 0.530374 0.056332
0.400292 0.107822 -0.128759
0.400292 0.321444 0.348493
0.400292 0.30427 -0.034267
0.421021 -0.011533 -0.193137
0.421021 0.505556 0.357062
0.400292 0.261954 -0.266139
0.421021 -0.082658 -0.064848
0.400292 -0.39303 -0.491871
0.400292 0.612057 -0.077093
0.421021 0.484782 0.230613
0.400292 0.520254 0.406827
0.421021 0.231197 -0.427746
0.400292 -0.23206 0.209279
0.400292 -0.10223 -0.076339
0.400292 -0.392443 0.192386
0.421021 -0.1684 -0.093432
0.400292 0.650472 -0.171895
0.400292 0.040536 -0.161263
0.421021 -0.373152 -0.240346
0.421021 0.02379 -0.496113
0.400292 -0.298013 0.230839
0.421021 0.506513 -0.366044
0.400292 -0.559891 0.37234
0.400292 0.41074 0.132691
0.421021 0.098424 0.117811
0.421021 0.203629 -0.312907
0.421021 0.360389 -0.405446
0.400292 0.071279 -0.350011
0.400292 0.17974 -0.147996
0.421021 0.534647 -0.515158
0.421021 -0.280594 0.1166
0.400292 -0.377457 -0.09396
0.400292 0.309921 -0.423357
0.400292 0.094868 -0.51589
0.421021 0.517496 -0.437687
0.421021 -0.541068 0.276183
0.421021 -0.366953 0.109809
0.421021 0.106991 0.175353
0.400292 0.617307 -0.376649
0.400292 0.253045 0.021403
0.400292 0.234105 0.384684
0.400292 0.30017 0.298749
0.400292 0.134563 -0.011239
0.400292 -0.211051 0.323698
0.421021 0.515294 0.391
0.400292 -0.468684 -0.474942
0.400292 -0.466703 -0.303743
0.400292 -0.017864 -0.178127
0.421021 0.289986 -0.365131
0.421021 -0.39046 -0.360591
0.400292 0.583234 -0.231843
0.400292 0.642099 0.263511
0.421021 0.659735 -0.077662
0.400292 -0.293842 0.200244
0.421021 -0.266448 -0.287403
0.421021 0.223684 -0.364529
0.421021 0.169764 0.065876
0.400292 -0.554579 -0.480153
0.400292 0.083594 -0.160347
0.421021 0.014455 0.406684
0.400292 -0.358786 0.374629
0.421021 0.221769 -0.182697
0.400292 -0.082285 -0.132815
0.400292 0.465963 0.142038
0.421021 0.605789 0.100779
0.400292 -0.423598 0.322097
0.421021 0.613811 -0.119726
0.400292 0.18432 0.369399
0.421021 0.16936 -0.069288
0.400292 0.260244 0.052304
0.400292 -0.238291 -0.043232
0.421021 -0.520834 0.011271
0.400292 -0.19954 -0.440031
0.400292 0.356215 -0.056416
0.421021 0.376825 -0.239022
0.400292 0.107729 0.195165
0.400292 -0.075093 -0.196002
0.421021 0.019084 -0.034942
0.421021 -0.149666 -0.048096
0.421021 -0.438139 0.073768
0.400292 -0.086257 0.057586
0.400292 -0.169518 0.155585
0.411055 -0.399162 -0.529413
0.421021 -0.182296 -0.289099
0.400292 -0.561609 0.121595
0.421021 0.623348 -0.507285
0.421021 0.303421 0.150985
0.421021 0.365381 -0.107581
0.421021 0.335145 -0.132192
0.421021 -0.481782 0.3514
0.421021 -0.320729 -0.275904
0.421021 0.613601 0.177523
0.421021 0.16909 -0.302295
0.421021 0.396131 -0.058668
0.421021 -0.302673 -0.368941
0.400292 0.127691 0.246077
0.400292 0.249383 -0.41258
0.400292 0.143307 0.202407
0.400292 0.552372 -0.444755
0.400292 -0.506558 -0.034531
0.421021 0.457341 -0.009167
0.400292 -0.198127 -0.121099
0.400292 0.119372 -0.073774
0.400292 -0.092761 0.199227
0.421021 -0.142842 -0.263684
0.421021 0.673248 0.331888
0.400292 0.545072 -0.061656
0.421021 0.462258 -0.394437
0.421021 0.465759 -0.457579
0.421021 -0.010111 0.155154
0.400292 -0.478815 -0.24079
0.421021 -0.024753 0.008344
0.421021 0.478343 0.338
0.400292 0.50798 -0.141236
0.400292 -0.01024 -0.372178
0.421021 0.273335 -0.170143
0.400292 -0.327975 -0.447241
0.400292 -0.509824 0.121068
0.400292 -0.00175 0.123834
0.400292 0.426068 0.421921
0.421021 0.341882 0.400724
0.400292 -0.317929 -0.354673
0.400292 0.291637 0.083435
0.400292 0.580523 -0.302296
0.400292 0.578094 0.025137
0.400292 0.083811 -0.037077
0.400292 -0.498179 0.209922
0.400292 0.33423 0.373274
0.421021 -0.490677 0.398804
0.421021 0.604725 0.03638
0.414296 0.680572 0.015614
0.400292 -0.330133 -0.503909
0.421021 0.311804 -0.028567
0.400292 0.195921 0.342752
0.400292 0.419601 -0.308359
0.421021 0.23451 -0.459977
0.421021 -0.451557 0.299701
0.421021 0.173984 -0.503529
0.400292 -0.420684 -0.338518
0.421021 -0.542052 -0.371697
0.421021 -0.229913 0.027838
0.400292 0.443117 -0.279353
0.421021 0.485861 -0.25324
0.421021 0.177811 -0.114487
0.400292 0.315187 0.17977
0.421021 -0.443812 -0.516462
