-0.194289 -0.463989 -0.341429
-0.24255 -0.536844 -0.341429
0.534385 -0.463935 -0.341429
-0.462953 -0.630468 -0.341429
-0.655961 -0.424938 -0.341429
0.296225 -0.420097 -0.316301
-0.152334 -0.431347 -0.341429
-0.068198 -0.571956 -0.341429
-0.644089 -0.461402 -0.341429
0.390934 -0.56092 -0.341429
-0.35897 -0.496285 -0.341429
0.045324 -0.469332 -0.341429
0.244734 -0.434637 -0.341429
0.653197 -0.577953 -0.341429
-0.337229 -0.441566 -0.341429
0.626553 -0.535313 -0.341429
0.442959 -0.492642 -0.341429
0.101875 -0.420097 -0.340239
0.441494 -0.546763 -0.341429
-0.215235 -0.420097 -0.33338
0.389752 -0.600846 -0.341429
-0.378028 -0.576213 -0.341429
-0.105426 -0.520112 -0.341429
-0.318743 -0.46613 -0.341429
0.256495 -0.510539 -0.341429
-0.167707 -0.632813 -0.341429
0.012467 -0.497284 -0.341429
-0.382014 -0.629653 -0.341429
0.316652 -0.478616 -0.341429
-0.282086 -0.531707 -0.341429
-0.280503 -0.420097 -0.327837
0.211241 -0.482075 -0.341429
0.549707 -0.513489 -0.341429
-0.569833 -0.577501 -0.341429
0.542487 -0.600358 -0.341429
-0.140285 -0.477358 -0.341429
0.12073 -0.570182 -0.341429
0.21755 -0.568613 -0.341429
0.022064 -0.420097 -0.337743
0.315784 -0.607679 -0.341429
0.272874 -0.450621 -0.341429
0.673815 -0.627043 -0.341429
0.168233 -0.525091 -0.341429
0.655583 -0.499802 -0.341429
0.242928 -0.577875 -0.341429
-0.569077 -0.521578 -0.341429
0.137326 -0.531886 -0.341429
0.608623 -0.465307 -0.341429
0.459297 -0.589744 -0.341429
-0.635743 -0.610869 -0.341429
-0.387949 -0.494155 -0.341429
0.084087 -0.575776 -0.341429
-0.26696 -0.461525 -0.341429
-0.333528 -0.420097 -0.31919
-0.551673 -0.420097 -0.335479
-0.499991 -0.614248 -0.341429
0.072315 -0.420097 -0.332633
0.371996 -0.468949 -0.341429
-0.266099 -0.5888 -0.341429
0.348336 -0.420097 -0.331473
0.425978 -0.517891 -0.341429
-0.085483 -0.552448 -0.341429
0.291344 -0.520503 -0.341429
-0.291099 -0.59855 -0.341429
0.548285 -0.572803 -0.341429
-0.315828 -0.551691 -0.341429
0.650653 -0.529652 -0.341429
-0.669723 -0.584242 -0.341429
-0.5058 -0.420097 -0.318884
0.288987 -0.471128 -0.341429
0.496476 -0.533369 -0.341429
0.139021 -0.447604 -0.341429
-0.674597 -0.632331 -0.341429
-0.446314 -0.435689 -0.341429
-0.078067 -0.420097 -0.32176
-0.531966 -0.480208 -0.341429
-0.619754 -0.460248 -0.341429
0.0727 -0.604468 -0.341429
0.372932 -0.433727 -0.341429
-0.379094 -0.600164 -0.341429
-0.485809 -0.588594 -0.341429
0.18928 -0.446747 -0.341429
0.265896 -0.569788 -0.341429
-0.235109 -0.430395 -0.341429
-0.644084 -0.525406 -0.341429
0.087353 -0.531726 -0.341429
0.367336 -0.574473 -0.341429
-0.632921 -0.482028 -0.341429
-0.503875 -0.466801 -0.341429
-0.239798 -0.56003 -0.341429
0.613543 -0.420097 -0.326725
0.512585 -0.489023 -0.341429
0.166199 -0.599881 -0.341429
0.116994 -0.509216 -0.341429
-0.051555 -0.42696 -0.341429
-0.545925 -0.6158 -0.341429
-0.038667 -0.493915 -0.341429
-0.245207 -0.607781 -0.341429
0.51859 -0.527249 -0.341429
0.005692 -0.532201 -0.341429
0.243628 -0.604533 -0.341429
-0.565559 -0.492834 -0.341429
0.645873 -0.599585 -0.341429
-0.611841 -0.420097 -0.319064
0.352955 -0.446064 -0.341429
-0.496334 -0.544267 -0.341429
-0.192644 -0.503517 -0.341429
0.596371 -0.607808 -0.341429
-0.634274 -0.420097 -0.319642
0.29885 -0.423664 -0.341429
-0.097288 -0.487815 -0.341429
-0.161927 -0.546077 -0.341429
0.442427 -0.570328 -0.341429
0.660491 -0.420097 -0.329307
-0.594049 -0.479987 -0.341429
0.184046 -0.558525 -0.341429
0.191384 -0.524319 -0.341429
-0.022352 -0.420097 -0.336701
0.272146 -0.538763 -0.341429
-0.357923 -0.627514 -0.341429
0.163558 -0.454026 -0.341429
0.439238 -0.596189 -0.341429
-0.664888 -0.458204 -0.341429
-0.054746 -0.532247 -0.341429
0.296787 -0.599081 -0.341429
0.56766 -0.532681 -0.341429
-0.245348 -0.508019 -0.341429
-0.063961 -0.456028 -0.341429
0.611788 -0.549852 -0.341429
-0.352379 -0.525846 -0.341429
-0.529182 -0.420097 -0.339494
0.477252 -0.420097 -0.324472
0.115897 -0.613135 -0.341429
0.159344 -0.62828 -0.341429
0.347545 -0.487931 -0.341429
-0.064965 -0.48635 -0.341429
-0.490883 -0.511036 -0.341429
0.491594 -0.617294 -0.341429
0.36926 -0.489095 -0.341429
0.467796 -0.544658 -0.341429
-0.082503 -0.510035 -0.341429
0.283638 -0.560072 -0.341429
-0.399777 -0.433434 -0.341429
-0.092192 -0.438908 -0.341429
-0.52406 -0.510311 -0.341429
-0.079156 -0.588616 -0.341429
-0.106429 -0.420097 -0.315136
0.170445 -0.501776 -0.341429
-0.137452 -0.532634 -0.341429
0.624315 -0.482979 -0.341429
-0.628676 -0.592341 -0.341429
0.381042 -0.420097 -0.329556
-0.581181 -0.420097 -0.329434
-0.7038 -0.630772 -0.306559
-0.7038 -0.596539 0.009655
-0.69001 -0.631391 0.199838
-0.7038 -0.570591 -0.159885
-0.7038 -0.511837 0.114118
-0.7038 -0.527351 -0.328126
-0.7038 -0.508229 -0.031559
-0.7038 -0.621299 -0.080716
-0.7038 -0.604624 0.106174
-0.697949 -0.539407 0.199838
-0.7038 -0.555111 -0.24672
-0.7038 -0.499898 -0.116766
-0.7038 -0.509027 -0.194111
-0.7038 -0.516592 0.037458
-0.7038 -0.624884 -0.239123
-0.7038 -0.633712 -0.156389
-0.7038 -0.56006 -0.091575
-0.7038 -0.565493 0.143963
-0.7038 -0.494707 0.164719
-0.7038 -0.5684 0.068853
-0.7038 -0.579879 -0.314764
-0.7038 -0.511087 -0.269932
-0.7038 -0.619752 0.059557
-0.7038 -0.631093 0.153041
-0.7038 -0.584774 -0.049095
-0.7038 -0.603418 -0.121518
-0.7038 -0.582149 0.195397
-0.7038 -0.58809 -0.217478
-0.702234 -0.481104 -0.341429
-0.7038 -0.627688 -0.040549
-0.698344 -0.608075 -0.341429
-0.7038 -0.488784 -0.072964
-0.7038 -0.552477 -0.284872
-0.7038 -0.491428 -0.237621
-0.7038 -0.488556 0.086702
-0.7038 -0.493915 -0.308563
-0.7038 -0.595217 -0.257348
-0.7038 -0.545039 0.094053
-0.7038 -0.538011 -0.170375
-0.7038 -0.493071 -0.164632
-0.7038 -0.541152 0.015043
-0.7038 -0.53399 -0.112067
-0.7038 -0.629095 -0.188648
-0.7038 -0.565272 -0.02304
-0.700676 -0.507197 0.199838
-0.691449 -0.562572 -0.341429
-0.7038 -0.481879 -0.013964
-0.7038 -0.59871 0.137149
-0.7038 -0.595616 -0.17887
-0.7038 -0.633623 -0.114697
-0.7038 -0.539169 0.058759
-0.7038 -0.557941 -0.131571
-0.7038 -0.570702 0.025688
-0.7038 -0.546629 -0.065214
-0.7038 -0.498355 0.059774
-0.7038 -0.612544 -0.279723
-0.7038 -0.551615 -0.313428
-0.7038 -0.631628 0.114139
-0.7038 -0.492162 0.023677
-0.7038 -0.475809 -0.214531
-0.7038 -0.621677 -0.001784
-0.7038 -0.594152 0.077694
-0.7038 -0.579394 -0.282037
-0.7038 -0.529318 -0.239301
-0.7038 -0.573833 0.168669
-0.7038 -0.482789 -0.271908
-0.7038 -0.595896 -0.084067
-0.7038 -0.513038 -0.056652
-0.7038 -0.61359 -0.208933
-0.7038 -0.541454 -0.195403
-0.7038 -0.475741 0.04916
-0.7038 -0.618512 0.183587
-0.7038 -0.62619 0.090525
-0.7038 -0.588843 -0.013229
-0.7038 -0.581841 -0.134832
-0.7038 -0.601974 0.043263
-0.7038 -0.575885 0.093186
-0.7038 -0.566614 0.000828
-0.7038 -0.536604 -0.087444
-0.7038 -0.506889 -0.217759
-0.7038 -0.505038 -0.090047
-0.7038 -0.47309 -0.107567
-0.7038 -0.594563 -0.155577
-0.7038 -0.60947 -0.055084
-0.7038 -0.565195 -0.221029
-0.7038 -0.527953 0.180994
-0.7038 -0.473225 -0.054367
-0.7038 -0.470561 -0.173288
-0.7038 -0.486871 -0.193598
-0.7038 -0.531565 -0.279364
-0.7038 -0.580686 0.126396
-0.7038 -0.600781 -0.233711
-0.686328 -0.572642 0.199838
-0.7038 -0.528032 -0.042985
-0.7038 -0.48376 -0.128874
-0.7038 -0.492939 0.106358
-0.7038 -0.487303 0.183253
-0.7038 -0.578683 -0.235739
-0.7038 -0.496382 0.126441
0.002028 -0.62117 0.199838
-0.487297 -0.626043 0.199838
0.275384 -0.633592 0.199838
-0.245909 -0.594205 0.199838
0.482825 -0.626814 0.199838
-0.442158 -0.448247 0.199838
0.131072 -0.566142 0.199838
-0.016646 -0.484091 0.199838
-0.590921 -0.53746 0.199838
0.375828 -0.540891 0.199838
-0.117567 -0.583754 0.199838
-0.366828 -0.605349 0.199838
0.616992 -0.508415 0.199838
0.25544 -0.518769 0.199838
0.589627 -0.619769 0.199838
-0.183532 -0.491369 0.199838
-0.343748 -0.499442 0.199838
0.481135 -0.524756 0.199838
-0.594948 -0.633494 0.199838
-0.500144 -0.519194 0.199838
0.382301 -0.628712 0.199838
0.053115 -0.535675 0.199838
-0.43421 -0.564843 0.199838
0.207701 -0.594463 0.199838
0.087625 -0.630081 0.199838
0.122729 -0.490162 0.199838
-0.257047 -0.507942 0.199838
-0.071169 -0.527784 0.199838
0.529319 -0.574686 0.199838
-0.305344 -0.557549 0.199838
0.322643 -0.497274 0.199838
0.323953 -0.585333 0.199838
0.549736 -0.497173 0.199838
0.430292 -0.582276 0.199838
-0.191702 -0.633165 0.199838
-0.18475 -0.557179 0.199838
0.17973 -0.521687 0.199838
-0.648224 -0.499729 0.199838
-0.116552 -0.477152 0.199838
-0.012553 -0.548309 0.199838
-0.544105 -0.576698 0.199838
0.65114 -0.558984 0.199838
0.157471 -0.629014 0.199838
-0.57883 -0.454741 0.199838
-0.421002 -0.63246 0.199838
0.411674 -0.493478 0.199838
0.466295 -0.46784 0.199838
-0.378373 -0.54754 0.199838
-0.386749 -0.460729 0.199838
0.234168 -0.463062 0.199838
-0.652153 -0.590336 0.199838
-0.422641 -0.510582 0.199838
0.066517 -0.481971 0.199838
-0.55111 -0.501019 0.199838
0.593045 -0.566472 0.199838
0.649472 -0.44912 0.199838
0.257931 -0.581401 0.199838
-0.096614 -0.630615 0.199838
0.640035 -0.628025 0.199838
-0.317105 -0.616176 0.199838
0.533083 -0.633685 0.199838
-0.064293 -0.577989 0.199838
-0.494215 -0.456404 0.199838
-0.119929 -0.528165 0.199838
-0.064028 -0.476511 0.199838
-0.296314 -0.48141 0.199838
0.435784 -0.631564 0.199838
-0.23148 -0.547064 0.199838
-0.229219 -0.470576 0.199838
-0.668647 -0.444081 0.199838
0.599827 -0.455021 0.199838
-0.496026 -0.582419 0.199838
-0.155398 -0.607903 0.199838
0.085687 -0.565496 0.199838
0.48519 -0.573449 0.199838
0.043299 -0.609392 0.199838
-0.599881 -0.579006 0.199838
-0.635725 -0.540328 0.199838
0.27531 -0.45486 0.199838
0.388605 -0.587334 0.199838
0.314609 -0.538255 0.199838
0.173699 -0.461781 0.199838
-0.464791 -0.497526 0.199838
0.669706 -0.522019 0.199838
0.359409 -0.478454 0.199838
0.020452 -0.50109 0.199838
-0.616089 -0.475288 0.199838
0.498008 -0.443637 0.199838
-0.161619 -0.524931 0.199838
0.097293 -0.456356 0.199838
-0.473354 -0.547777 0.199838
0.021416 -0.566813 0.199838
-0.339275 -0.579385 0.199838
-0.349359 -0.459854 0.199838
-0.032598 -0.60767 0.199838
-0.160297 -0.462503 0.199838
0.033437 -0.465275 0.199838
0.23363 -0.548027 0.199838
0.515305 -0.537412 0.199838
-0.543897 -0.5404 0.199838
0.096597 -0.530877 0.199838
0.214155 -0.493282 0.199838
0.413524 -0.550246 0.199838
0.128324 -0.602189 0.199838
0.310286 -0.462993 0.199838
-0.573305 -0.605189 0.199838
0.673373 -0.586778 0.199838
-0.287765 -0.587698 0.199838
-0.284912 -0.528629 0.199838
-0.528642 -0.457514 0.199838
0.438507 -0.514893 0.199838
-0.335536 -0.541293 0.199838
-0.408068 -0.586901 0.199838
-0.649717 -0.624335 0.199838
-0.056582 -0.443351 0.199838
0.138694 -0.520111 0.199838
-0.125906 -0.444542 0.199838
0.636232 -0.589429 0.199838
-0.263566 -0.473545 0.199838
-0.511734 -0.487696 0.199838
-0.148329 -0.494122 0.199838
0.419793 -0.461007 0.199838
0.308062 -0.628673 0.199838
0.661812 -0.489982 0.199838
0.063901 -0.449132 0.199838
0.186735 -0.553497 0.199838
0.555211 -0.529143 0.199838
-0.616657 -0.609651 0.199838
-0.001479 -0.450456 0.199838
-0.430672 -0.479409 0.199838
0.462408 -0.596054 0.199838
-0.390754 -0.507551 0.199838
0.527128 -0.456912 0.199838
0.56129 -0.576074 0.199838
-0.091195 -0.552627 0.199838
-0.462762 -0.578335 0.199838
-0.011376 -0.579858 0.199838
0.3531 -0.616785 0.199838
0.133646 -0.45006 0.199838
-0.214023 -0.52094 0.199838
0.286362 -0.524791 0.199838
-0.587019 -0.506467 0.199838
0.097842 -0.597432 0.199838
0.348888 -0.513439 0.199838
0.630094 -0.53647 0.199838
0.157136 -0.544381 0.199838
-0.355094 -0.633394 0.199838
0.58092 -0.478667 0.199838
-0.210024 -0.609259 0.199838
0.294242 -0.58727 0.199838
-0.156186 -0.578143 0.199838
-0.6411 -0.455228 0.199838
0.58805 -0.514564 0.199838
0.202332 -0.448961 0.199838
0.624271 -0.471124 0.199838
0.463137 -0.499654 0.199838
0.552036 -0.442929 0.199838
-0.511592 -0.611138 0.199838
-0.044584 -0.537839 0.199838
0.265631 -0.554274 0.199838
-0.465028 -0.464475 0.199838
0.20714 -0.527398 0.199838
-0.259342 -0.549017 0.199838
0.392991 -0.467273 0.199838
-0.659901 -0.553308 0.199838
-0.679113 -0.594987 0.199838
-0.661342 -0.475987 0.199838
0.488838 -0.482776 0.199838
-0.218415 -0.583633 0.199838
-0.565311 -0.560073 0.199838
-0.386847 -0.62337 0.199838
0.3318 -0.559623 0.199838
0.188443 -0.612744 0.199838
0.524922 -0.512774 0.199838
0.372494 -0.501337 0.199838
0.668365 -0.612601 0.199838
0.091837 -0.488962 0.199838
-0.18992 -0.531271 0.199838
-0.621802 -0.500877 0.199838
-0.32763 -0.47909 0.199838
0.148327 -0.492817 0.199838
0.61455 -0.613903 0.199838
-0.387644 -0.571406 0.199838
0.213451 -0.563528 0.199838
-0.304534 -0.512494 0.199838
0.218787 -0.617269 0.199838
-0.237221 -0.617885 0.199838
0.678058 -0.561564 0.199838
-0.182172 -0.445001 0.199838
-0.088924 -0.47666 0.199838
-0.039141 -0.461048 0.199838
-0.407609 -0.488576 0.199838
-0.182043 -0.581736 0.199838
-0.229303 -0.501824 0.199838
-0.144915 -0.542682 0.199838
0.251215 -0.631518 0.199838
0.109917 -0.511279 0.199838
-0.278805 -0.498743 0.199838
0.640713 -0.500585 0.199838
-0.336795 -0.603185 0.199838
-0.568671 -0.529777 0.199838
-0.409511 -0.455291 0.199838
0.266989 -0.602932 0.199838
-0.625629 -0.588189 0.199838
0.319318 -0.608123 0.199838
0.064763 -0.600478 0.199838
-0.364142 -0.529183 0.199838
0.334674 -0.477498 0.199838
-0.332976 -0.443552 0.199838
-0.048739 -0.493699 0.199838
-0.426234 -0.533261 0.199838
-0.269342 -0.45141 0.199838
-0.63867 -0.479212 0.199838
0.075672 -0.538715 0.199838
-0.626011 -0.560434 0.199838
0.525491 -0.490521 0.199838
-0.136186 -0.466663 0.199838
0.503201 -0.585995 0.199838
0.358788 -0.554599 0.199838
-0.097163 -0.573653 0.199838
0.195306 -0.575662 0.199838
0.569667 -0.628541 0.199838
0.447187 -0.613043 0.199838
0.114542 -0.580265 0.199838
0.149155 -0.608293 0.199838
0.602603 -0.478947 0.199838
-0.616779 -0.631227 0.199838
-0.280714 -0.550945 0.199838
-0.430221 -0.613288 0.199838
-0.612054 -0.538018 0.199838
-0.371646 -0.445953 0.199838
-0.180058 -0.469947 0.199838
0.66804 -0.543038 0.199838
0.416992 -0.622501 0.199838
-0.0038 -0.529622 0.199838
-0.200499 -0.572926 0.199838
0.349314 -0.596824 0.199838
0.616204 -0.586551 0.199838
0.499387 -0.559097 0.199838
0.487339 -0.460743 0.199838
0.158624 -0.510077 0.199838
0.48776 -0.60739 0.199838
0.649829 -0.533098 0.199838
-0.160937 -0.627092 0.199838
0.360309 -0.443608 0.199838
-0.5423044238832987 -0.159171 0.8214210231216652
-0.6369696289926741 -0.151419 0.49846431400014857
-0.5910665122767252 -0.397694 0.6549663385390088
-0.5630366121263268 0.057583 0.6694184524175628
-0.5132792768361247 -0.399897 0.920342719866565
-0.6213397683872748 0.110491 0.47051331662159723
-0.6433751365163297 -0.354889 0.45376637249984686
-0.5675022996163103 -0.226092 0.6541834594329301
-0.5914596768960139 0.268469 0.5566096968792706
-0.5322769251913534 0.182982 0.7743571915736172
-0.5187558158466816 0.006397 0.8204853647770882
-0.5285884293450349 -0.309533 0.7869407430354141
-0.6226133832057146 -0.013968 0.5474416113010859
-0.5811167501142688 -0.085334 0.689010163836859
-0.6786329169839397 0.041345 0.3562276640580297
-0.6445253481962016 -0.18413 0.375565482792047
-0.594291923989327 -0.312066 0.5627888555115133
-0.5889277652257168 0.187963 0.6623623608518335
-0.6369401396320445 -0.055486 0.41729160171099555
-0.6622059044951447 0.189678 0.39911562262092914
-0.5201122625067393 -0.250571 0.8970315300465412
-0.6129419462588704 0.112857 0.5804363684055597
-0.6242041862386778 -0.418873 0.541914936829913
-0.6787558387169406 -0.381842 0.3558083083050514
-0.6080045431024281 -0.136792 0.5972806510875487
-0.6434609641282942 -0.285459 0.3791967005706972
-0.5378443621019194 0.11072 0.8366368236233239
-0.5129328443861096 0.210421 0.8709958516522844
-0.5624506489656611 -0.228495 0.7526908223440537
-0.6143616394346729 0.200665 0.494319672502346
-0.575795243797556 -0.307953 0.6965528437665116
-0.5498311050343485 0.262917 0.7144699273262016
-0.5387699250924406 -0.388415 0.8333796602638075
-0.6398331146721923 -0.270801 0.4886953401664651
-0.6228089221892514 0.0194 0.46550119969297943
-0.5964277242608969 -0.213903 0.5555024293504957
-0.5488766579601102 -0.074077 0.7989994048874789
-0.5633539904071958 -0.382029 0.7495094692922837
-0.5314037744828314 0.265282 0.8074726519032005
-0.5781081667623056 -0.034137 0.6180008309065019
-0.5451994591405425 -0.019315 0.7302710985585625
-0.5643611396076343 0.094887 0.7461730551261383
-0.6403786383840742 0.108229 0.3897122619920631
-0.49355889523266905 -0.172732 0.8905976826432889
-0.5951396797953927 0.275568 0.6385960988533819
-0.611566460505153 0.193019 0.585128930492663
-0.6753930713988031 -0.109421 0.36728061500266307
-0.5117670863633261 0.329543 0.9255016592899328
-0.6177756663542743 0.311472 0.46682382008434964
-0.5065961279842168 -0.319816 0.8619689571008906
-0.5188293196595601 -0.031761 0.9014083757887252
-0.6153649845642251 -0.070409 0.490896693163962
-0.6062960153993443 0.038741 0.6031094081667032
-0.5470843528083666 -0.158377 0.723840657138178
-0.49299407408881124 0.077669 0.8925246079338622
-0.6531104608115821 -0.036106 0.34627679414982143
-0.5056966654940058 0.189494 0.9462113080428527
-0.6842594694443918 0.266355 0.3370323022117455
-0.5402409139672922 -0.231952 0.828460825876469
-0.6359725177521288 0.253191 0.4205927087824957
-0.684353187242365 0.155202 0.33670546743032986
-0.6349767673291923 -0.126113 0.423989778268865
-0.5930753188941348 0.118442 0.6482127027793714
-0.6050809079503877 0.068917 0.5259815116642866
-0.5171554568764507 -0.09235 0.8594306564201921
-0.49851252114928746 -0.285729 0.9536915333759728
-0.5825241323843082 -0.38404 0.587086797270865
-0.6819056729644105 -0.2326 0.34506243708799944
-0.656742054284236 -0.424216 0.43024145306563777
-0.6245593614214363 -0.205819 0.45952945861566974
-0.5884051824432253 -0.323429 0.6294651114799568
-0.5392209813153134 0.345999 0.8070546407332579
-0.6053577584668786 -0.357191 0.5091883473766511
-0.5207184326088377 0.144564 0.8949635400061104
-0.5527339706740958 0.15048 0.7045666061117011
-0.5859292625396987 -0.160658 0.6725919542768892
-0.5948564638477546 -0.069935 0.5608628898450886
-0.6486197895497413 0.009416 0.4081227154754681
-0.4997772843602785 0.098671 0.9522563459247584
-0.5791661469184842 0.325404 0.598542790357949
-0.6288767658801577 0.139741 0.5260736603821633
-0.5627288858656793 -0.00463 0.6704682812362317
-0.49718907822705416 -0.11651 0.9547083218650849
-0.5536391015789631 0.046546 0.7827520084259763
-0.5216044817139931 0.267226 0.8919407239377308
-0.6305328271329291 0.33728 0.5203243531084938
-0.6489445123274922 0.168889 0.4576111947420368
-0.6048209546033332 -0.270973 0.6081416772024437
-0.6406053809148042 -0.341853 0.3967741719904104
-0.5642640961342126 -0.094402 0.7465041254574369
-0.4971772317021256 -0.218292 0.9547131860039721
-0.5356364359601317 -0.432645 0.7499945089546103
-0.5162461872383652 0.171007 0.8290471314317174
-0.572099435717795 0.332493 0.7196737948853038
-0.6023864748144246 -0.123651 0.5351737513846064
-0.5737076918825882 0.210644 0.7142866639134038
-0.6462744041528041 -0.242828 0.42211806696586784
-0.6842575004463802 -0.173828 0.33703901958078636
-0.5262134625167685 0.056488 0.8453052146989584
-0.6340654025353181 0.066961 0.42709896051062685
-0.5312522023691054 0.127031 0.7778531023473019
-0.49671857447019635 0.014632 0.8798182245810326
-0.5964965935817556 -0.096176 0.6365407942588318
-0.6752501784002574 0.330672 0.3677681040701985
-0.5955821776965873 -0.431963 0.6114932671635485
-0.5479493055062565 0.03505 0.7208898128809504
-0.6052229114831005 -0.195341 0.606770374293963
-0.6425077104677472 -0.403215 0.47947123385038215
-0.5495852386262394 0.237564 0.7623072409496625
-0.6246504522912815 -0.268458 0.5404920132162592
-0.50983915602468 -0.333717 0.932078923205067
-0.5533916816630884 -0.375896 0.6864741107267367
-0.6102824381257954 0.255151 0.508236141906676
-0.5431334176556641 -0.33447 0.7373195379307045
-0.5055405520802403 0.269788 0.9467438994453767
-0.5537229246371651 -0.022496 0.782466040429666
-0.56509867000564 -0.286777 0.7436569206082682
-0.5173629787118855 -0.122736 0.9064108964758562
-0.6481128941931094 0.345248 0.43859862394588817
-0.6370095715237637 -0.022084 0.4983280473710343
-0.6827602181013827 -0.284198 0.3421470989242734
-0.5798293523097487 0.084038 0.6121288907406561
-0.5668216423399107 -0.432924 0.702849951505732
-0.5146127627451469 -0.047259 0.8346196688631713
-0.5250189828888606 -0.37634 0.7832694793569916
-0.6475594988187268 -0.298656 0.4462707296907025
-0.553703561552023 -0.240844 0.7012587816711602
-0.4960429268668366 -0.370477 0.8821232417861906
-0.5811648955323767 0.158459 0.6075725952826669
-0.6448721731316481 0.233181 0.37438226621670984
-0.5794656046389475 0.098845 0.6946431575896805
-0.5270656383414827 -0.417728 0.8733096210908775
-0.5898070634805471 -0.276262 0.6593625757630226
-0.6447302940121148 -0.109154 0.471988283737739
-0.5562031522004462 0.311642 0.7739050344003293
-0.5098993511067446 -0.070511 0.931873563637247
-0.5831338935438332 0.245067 0.6008552262418236
-0.6223900425741293 -0.16708 0.5482035528751473
-0.5577962189520083 -0.14039 0.7685697231324586
-0.6249071931696416 -0.311912 0.5114454510079465
-0.5698971637691017 0.231085 0.6460132194309672
-0.6120689420289249 0.343236 0.5671180672896329
-0.6325562605927095 0.023703 0.5135208168931246
-0.5509303228860594 -0.26695 0.7919931889778793
-0.5083085936833236 -0.142209 0.8561267652836544
-0.6710955925960842 -0.063254 0.381941752746378
-0.5326454974205203 0.32051 0.8542735568532762
-0.5211740923433466 -0.422293 0.7963865818454612
-0.5101656400935572 -0.273879 0.8497913266539903
-0.6248571970824843 0.187606 0.5397866894669707
-0.5758722288775816 -0.15693 0.6256288832644539
-0.5798302844816337 0.292809 0.6932994847826555
-0.6324691077188873 0.207556 0.43254482755445334
-0.49226160682854947 -0.288736 0.895023469217056
-0.5448348676134505 0.207422 0.8127882442800328
-0.5531592286350282 -0.194766 0.7843891272236446
-0.6089824322241267 -0.431245 0.4970393908307778
-0.5092736839943675 -0.195509 0.8528342948294925
-0.6111414838296508 -0.238485 0.5053054497565709
-0.5268335447477583 -0.337608 0.8243370263407139
-0.6815163004169197 -0.074826 0.3330947048876508
-0.6719169460522917 -0.421888 0.3791396502321976
-0.646359765887662 -0.188135 0.4228933819819884
-0.500703814012352 -0.017483 0.9506667853553465
-0.66792663093936 0.275758 0.39275287840554096
-0.587956205349778 -0.042469 0.6656769026614153
-0.6235251632101555 0.299434 0.5442314695248552
-0.6462480644359692 0.12235 0.43479656306040987
-0.5239635343015538 -0.111387 0.8027188832882064
-0.5127662122114252 0.050195 0.9220930743137792
-0.512682107867793 0.226951 0.9223800019342381
-0.6454046464510319 0.066498 0.37256569770323616
-0.5931836593943072 0.01653 0.5665697746573595
-0.6394849648348592 0.275324 0.48148946744411103
-0.5507030898679935 -0.059172 0.7114950924652567
-0.536867222126919 -0.05994 0.758697085091114
-0.6086679480719953 0.282341 0.5949178574346128
-0.6291187169596789 -0.021566 0.4439749107895226
-0.6637292897497952 -0.387658 0.40707238995232153
-0.507788562576035 0.286573 0.842052216209263
-0.6675187670655583 -0.143043 0.39414433342114413
-0.5850356643374699 -0.099984 0.5943672073725177
-0.6698320584435895 -0.217613 0.3862523844223019
-0.5235627025635073 0.086045 0.8040863477000924
-0.5646807911190591 0.304623 0.6479605551431359
-0.6412714383395546 0.151139 0.38666641494411497
-0.6100084205072305 -0.025843 0.5904442886522676
-0.49159917964040944 0.182631 0.8972833840872254
-0.5941096510305521 0.225635 0.5634106919598656
-0.47674421478569096 -0.153844 0.9479620950037935
-0.6246763761604028 -0.162643 0.4591302549698139
-0.5489208653821952 -0.20058 0.7175752710713685
-0.6250204538947134 -0.391641 0.442107740510641
-0.5757830613962056 0.007711 0.6259330841195891
-0.6039465419670823 -0.353627 0.5663659886797925
-0.5901928776604842 0.344916 0.6375191528760629
-0.5682390518111913 -0.360243 0.6358213096621833
-0.5840408460864183 0.33264 0.6789348709008864
-0.5949275834520549 0.053837 0.6418935777602353
-0.6385377952660841 0.0602 0.4931144093711912
-0.6594129421608241 0.231132 0.3247754554742307
-0.5603758876324465 0.155608 0.7597690100648051
-0.6280919795298772 -0.058097 0.5287510117570138
-0.5444262938084947 0.304361 0.8140825782577619
-0.6007623327404032 0.111464 0.5407146212191534
-0.4787840967255599 0.303444 0.9410029006774798
-0.5927957667860503 0.156338 0.5678930963584055
-0.6739250427385471 -0.341883 0.3722888934346861
-0.6182453473695557 0.154197 0.4810701418813569
-0.6772785276374877 0.191671 0.3608482543339812
-0.561561832615746 0.259578 0.6744497618291545
-0.6718291849980668 -0.020846 0.3794390529665894
-0.508445386717999 0.149711 0.9368338608618354
-0.6063670105904652 0.305924 0.5057452159311445
-0.646513192331482 0.301556 0.3687838189332413
-0.5669326966201389 0.154155 0.6561266983340313
-0.622243257189103 -0.322529 0.4674310038559988
-0.5159694906906347 -0.199803 0.9111648745084757
-0.49298591681133525 -0.061953 0.8925524370341742
-0.6495996260944468 -0.062006 0.4553762300997335
-0.5675094200676597 0.292872 0.7353329417436583
-0.5649181303689886 -0.111832 0.6629995264869626
-0.5075862526985493 0.132844 0.8585910800974952
-0.5439949949283915 0.192458 0.7343802091632612
-0.5764235027112471 -0.020356 0.7050214927577834
-0.5791491585299633 0.031868 0.6957227347569589
-0.6736519145858151 0.122752 0.37322068848306594
-0.6192767754325864 0.045549 0.5588246729528693
-0.5753872471863606 -0.135368 0.7085567481215644
-0.5487422035244708 0.157389 0.7994581052305536
-0.6078740266628117 -0.066279 0.5977259166925417
-0.5760071665210862 -0.43374 0.6535418490121556
-0.5473419115230669 0.348339 0.764222558288427
-0.4907325392299384 0.28947 0.9002399860893451
-0.5969397293970417 -0.387314 0.5379070192745536
-0.5905497026258388 0.076643 0.5755556951857104
-0.54245186305827 0.12779 0.739644707242985
-0.632374550204795 -0.18648 0.5141407340931795
-0.6691862270958318 -0.256221 0.3884556814676986
-0.6212016572410426 0.230416 0.47098449207860493
-0.5097549633654536 0.249346 0.8511923779110806
-0.5295748973487746 -0.236402 0.7835753411459516
-0.4951788180252374 -0.222022 0.8850712071709721
-0.6317007015767249 0.312415 0.419317626603357
-0.505339995568502 -0.179001 0.947428111463394
-0.6478905112065184 -0.09278 0.410898661277912
-0.5844612794889851 -0.241063 0.5963267598841466
-0.5605058871107449 -0.339474 0.6780521908833439
-0.5932466673306738 -0.274322 0.5663548188480524
-0.5209076770181451 -0.009329 0.8547886774232272
-0.5537518970364765 0.094338 0.7823671991423509
-0.5022950774051339 -0.380289 0.9506205164155253
-0.5900507679258158 0.313267 0.561409174300167
-0.5547573450891767 -0.403949 0.7788375025246057
-0.5588015786891142 -0.277026 0.683866553600268
-0.5198425097791697 -0.346508 0.8979518096051369
-0.5231357995960457 0.305099 0.8867165300722522
-0.49119694147521187 0.247263 0.8986556466198548
-0.6565677626966977 0.286764 0.43150442077801743
-0.6418582224093967 0.335241 0.48168700600971176
-0.5621778020983593 0.003499 0.7536216577682848
-0.6056386969584904 0.222289 0.5240785769774307
-0.6806470265012072 -0.355983 0.32881853687651497
-0.5969348362820197 -0.236347 0.6350456998351699
-0.6111473908236852 0.113316 0.5052852976494484
-0.6815577228872431 -0.138826 0.3462494921599312
-0.6480416973592327 -0.142032 0.36356922130924957
-0.5380013193719756 -0.112609 0.8361013533483539
-0.5404749434452254 -0.194807 0.8276624185847574
-0.533118531198536 0.018923 0.771485996120731
-0.531317548904508 -0.363776 0.8588039424592506
-0.5187991338029336 -0.299784 0.8203375826581898
-0.5200648294604819 0.109256 0.8873492578387316
-0.589506650641085 -0.198159 0.6603874543538256
-0.5762528963802473 -0.398246 0.7055039847057192
-0.6283544644458036 -0.268196 0.4465822096015186
-0.5758375851601237 -0.179208 0.7070203898595087
-0.5371307865750239 -0.260277 0.7577979172637896
-0.6089412691945634 -0.00495 0.512811629847639
-0.5788271323219174 0.120283 0.6155480315824454
-0.6432539380516611 -0.376945 0.3799029839441344
-0.6602148869223473 -0.101144 0.32203956702631004
-0.5417359460288481 -0.027165 0.8233604235261716
-0.6499918492468651 -0.086769 0.3569161470863686
-0.5212585006348371 -0.310893 0.893121061640622
-0.6044007597801446 -0.084612 0.5283018828558237
-0.6453135099716445 0.006459 0.37287661592741234
-0.6025376134060406 -0.378337 0.6158319061312043
-0.5624430998685879 0.11951 0.6714432593713027
-0.5604715702882594 0.21959 0.6781692650294843
-0.4844019293376755 0.108281 0.9218372871798051
-0.5987212800492712 0.180368 0.6289511268668275
-0.5920582363880447 -0.153135 0.5704092308762757
-0.6394360509074469 -0.022579 0.39292796251432965
-0.6488239521406413 -0.229439 0.36090050655173733
-0.5952805966669661 -0.130856 0.6406892494536269
-0.5728427847942407 -0.070485 0.6359640353458657
-0.49471047778394095 -0.105159 0.8866689813785442
-0.4835223497974149 -0.312148 0.9248380318927647
-0.5364464847764938 0.31965 0.7442837886922344
-0.5202151246586011 0.233454 0.8155068346936747
-0.6464083030549868 0.164813 0.42332860737576516
-0.5855834153856794 -0.362923 0.67367229206946
-0.6773912550061455 -0.431009 0.3362320632285248
-0.5137619626343618 -0.162148 0.9186960048274098
-0.5437666568122286 -0.378336 0.7193105298466762
-0.5292336981219323 -0.150368 0.7847393652383149
-0.6532721999339517 0.17085 0.34572501026432356
-0.5331154370588036 -0.100706 0.7714965519863666
-0.6504488268082449 -0.227017 0.45247912479483265
-0.6227779807919286 0.072998 0.46560675834933557
-0.47904400446307216 0.215991 0.9401162079640886
-0.5721058826202616 -0.392277 0.6226293564901157
-0.5068088454226203 -0.388669 0.8453945871191568
-0.5916140410842038 -0.00951 0.6531979502318259
-0.6160104890170103 -0.094944 0.5699678285674797
-0.5494260540148489 -0.298427 0.715851786100318
-0.6579674163349849 0.286571 0.3297069639743583
-0.597141288729373 0.222804 0.6223428849350392
-0.5497197816571522 0.307407 0.6990010443637609
-0.6356520880375796 -0.098906 0.5029591935126215
-0.5446703156367787 0.057812 0.8133496244070176
-0.5775698521020534 0.292168 0.6039886574017755
-0.5722767928991197 -0.264747 0.7191682719577994
-0.6123666436168302 -0.333327 0.5341882364555007
-0.49767832035806625 0.324532 0.8765439869856959
-0.5142549321547766 0.348594 0.853996367015039
-0.5060664675191351 0.089951 0.8637759293728775
-0.6691313764369412 0.027393 0.3886428081766935
-0.581542897541034 0.152229 0.6875563332515908
-0.6154817180177614 -0.127032 0.4904984491422548
-0.5455755377607306 0.073286 0.7289880810717613
-0.4885002580558071 0.030775 0.907855563333364
-0.5274060719173888 0.199247 0.8427901296472049
-0.6780374357281892 -0.20181 0.3582591883808105
-0.5650293264295151 -0.418592 0.7437939478626747
-0.5724835376903227 0.173209 0.718462948208511
-0.6316601308216089 -0.325577 0.4353047066060913
-0.6472135854345984 -0.294363 0.41347111701111916
-0.5938531795865397 -0.341273 0.5953324171074577
-0.6700551177897445 -0.304073 0.38549140247238933
-0.5429592202045306 -0.3453 0.7685588526518699
-0.5122936526886757 -0.286362 0.9237052428835815
-0.49686879151941 0.331514 0.9548624530588985
-0.6062038650409445 -0.399757 0.5063017979373858
-0.613739805664077 -0.388587 0.5776148744095492
-0.6382958897961052 -0.211768 0.49393968613906625
-0.5230072048128178 0.024454 0.8520663267772968
-0.5483414173959666 -0.104482 0.7195520968176738
-0.6083938877473785 -0.163982 0.5146790584409935
-0.5365910654876207 0.269379 0.7437905418798068
-0.6737357376440171 -0.167286 0.37293472048675574
-0.518754971990391 -0.255408 0.8204882436495343
-0.4845316019210014 -0.231678 0.9213949004472581
-0.6447730493975065 -0.004035 0.4718424208671378
-0.5584297850035451 -0.403202 0.6692862825995161
-0.6453670621085701 0.021201 0.4420256296598484
-0.5332088894747988 -0.392986 0.7553290626436782
-0.5255750185312159 -0.015815 0.7972211965403504
-0.49316143891978503 0.126829 0.8919536315653906
-0.5443578976404582 -0.357468 0.8012366751379265
-0.5597064739180935 -0.209246 0.6807794427139262
-0.6270163896543037 0.142684 0.451147141676846
-0.5562317093891909 0.204752 0.773907152647483
-0.6263635297340197 -0.353626 0.48491177761334747
-0.642706726627198 0.200813 0.47889181986342855
-0.6244328712934369 -0.370731 0.5411347623970265
-0.5068581595714697 -0.42457 0.9401086181025053
-0.5161339722945223 0.167818 0.8611059698979873
-0.5879975543080187 0.020005 0.6655358379115577
-0.4811677094611431 -0.084861 0.9328710456414646
-0.6295274246897713 -0.100652 0.44258057690147334
-0.649769915042431 -0.40586 0.35767329053968644
-0.5344509802814316 0.066426 0.7669402565283774
-0.5306444382656488 0.268471 0.7749884858294152
-0.679080637234254 -0.393653 0.32633047685626343
-0.5726604662259236 0.010052 0.7178593446189837
-0.5054945790512524 -0.433739 0.8902145471805523
-0.6163906168959298 -0.383527 0.47154900939250854
-0.5747810770842622 -0.217572 0.7106247381619955
-0.6213270649333731 -0.239064 0.551829972533054
-0.5655957013608176 0.050772 0.7419612647375295
-0.6124038472308824 -0.245608 0.5822721294020073
-0.6194430151218394 0.077091 0.5582575350809924
-0.6474318973541483 0.042428 0.41264100864121656
-0.5441497019150059 0.225541 0.7338524158814806
-0.6631932436519224 0.069042 0.3982358241272424
-0.564808102156235 -0.058937 0.7446482123538669
-0.6073786090202433 0.339307 0.5977984932688736
-0.5165565107210508 -0.366553 0.8121397718703876
-0.6134286156626727 0.078546 0.497502745803557
-0.57922261963679 0.052925 0.6141988000293845
-0.6466414596126926 -0.154973 0.4254519215351864
-0.502682603793732 -0.037177 0.8753202078816411
-0.5296914544984882 -0.433523 0.8241076535945506
-0.6337934878399012 -0.417012 0.5092003899768573
-0.542169893468533 0.230146 0.7918002163877575
-0.5007937239617417 0.047098 0.950495145613443
-0.5321959001789354 0.14604 0.8380531801831628
-0.6534581296033193 -0.293717 0.34509069870203823
-0.6790607998938459 -0.257021 0.3262986102605003
-0.6395676301567801 -0.25952 0.3964679019066278
-0.521512760001317 0.296046 0.7952311943704362
-0.6230544843698231 -0.043569 0.46466344781117136
-0.6389895396669982 0.124246 0.49157325298839205
-0.6245770367939971 -0.199622 0.5407424751190678
-0.5063219630053583 -0.14664 0.9440780635603105
-0.551693214582326 -0.327903 0.7081172154618611
-0.5661711783889818 0.23876 0.7050477223419527
-0.6397006748441066 -0.216627 0.40787385031573326
-0.5848820824925763 -0.00908 0.5948911621577035
-0.6035835799958479 -0.162933 0.6123630638325392
-0.5814585575215139 -0.304511 0.6065707476714326
-0.5262987659431413 -0.054019 0.7947520836057662
-0.6576934669883904 -0.361112 0.4276640049349524
-0.6204407345427874 0.161582 0.5548537482255822
-0.5382311751779979 -0.210226 0.754043867594107
-0.5652076387298388 0.269982 0.6461631791126359
-0.637864135307155 0.245744 0.4508067092297307
-0.6574641667195801 0.344385 0.4095793216259551
-0.5217980060899762 0.068473 0.8912805025234309
-0.5425544866307537 -0.281048 0.8205679172534781
-0.5189974400312304 -0.135933 0.8196610476333619
-0.5257405651346877 -0.16487 0.846303502265755
-0.6025164286831808 0.038637 0.5347304050279107
-0.6493425485783554 0.230887 0.4053761209683453
-0.6358809070174752 0.310677 0.5020790191694147
-0.5561566517888676 0.193672 0.692889899470418
-0.49823442165358767 -0.408108 0.8746468100437321
-0.6370513130301428 0.276001 0.4010636560469396
-0.5590806138358806 -0.055224 0.6829146064447658
-0.6492188768846534 0.03669 0.35955319424697396
-0.48811742858529394 -0.262672 0.9091616117997336
-0.6006346291550888 -0.033241 0.5411502905826595
-0.5108329374496051 -2.7e-05 0.9286885710877386
-0.6144505256306186 0.037192 0.49401643127135936
-0.48534341823687005 -0.312315 0.9550438578496694
-0.5702842125210681 -0.254091 0.6446927766023672
-0.5851014395185963 0.076949 0.6754161281464894
-0.5999713125011158 0.138945 0.6246865571500407
-0.5402448519633152 -0.084097 0.8284473911383874
-0.6535292948171619 0.001639 0.3448479137924192
-0.5168715730653121 0.022499 0.9080873598636208
-0.5994055001406737 -0.405694 0.6265173210268886
-0.5236322910477981 -0.247615 0.8507479227425494
-0.6143579371145379 -0.201823 0.5756056204410446
-0.517288134125022 -0.395859 0.80964378945964
-0.6596928138493019 -0.170626 0.4005256582253651
-0.6275114520114701 0.04893 0.4494582031751482
-0.5200376335521398 0.042104 0.8161123575314992
-0.5995646850317433 0.273738 0.5289518067189608
-0.5136373531887797 -0.227901 0.9191211183252803
-0.6115085613160725 -0.035278 0.504053140242528
-0.5131343595775724 0.048989 0.870372360972635
-0.5397810578984443 0.036056 0.7487563385348146
-0.6067483223711189 0.081241 0.6015663325356067
-0.6256996469459575 -0.297162 0.5369126151416383
-0.6228672139264706 0.288895 0.4494536633688775
-0.5940022883118069 -0.370738 0.6449507412991113
-0.6485651695448499 -0.332902 0.3617833607685339
-0.5790305673411239 -0.411868 0.5990053291976185
-0.49389475003633754 -0.133853 0.8894518914097507
-0.6370051165664227 0.099753 0.4170699285326478
-0.613218449836765 -0.29037 0.5794930578673956
-0.6664658263487135 -0.230637 0.3208644175516045
-0.6428336976189302 -0.057957 0.3813366624222801
-0.5849524038501284 -0.178946 0.5946512561205306
-0.6455106910582205 0.204558 0.37220391939917924
-0.6223571777883373 -0.084719 0.4670423560757786
-0.6404332077575345 -0.132505 0.38952609490721685
-0.5179387699875214 -0.072565 0.9044465458434836
-0.5637592343965314 -0.079595 0.6669531779795732
-0.6032035633796368 -0.112022 0.6136595160574221
-0.669808430467452 0.303586 0.38633299285079215
-0.5800236749324802 -0.25707 0.6927392632786757
-0.5030066446093316 -0.260896 0.8742147208623481
-0.5643341362063344 -0.161901 0.7462651790444127
-0.5997879144006202 0.099524 0.6253122320949879
-0.5474556039666991 0.028474 0.8038474260866704
-0.5549740822307306 -0.303599 0.7781976322162845
-0.4906532167386197 -0.025469 0.9005106000992762
-0.5332184758418541 0.27917 0.8523188024623907
-0.6337224699863522 0.162259 0.509542215172648
-0.6269699319487771 0.086351 0.5325789524861457
-0.48769128115852867 0.329479 0.9106154423850019
-0.6048357153708406 0.307125 0.6079917768363914
-0.5489618874454634 -0.135836 0.7987086387704252
-0.6790672216881809 0.245031 0.3547460043724494
-0.5539915978325561 0.122688 0.7002761265428996
-0.59279548550062 -0.042762 0.5678940559825543
-0.6490900481576181 0.126203 0.3599927021070748
-0.4767425270731097 0.083163 0.9479678527486857
-0.5143903542854467 0.078265 0.916552204479232
-0.6019314099455692 0.226243 0.5903870314534914
-0.5551828416294873 -0.15048 0.6962121182731894
-0.6196197736347184 -0.412141 0.46053252416552554
-0.6524981250924473 -0.387155 0.4453882629612918
-0.6213017492446543 0.212611 0.5519163387064363
-0.6302267659224347 -0.412668 0.42434605714250256
-0.6512713195725379 0.220509 0.44876658298999245
-0.5612167610460468 -0.372874 0.6597783265342767
-0.521773727227384 -0.174415 0.8101895572857729
-0.5465898074125186 0.105811 0.806801149216344
-0.5097502698287343 -0.03655 0.9323821644360537
-0.48366383636880955 0.265286 0.9243553409459726
-0.5452773752047101 0.008539 0.7300052826693748
-0.6342792451154423 -0.365183 0.41052075203229826
-0.6234715850532794 -0.13958 0.5445137980234269
-0.5527964160396021 0.062701 0.7043535695506915
-0.5206557059579012 -0.149131 0.8951775361912686
-0.4885871752537414 -0.378624 0.9075590394714184
-0.5384637982287799 -0.120862 0.7532502584231388
-0.5353811911991296 -0.031528 0.7637667794686533
-0.49793485267041604 -0.343603 0.875668809762089
-0.512940157807295 -0.170575 0.8709709014244185
-0.6362264728860644 0.21623 0.5009996410009926
-0.655889842147468 -0.125492 0.3367947479365967
-0.6756093798946331 0.271573 0.36654266403231894
-0.5114281374199254 -0.105026 0.9266580063891066
-0.5993221513377379 0.141493 0.545627896860456
-0.5449632450323337 0.333668 0.7152282887181409
-0.546354698402407 -0.2495 0.7263299221798848
-0.5205703881569539 -0.208311 0.8142948293938768
-0.5145729085296517 -0.366601 0.9159294084067311
-0.6745359946929591 0.15002 0.3702045897837273
-0.6115900884812905 0.007994 0.585048322064173
-0.5200708592597778 0.003054 0.8889995873941601
-0.5606307778417572 0.02287 0.6776261177613246
-0.5451075671204586 -0.403993 0.8117583685696301
-0.5200726646290658 0.229896 0.888876109701269
-0.5036093673244021 0.221368 0.9508827968153073
-0.5193313258368873 0.119514 0.8185219737688647
-0.6551050557971875 0.095323 0.3394720993114472
-0.5792434347586254 -0.278391 0.6141277878423814
-0.5676853708218333 -0.137373 0.7348322169368974
-0.5948924227732789 -0.300119 0.6420135307788217
-0.5637870816541221 -0.186234 0.6668581751888528
-0.6130548529790922 0.269156 0.4829291921718458
-0.6113653414225542 -0.16442 0.5858150617589778
-0.6748282502549453 0.004107 0.3692075402932364
-0.6070113242483635 0.149221 0.6006690839565798
-0.5256541626467485 -0.30851 0.8464845067134292
-0.6802340655819441 -0.028953 0.32816186322913643
-0.6088035261279885 0.25149 0.5447869140504042
-0.48189342587108 -0.05804 0.9303952153378394
-0.5533660846889394 0.283803 0.6865614365242677
-0.5852545044021719 -0.052354 0.5936206197848355
-0.5715370578272148 0.204899 0.6404186106440934
-0.556980772489835 -0.047535 0.7713516735395165
-0.6085731548820152 -0.415136 0.595241250772722
-0.6381311021435455 0.135935 0.4132285530654341
-0.5613947490702024 0.174524 0.6750197785734775
-0.5889949924435365 -0.100326 0.6621330106802962
-0.5810432396277129 -0.322506 0.6551034749804052
-0.6221895316719332 0.176898 0.467614292068399
-0.6680152358498755 -0.104663 0.39245059679870303
-0.6196295073620673 0.010391 0.5576213042704097
-0.6009431536624847 0.000559 0.6213710557163101
-0.5926640795951705 0.154714 0.649615673284759
-0.6397689815941048 0.031059 0.4889141344723668
-0.644402033915062 -0.29176 0.47310816511926246
-0.5613016435928035 -0.24075 0.6753374141666945
-0.5995187698534533 0.19314 0.5449571195805203
-0.649012880712144 0.076078 0.4468228366295167
-0.5501345664040007 -0.224219 0.7947079656945286
-0.6474514492639477 0.038035 0.46270487972329355
-0.5185020963886339 -0.071141 0.8213509457592084
-0.5687688822989949 -0.186698 0.7311357447161362
-0.6605514572597567 -0.196811 0.4000458077343968
-0.5842497561327734 0.275568 0.6741337863783508
-0.5607857205042596 0.117726 0.7583708376801611
-0.6513822431283837 0.27504 0.3521727249193845
-0.47762147385033715 0.280117 0.952637634067206
-0.5998754397789572 -0.179486 0.543740316159979
-0.6760785639922201 -0.042108 0.36494201095230083
-0.6163719407948276 -0.053739 0.5687347115364105
-0.5714319227294831 0.314541 0.6249286159503815
-0.6324015992156373 -0.215978 0.43277513735013945
-0.49409671297522695 0.211686 0.88876288127099
-0.48095477639047557 -0.388548 0.9335974811220245
-0.5261035538545769 -0.34016 0.7954180627649584
-0.5768469434279656 0.26847 0.6141943783978114
-0.5946064011002996 0.052478 0.5617159957132758
-0.6730454631982865 0.075388 0.37528963814764565
-0.6780711899798141 -0.254449 0.3581440334829674
-0.5402241707666163 0.331677 0.8284184034150701
-0.5839833755430616 -0.12757 0.5979571613127741
-0.5983120553578607 -0.098527 0.5490739071784085
-0.6419324817629717 -0.377596 0.4814336652344572
-0.5132336202808367 0.226802 0.8393247060642077
-0.6391190422276024 0.335411 0.3940094589299054
-0.5962710026667286 -0.029092 0.6373104128260827
-0.5424484876331075 -0.076157 0.7396562227327692
-0.535739830122645 -0.297274 0.7625432586790711
-0.660467260304842 -0.413932 0.32155186458033697
-0.6344383870157739 -0.002361 0.42582649888946145
-0.5691708847883045 -0.040745 0.6484909689828897
-0.5738261130487058 0.051919 0.7138826621468044
-0.6132941612270333 -0.213625 0.49796144614663174
-0.4802186524196211 -0.285965 0.9361088175191512
-0.6600905587621954 0.262367 0.3224637209000318
-0.5807497182373895 -0.201555 0.6089890005261362
-0.5592906956945757 -0.315348 0.7333594530359949
-0.5764028215145482 -0.372932 0.7049925050344663
-0.5439280489960019 -0.048742 0.73460859971065
-0.6356746364815384 -0.273381 0.4216089507559605
-0.5252875448215433 0.14081 0.7982019324203136
-0.5119105192703041 -0.412689 0.8279898839343318
-0.6060966296388691 0.183601 0.5225163088633602
-0.5596229754646771 0.345702 0.7386463827834364
-0.5007527701102406 0.289822 0.8660552950404934
-0.6225773786706479 0.128224 0.5475644431921185
-0.5494632720072307 0.286671 0.796898588627136
-0.5274275643745663 0.036527 0.7909011118970656
-0.6163972564835464 -0.140541 0.5686483453630283
-0.5505252718665598 0.071956 0.7933750477519956
-0.6814265336236928 0.13077 0.33151674325223834
-0.5720138366314175 0.12841 0.6387920477120607
-0.598398756923531 -0.361587 0.5329294488152888
-0.6024956135613454 -0.306551 0.5348014172149139
-0.604078361067584 0.201682 0.6106750849549902
-0.569651837264418 -0.012648 0.7281234845133923
-0.6639219138787016 0.152913 0.39731771917648484
-0.5704656416235523 -0.131287 0.644073819026461
-0.5253415516241432 0.202122 0.7980176845837648
-0.5619879800425112 0.094546 0.6729959312438862
-0.5564401875025173 -0.032069 0.6919225983285366
-0.5473839217915383 0.097421 0.7228186574198212
-0.61524993882327 -0.267291 0.491289179440777
-0.546805272052058 -0.101889 0.806066077118446
-0.5040501370846334 -0.052468 0.9507264669766147
-0.5450742415145575 0.178656 0.8119716041294961
-0.5690063328116328 -0.16207 0.6490523491098745
-0.6553154572989831 -0.243958 0.33875430044822563
-0.5851742924450202 0.220916 0.6751675854919783
-0.5049096288602836 0.07455 0.9488963364108927
-0.6397786565614403 0.175433 0.39175914030122283
-0.6152319039561696 0.347753 0.537908397095555
-0.5636309226308143 -0.034472 0.7486642394161425
-0.5905786750251503 0.10332 0.5754568538983951
-0.5884760664343449 0.20691 0.5826300444098671
-0.533271269187139 -0.005861 0.7709649202079913
-0.6013367175888882 -0.260379 0.5387550687075245
-0.5400687672840049 -0.059381 0.8290481158554686
-0.6035858302792896 -0.035257 0.6123553868393498
-0.5389439068486028 -0.000559 0.8328856528260873
-0.5869095422639738 0.100785 0.669247664118698
-0.609861353836774 -0.331957 0.5096726992572678
-0.4951858501609926 -0.320975 0.8850472165672549
-0.4838399210481198 -0.161591 0.9237546162288917
-0.596186335752236 -0.266802 0.637599259694839
-0.6417721264053249 -0.225218 0.38495828395944337
-0.6155616913955347 0.280783 0.5713993887984717
-0.5551861714451075 -0.084024 0.7774740756081708
-0.6301482216342404 -0.062336 0.4404626864053103
-0.5790523963419718 -0.283515 0.6960528454641088
-0.5065604930501747 0.120402 0.9432643022822198
-0.559688707326448 -0.268729 0.7621133718600595
-0.6426437186908314 -0.046127 0.4791067756727355
-0.6458689593999265 -0.133882 0.44446218401157733
-0.5995130985353069 0.034764 0.6262497848882598
-0.49804905455508053 0.249118 0.87527920235772
-0.5817831152984317 0.054414 0.6867368142286079
-0.5368298111647012 0.149392 0.75882471510289
-0.6465039325747133 0.317336 0.4658378535699163
-0.640071690326551 0.208461 0.40660810606360864
-0.599552027187384 0.304129 0.528994989805652
-0.6601332209819533 -0.051699 0.4002816878224271
-0.5926652047368914 -0.067244 0.6496118347881643
-0.5725521713352935 -0.10573 0.7182287999162301
-0.4912624809804504 0.054249 0.8984320541932096
-0.5773888743077212 0.128669 0.7017280626794729
-0.5766606263289125 -0.067051 0.7042125296004362
-0.5707556012925544 0.1034 0.7243579193539254
-0.5768063777913026 0.235872 0.622441971466648
-0.564548441674776 -0.360715 0.7381820988044179
-0.5045248973543273 -0.085334 0.9501591022911431
-0.5925565807614211 -0.426756 0.6360997171957232
-0.6235470151581175 -0.298206 0.4629831459268119
-0.5094262290131346 0.289485 0.9334876514553467
-0.6545855216075932 0.142323 0.34124452511408104
-0.5484233597717514 0.324783 0.8004463191048499
-0.5551538295618517 -0.425798 0.7644980606574014
-0.5228841366639476 -0.215222 0.852326202191166
-0.6291304853382054 0.108992 0.5252080794000432
-0.6015732786356931 -0.229279 0.5379480247984747
-0.5887103315881659 -0.1242 0.6631041503187723
-0.5027276094625652 -0.081621 0.8751666680178503
-0.5565622197696853 -0.116906 0.77277959427277
-0.6274366957402008 0.330844 0.43386456907337756
-0.5909452782563056 0.291996 0.6553799365470949
-0.6242302574680929 0.262661 0.46065221886963925
-0.5465974021191342 -0.010046 0.8067752393643294
-0.6477463260850129 -0.191381 0.44642970004193827
-0.5308885003078463 -0.268863 0.7790938963715603
-0.5623555744902509 0.027278 0.7530151753063116
-0.6623999348066318 0.299531 0.41160757367903944
-0.5298174537052083 -0.396107 0.8639216180442246
-0.6297125988184424 0.290563 0.5231226171260794
