0.08385500000000001 -0.278242787095312 0.47016496006739245
-0.16583199999999998 0.12293300718487604 0.2699353575715072
0.7006410000000001 -0.31268931611592815 0.506326970388057
0.005354999999999999 -0.4585460609177608 0.5839336551504737
0.43002300000000004 -0.2584289122128396 0.4596224983936784
-0.04172500000000001 0.06184609272862496 0.3044974838836232
-0.645534 -0.4370439059122722 0.5722063187043769
-0.679527 0.09205436671098005 0.29097309391560733
-0.251192 0.07306857125462415 0.30107495547125224
0.5495649999999999 -0.05179862590953502 0.33757414004251346
-0.486039 -0.28792813825088165 0.47531829044621604
-0.602326 -0.4604947333620579 0.5498192576663492
0.39202500000000007 -0.41505535292522827 0.5308538566551112
-0.345464 -0.394716837292202 0.5321378562054007
0.31466899999999987 -0.03510613163030532 0.34079809533654026
-0.543216 -0.2946525316290581 0.4788961700830312
0.5421420000000001 -0.4437112563586328 0.576040430860459
0.025088 -0.007911299139246708 0.3142228035077895
0.10869700000000004 -0.023554761218974513 0.3225462940111852
-0.170304 -0.15103636847273066 0.4024816421432792
0.539893 0.11767274290125215 0.27734220390894604
-0.288299 -0.25954832022170504 0.46021810708207045
-0.499496 -0.08145915758731373 0.36546136804372376
-0.162439 -0.4809306898395202 0.5958439500265515
-0.548318 0.02950348551229967 0.30642095222245924
0.03603500000000004 -0.331028877847748 0.49825110384106835
0.30959199999999987 -0.4235627810537768 0.5474860532820629
0.732084 0.06176038182544241 0.3067825185969428
-0.05744000000000005 -0.4760725650187108 0.5932590646856832
-0.626973 -0.48273780986645026 0.5968054728854935
-0.57108 -0.3766344097439736 0.510411044567172
0.671049 -0.02154554366488251 0.3162654961462377
-0.396704 -0.0628697455662737 0.35557041208830603
-0.659744 -0.38765729079151484 0.5110642967479992
-0.476415 -0.47153401882503804 0.5908442190492296
-0.459436 -0.24952068657953957 0.4427770475517978
0.5608390000000001 0.058503420454459984 0.3047615597581912
-0.024561999999999973 -0.14960003027838997 0.4017174029192936
0.3678029999999999 -0.2559722904665966 0.446209782800038
0.183863 0.06701511643065725 0.3042958456733845
-0.16963400000000006 -0.0755224834980523 0.350197004619136
0.5144470000000001 -0.5060001185264491 0.6027487867596673
-0.535756 -0.20973819508274322 0.4337153993403893
-0.605666 -0.04878911336835037 0.33597285453878456
0.48467799999999994 -0.28491975782519 0.4616119980148429
0.15769500000000003 -0.23941133545654747 0.4495037268121802
0.253285 0.00723097395420412 0.3182715922851099
0.4444379999999999 -0.43310335073185907 0.5525623490986653
-0.091669 -0.16504221079185494 0.40993379659228435
0.285315 0.09838502509550195 0.2876047107101982
0.35590900000000003 0.01873492171723648 0.3121506326491196
0.579575 -0.44461732560224393 0.5413712905837549
0.034228000000000036 -0.5035883482274355 0.6025042688159591
-0.10060400000000003 -0.21742926966731368 0.437807625596912
-0.659999 0.049045137562945734 0.278705980111135
-0.48233 -0.4113004961617102 0.5409616016402927
-0.498028 0.062219992189161216 0.30520020373776896
-0.489002 -0.025925116505885887 0.32380750010608456
-0.350695 -0.17202904919611134 0.4015457072918055
0.13081699999999996 -0.44470177353997903 0.5765674599995566
-0.327869 -0.11284255776207114 0.3700540722004311
0.694572 -0.38116419465176327 0.5076094845215615
-0.623215 -0.2502543049197345 0.44316738731524713
-0.17408199999999996 -0.29801188777114734 0.4685779892205629
0.284586 -0.07502104521016936 0.3499302019890046
-0.620861 -0.30517415683733423 0.47238885143580267
-0.391047 -0.40270831789999845 0.5242843116110654
0.18591000000000002 -0.4899312796141146 0.5654816993901204
0.04890899999999998 -0.44967055229210623 0.5440599846944454
0.54002 -0.11039098359754496 0.3687496515950174
-0.16670200000000002 -0.44604836691326183 0.5421327114700982
0.7433369999999999 -0.410365059858209 0.5459769329276647
-0.453165 -0.34847882644212486 0.495430170829881
0.553007 -0.35117758849504394 0.4968661138585988
0.22253299999999998 -0.1793775919924801 0.4054556810474638
-0.72919 -0.41805657962778947 0.5368435053326075
0.48414500000000005 0.03923272806061927 0.2891386590460325
0.4512559999999999 -0.3477425596602686 0.49503842189761055
-0.10545499999999997 -0.07817798767050269 0.3516099312237756
-0.03442500000000004 -0.3954751744212362 0.5325413482111805
0.6498629999999999 0.10724229682495506 0.28289198044944375
0.22800900000000002 -0.33546766607217643 0.5006128707852598
0.504113 -0.2049224453285155 0.43115306070065884
-0.203527 -0.4842159425089138 0.5624407130741507
0.15329000000000004 -0.010478272621379403 0.32769423446897655
0.35125699999999993 -0.3975023644076648 0.5215143554316906
0.475452 -0.04092765570356616 0.33178997175477
-0.12224800000000002 -0.5012092884593817 0.6019044833376177
0.580222 -0.16694933808963536 0.39884292149290373
0.3314680000000001 -0.3275408801797454 0.4963952285036577
0.20090399999999997 -0.28254234002718176 0.46034703413642053
-0.419079 -0.1083543319599641 0.3676660007715787
-0.709335 -0.4851225923709838 0.562923118533913
0.701659 -0.12273808547576293 0.37010748818640293
0.10609800000000003 -0.19484537410867148 0.4136856966857254
-0.717097 -0.11441256391265067 0.39873901732304096
-0.009364000000000039 -0.23913413189599247 0.4493562338089033
-0.408516 -0.4823935124504744 0.5966222809387483
0.33242899999999986 -0.5180070777451 0.5936414812129287
0.581285 -0.499348681127505 0.6029658962434024
0.4996320000000001 -0.4033692961998438 0.5367416107439889
0.35899100000000006 -0.03600748460905262 0.3412776824586603
-0.323735 0.02839555408396681 0.30701045451262643
-0.710829 -0.3630629787102993 0.49797828535216965
-0.465981 -0.16364913047798302 0.40919257379237706
-0.347857 -0.46338829508860196 0.5865100854784153
0.018001000000000045 -0.09122484480661106 0.37065744321012123
0.443867 -0.2094939049376175 0.4214798094353216
-0.06124799999999997 -0.3336334281163515 0.48753130986458176
-0.631372 0.0781532770489946 0.2632182753211823
0.23212 -0.43768530013336254 0.5696681592426505
-0.267369 0.01700725494014689 0.313069880443428
0.42997299999999994 0.08130699044920768 0.2966915009916987
0.18050999999999995 -0.40612632396931275 0.5382085554867713
-0.212654 -0.06959703668771747 0.3470442242433577
-0.265915 -0.18731585446544358 0.40967942972729077
0.6450879999999999 0.036082848111382876 0.2908146304972805
-0.254764 -0.43551166701591654 0.5538437532800008
-0.12266500000000002 0.06326757147984208 0.3062898195552646
-0.64127 -0.2052429433173138 0.4423406342105481
0.21279099999999995 0.03818835923215888 0.2896943412844928
0.15128200000000003 -0.15669520548915594 0.4054925661910651
-0.11096099999999998 -0.37117420585214983 0.5075058081809699
0.3494299999999999 -0.2032691842195497 0.4181677929827571
-0.383858 0.02499318936301473 0.30882076672482095
0.014421000000000017 -0.04921727810360252 0.3362006701648651
-0.700717 -0.22416162232964 0.45922362365047154
-0.247838 -0.15300176148706085 0.3914217687579631
-0.429167 -0.42712316946052314 0.549380445900584
0.402609 -0.08739784660595531 0.3686211942636077
0.744429 -0.4557100469688054 0.5500214781357001
-0.20448500000000003 -0.014147247136241076 0.3296464030091635
-0.49609 -0.37022669724966645 0.5191072721165351
0.018584000000000045 -0.17245456548970212 0.40177211374906485
-0.17564400000000002 -0.3784927329763566 0.5113998113566556
-0.140806 -0.2302100156127243 0.43250232795409593
0.667502 -0.20821182383108228 0.45073713928676673
-0.466278 0.03786083528003817 0.2898686084953709
-0.285983 -0.3254141815256787 0.4952636659403011
0.28190899999999997 -0.5019852204288215 0.5718952964179627
0.39765000000000006 -0.18578417237129413 0.408864460425745
-0.08103099999999996 -0.2984744822479971 0.4688241240413179
-0.638678 0.0076243721846660645 0.30178591123056225
0.050821000000000005 0.04864257443042001 0.2789201737719447
-0.100889 -0.48772954177964284 0.564310210376832
-0.288708 -0.04195588458045249 0.34444267563088826
0.490872 -0.3299723989264739 0.4855833688308582
0.638806 -0.320674603067349 0.480636246822858
0.714944 -0.1657249420811911 0.3929797073219472
0.06738 -0.4121841928627152 0.5414317943036053
-0.12844600000000006 -0.1458147736320347 0.3875977543003929
0.589899 0.10030073123054764 0.2865854119295905
-0.319426 -0.5033176342270214 0.6024361224295551
-0.580487 -0.49507248549726063 0.603368441808374
0.392382 0.0533737144068934 0.3036192358699884
-0.403263 -0.020617639416533523 0.3209835257885668
-0.18415000000000004 -0.19569792302202138 0.4262449256967096
-0.564912 -0.42128247278335146 0.5462727589270814
0.31756000000000006 -0.15808941791852088 0.3941287820633282
0.10391499999999998 0.05162307905394224 0.30246646014982526
0.2914349999999999 0.037666616224872246 0.28997194754225275
0.07747400000000004 -0.12989675643341325 0.3791281799625415
0.5819529999999999 0.013069022189714286 0.31516531448042845
-0.679105 -0.47936369518988603 0.5950101918073909
0.6994449999999999 -0.5061443302790478 0.602724704184797
0.6968290000000001 -0.43849059722564615 0.5381114133775717
0.53339 0.07321481616445749 0.2658459054496245
0.703889 -0.05690753672727403 0.3350807182457872
-0.06674400000000003 -0.19696034688059982 0.4269166295014418
0.696008 0.024454658932706985 0.326941188628729
0.4104809999999999 0.11297793864955956 0.27984019050584547
0.09979700000000002 -0.06085717920525102 0.34239396713367276
-0.043783000000000016 -0.10346883990865408 0.36506655401955884
-0.704823 -0.3087955262552797 0.46910394648454923
-0.439804 -0.4556257125791749 0.5823798116637223
-0.020267000000000035 0.027318521141683066 0.30758351649988047
-0.465316 0.08427324510992355 0.2951132319120481
0.422604 -0.5207920650585667 0.588407277676207
-0.728647 -0.07476509746697316 0.34698368680106606
0.04179200000000005 -0.3019465892660315 0.47067154436580183
0.4278759999999999 -0.46365755332417286 0.5866533509752287
0.028654999999999986 0.07483243340108556 0.30013644903638853
0.5044659999999999 -0.0057313823503468975 0.32516853421859515
-0.69296 0.007225360916287338 0.3009572255195072
-0.638678 -0.13753722173599298 0.3791790421299755
-0.49633 -0.2244441088143519 0.44154004408110964
-0.574226 -0.18089161780888713 0.4062612558902021
0.6724860000000001 -0.44249650444995864 0.5753940920945068
0.6309849999999999 -0.09351511333140064 0.35977042786686214
-0.265043 -0.46845476398677105 0.5892058254332113
0.513385 -0.46811752908189214 0.5890263912699892
0.6153040000000001 -0.19716427688852406 0.4270251355006678
-0.345514 -0.3388894526986451 0.5024335169021426
-0.393549 -0.13713141623834374 0.3829775594588918
0.03404600000000002 -0.4828122684283965 0.5616938535989588
0.09226000000000001 -0.3893875391572776 0.5171966621637891
0.730836 -0.1253668030361716 0.40665739911635734
0.15236499999999997 -0.44837016743638186 0.5433680828032772
0.677611 -0.3827653168475667 0.5436126379489226
-0.5761 -0.06514740539503772 0.35678229727446636
-0.062828 0.0010539251860407078 0.3215582436988943
0.5177800000000001 -0.4554953583193097 0.5471592166550214
-0.214939 0.057767510310441805 0.30484954418824084
-0.26159 -0.37114154173832653 0.5074884284321761
0.26901200000000003 -0.11754883859429627 0.37255816519555535
0.702202 -0.17578606975724465 0.4334842156868953
-0.12556100000000003 0.0066686215081100675 0.318570805798127
0.06185700000000005 -0.01980431852489209 0.33265638761106864
0.583618 -0.3095988200395688 0.4747431028129482
-0.447461 0.08807257388465045 0.2579404683631601
0.3225850000000001 -0.06885963779036816 0.3587574822387315
-0.41047 0.045979124932985546 0.2803373278830477
0.48780599999999996 -0.13465424047109115 0.3816595168882074
0.3509229999999999 0.043825941862305165 0.28148298213461553
0.26283600000000007 -0.35970708697077053 0.5135100535590598
0.642963 -0.1261951178047282 0.3771586316735608
0.18384100000000003 -0.060153327235612175 0.35412507460078074
0.17029700000000003 -0.44686290193564354 0.5777173417575878
0.676714 -0.3018424840803397 0.4654044086061776
0.39525199999999994 -0.3314802450456712 0.48638565561301395
-0.340994 -0.2085349197546016 0.4330751669726619
0.25688200000000005 -0.1866093540541433 0.4214091280255776
0.7007620000000001 -0.2599370744866309 0.4431076000725893
0.358789 -0.10702544775824582 0.37906454439690307
-0.679847 -0.27177472589899376 0.44940611498004035
0.610938 -0.5056789137325224 0.57386061720048
0.315283 -0.4697198362870109 0.5898789384067648
-0.499338 -0.4628959871350184 0.5510969040641617
0.5173749999999999 -0.2618015105632356 0.4493113633753157
0.0012410000000000476 -0.4535884803231353 0.5461446151038174
-0.507279 -0.11845259071309899 0.3851446381370811
-0.12543400000000005 -0.2975057861122229 0.48041431462631423
-0.547002 -0.3412397525677586 0.4915784427188288
0.6725460000000001 -0.15995840177053744 0.3899114770754359
0.6443750000000001 -0.4669504491231224 0.5884054175428172
0.46635800000000005 -0.4808126949740746 0.5606299311390157
0.5917599999999998 -0.020143319057545322 0.3328367612201716
-0.441887 -0.4938871686422896 0.5675865278859282
-0.21486099999999997 -0.35010295469281566 0.5083999376907504
0.645678 -0.26677969807269303 0.45196013103607463
-0.288285 0.07960404246095738 0.2975975965436767
-0.717085 -0.2770722154698129 0.4856621739805311
-0.06611699999999998 -0.4580537529641772 0.5485204737362201
0.7214510000000001 -0.35238887600115776 0.49229886528012917
-0.454769 -0.09309287899175239 0.37165137695194883
0.42767599999999995 -0.026222624785844584 0.32396579673699
0.41794599999999993 -0.15471858519589915 0.4044408565275717
-0.3782 0.10234621100699962 0.28549706387674806
-0.299896 -0.1709334771621981 0.4009627811228036
-0.17402799999999996 0.03000114324302819 0.2940505518335047
0.12065300000000001 -0.3372262313353151 0.5015485588824813
0.12702100000000005 -0.2637295760927009 0.4503372382770886
-0.644413 -0.4268542273795462 0.5319199953005256
0.14520699999999997 -0.41352278801719183 0.530038417630625
-0.478522 -0.5037014106253785 0.5728084378140461
0.7175579999999999 -0.486203156568816 0.5634980594129284
0.18849000000000005 -0.5103091546186322 0.6020035029504629
-0.647989 -0.07589656124375016 0.3803355347067195
0.39054900000000004 -0.056498727044550306 0.34007494497705515
-0.381353 -0.26058234458512586 0.4486626759946617
0.732675 0.026086306346556495 0.32472166960045323
0.44790600000000014 -0.14148986839904454 0.38529658161550945
0.470332 -0.379859079572009 0.5242324191189364
0.04539199999999999 0.026605207520891863 0.30796305263570123
0.21338499999999994 -0.0005545617162879546 0.32241407889625245
-0.465351 0.011960207947494306 0.31575528649353596
0.30528 -0.35088601061068925 0.5088165819388606
0.049165000000000014 -0.22910713176610825 0.4440211206521557
-0.565826 -0.04065839746799524 0.33164670625795645
-0.140633 0.042766565197763784 0.2820466496630622
-0.023607000000000045 -0.3352295556242605 0.4883805689407747
-0.319601 -0.44398964492850307 0.5410373175731502
-0.09320399999999995 -0.2647013048808117 0.4629598798850231
-0.655331 -0.29801548587968396 0.46336815965966405
-0.345766 0.07661306901140219 0.29918901786565777
-0.412441 -0.20568544582859116 0.4194534246705558
0.476394 0.07253446885291787 0.3013591378501774
0.27171100000000004 -0.4538542073031577 0.5462860017088693
0.4110100000000001 -0.4442147624697182 0.5411570969229452
-0.536413 -0.3716135978663286 0.5198452068558599
0.6632009999999999 -0.1706673598218963 0.4277827019758037
0.151845 -0.12333631713663479 0.3877431454432202
0.6185480000000001 -0.43419210955628135 0.5410360408335597
-0.414661 -0.3194024682560122 0.47995937606578165
-0.534126 0.00016669722948732535 0.32203031525396836
0.09960000000000002 -0.4844725391546368 0.5977284784633248
0.23080500000000004 -0.21158970510563518 0.42259493169576523
0.23072899999999996 -0.2645876711909794 0.45079380897513044
-0.656713 -0.38914188155421875 0.5470054467472312
0.65987 0.0258033012296532 0.32202680260859506
0.05419499999999999 -0.16791072241270666 0.3993544497749691
-0.13841800000000004 -0.4669004309269848 0.55322756732169
0.20355599999999996 -0.11963669343732988 0.3736690599495356
0.6914 -0.4729394585333296 0.5915920179703023
0.074187 -0.4377494297687113 0.5708803322459259
-0.46557 -0.31876595944340025 0.4796207058257733
-0.587878 0.0776288856000466 0.2634972907477634
-0.658866 -0.1599828183639485 0.42507570533129224
-0.303591 -0.2323146439196132 0.43362214744394334
-0.359838 -0.044874716592869957 0.33389010302117417
-0.05591900000000005 -0.16533089093294245 0.4100873959937861
-0.42538 -0.24535443854462463 0.4526659016467659
-0.726186 -0.24887935954465634 0.46302339192885333
-0.660116 -0.35752478500098106 0.5301827893607407
-0.009093000000000018 -0.11289704292146654 0.3821886716733187
0.391246 -0.4974660961406652 0.5694907846861972
-0.529922 -0.48890721550505795 0.5649368207792886
-0.641962 -0.5042416927242945 0.573095908253554
-0.636013 0.06454058910506599 0.3056124790752478
0.5931869999999999 0.05038436622970348 0.27799341041059034
-0.496896 -0.056296562664400335 0.3399673784237099
0.07285399999999997 -0.08764440098206713 0.3566467703133869
0.673573 -0.23654338929189567 0.43066041187566595
-0.266876 -0.015196030034137054 0.3302044338623257
0.003843000000000041 -0.3145549372018482 0.4773801274001978
-0.649568 -0.3129285586793371 0.5064542653048978
0.522357 0.04378003554017504 0.2815074077275149
0.17949100000000007 -0.35948726631287814 0.5133930925469071
-0.21647400000000006 -0.44848140198615855 0.543427267893764
0.7274289999999999 -0.26995759272387704 0.48359050118228025
0.5399289999999999 -0.07601131308990963 0.3625627077786868
0.521857 -0.4973071896409839 0.5694062345569302
0.554929 0.09891087997679596 0.2521736798242104
0.6410770000000001 -0.03445133302766981 0.3283440842641994
-0.682507 -0.021682960435844667 0.3514898489384617
-0.615834 -0.4526365047573941 0.5807893297876221
-0.10768999999999995 -0.020343717809921086 0.33294338832763604
-0.670949 -0.1615801308811729 0.39077435811689964
-0.625359 -0.37141256560167163 0.5076326333748704
-0.699112 -0.12529383167896901 0.37146733609878047
0.4395039999999999 -0.4922218794557572 0.6018517064339122
-0.304786 -0.3960648940978309 0.5328551231353491
-0.513988 -0.4596760626932715 0.58453490051415
0.29878800000000005 -0.47240036144372893 0.556153941240209
0.36425600000000014 -0.4428967023376175 0.5421163896249745
0.4358310000000001 -0.0851027798010549 0.35529443796805527
0.7037230000000001 -0.07469328591560856 0.3796953023389922
-0.360167 -0.13104681362672188 0.3918457056044311
-0.24526000000000003 -0.10742447963522309 0.37927685916595133
0.5744669999999998 -0.40548981515670074 0.5378698852467629
0.02044199999999996 -0.38255014560155015 0.5135586579906062
-0.442506 -0.020980226622533016 0.3332820585676444
0.626479 -0.36452396884049126 0.5039673852711459
-0.587181 -0.3011238067232377 0.47023376258537497
-0.26064 -0.2791902956977954 0.45856349613182723
-0.600439 -0.5059287500625766 0.5739935487926053
0.5116290000000001 -0.038459308075184745 0.3304766264134893
-0.13805699999999999 0.0899267852430261 0.2921051262019044
0.07668699999999995 -0.2096386864151048 0.42155684399754256
0.15761199999999997 0.08753347679504968 0.29337854509325345
-0.06922399999999995 -0.4058191047365957 0.5380450919035218
-0.338308 -0.27953434381216535 0.47085216472915703
0.592128 -0.2322464179486992 0.4456914554281193
-0.195704 -0.4859530180433335 0.598516203834329
-0.574531 -0.24334098936971482 0.4394889869691923
-0.726696 -0.31006035354101535 0.4946666598956341
0.06784100000000004 -0.2588873419218597 0.447760807949147
0.5551200000000001 -0.13458248324462874 0.39372694598062186
0.42792300000000005 0.006914926582615943 0.3184397530977632
-0.504406 0.0612138441829778 0.27223131910104437
0.15324000000000004 -0.34655076091265946 0.49440429592810803
-0.445237 0.05854333217444639 0.2736522309956703
0.37661600000000006 -0.13834856728707334 0.3957307840442497
0.09014600000000006 -0.4448636306767498 0.5415023432841188
0.505973 0.023808453126502607 0.30945113491080045
-0.672508 0.06292857094718884 0.30647019316436747
-0.339024 -0.4352447718970059 0.5668506094334108
-0.524551 -0.4356593462366712 0.5418167203604582
0.49916399999999994 -0.1757189619426579 0.41561462583314596
-0.723332 0.10593984414602806 0.24843374577296684
-0.19507600000000003 -0.42197396535857074 0.5345350753388083
0.2628809999999999 -0.47972918013915283 0.5952046571047049
-0.0026810000000000445 0.0846325503619805 0.29492205467531657
-0.14646400000000004 -0.32500303955588766 0.482939298399503
-0.270552 -0.23498603874203178 0.43504352906150967
-0.11132300000000006 -0.1154501406830113 0.38354711041687517
-0.491195 -0.1851194135142944 0.4085107590516447
0.6618599999999999 -0.31311678585859803 0.503085961498976
0.19590299999999994 -0.19664896288005318 0.4146453406529058
-0.14978599999999997 -0.36037032950160186 0.5017573388366947
0.34792500000000004 -0.2903305241393352 0.4644909299163842
-0.72919 -0.45853375388050827 0.5599809498223309
-0.553792 0.06219111915601723 0.27171133580605233
0.7213880000000001 -0.40742172809630867 0.5215804539370523
0.660528 -0.3442731679368837 0.48798070228928747
-0.494687 0.09730181245600839 0.2881810607580349
0.16237199999999996 -0.31222872260929274 0.476142407452317
-0.046539 -0.125690781773578 0.38899589652519284
-0.300597 -0.47070947065446994 0.5904054978229221
0.701824 0.08440655000687834 0.29504230374805185
-0.624257 0.03507202621063296 0.2913524632640067
0.618379 -0.48524588411975217 0.598139955759091
0.586883 -0.4726360727515894 0.5562793572652883
-0.21604899999999994 -0.2014265023355289 0.4292929578567849
-0.568408 0.055024768675370636 0.30428467843140383
0.508106 -0.10478334978657253 0.3657659714777731
0.7318440000000002 -0.0774426705555217 0.3460069435617853
0.688779 -0.2393981072074065 0.4673305718783557
-0.245863 -0.520207085450813 0.5817084950361662
0.10937200000000002 -0.12505099100702355 0.3765498707428384
0.19477699999999998 -0.47525154810369136 0.5928222223511371
-0.08280299999999996 -0.4584692561095814 0.5838927892546613
0.21249699999999994 -0.30910267863500857 0.474479118520459
-0.144949 -0.4369664016271108 0.5723519829957514
0.667316 0.09750014338518168 0.25292429708292524
0.7361580000000001 -0.4739213642528301 0.5867554647391249
-0.592544 -0.1255594918060034 0.3768204311564928
-0.235744 -0.49067695515330095 0.6010296912882608
-0.042545000000000055 -0.05210584514225203 0.337737603625763
0.52389 -0.42197901294028756 0.5466433703270351
0.13114800000000004 -0.23155365834891767 0.4332172462693425
0.614533 -0.13882440397222984 0.39598396470911035
-0.727684 -0.1710675587583141 0.4186255993329756
0.7151459999999998 -0.04828832255191448 0.3656458891924592
-0.38548 -0.46278445038981325 0.5861887949872007
0.48092200000000007 -0.4453465298730032 0.5417592817325023
0.3238810000000001 -0.4425591842359439 0.5754274424232731
0.32503799999999994 -0.3814589876370726 0.5129780804363062
-0.710219 -0.3980091664318584 0.5165722679468038
-0.16002800000000006 -0.02850886345187381 0.3372878558031387
-0.103379 -0.39846904561405866 0.5220287020513981
0.669816 -0.00099068573569 0.34048001293907737
0.3645019999999999 -0.015055911927691235 0.31802427126422184
-0.552013 -0.1450273036447256 0.3871787614375809
0.6412369999999998 -0.40564455688855244 0.5258466101107434
-0.263858 -0.31267984050561 0.4763824358748472
0.19020799999999993 0.09447769083111847 0.2896837044442856
0.24095599999999995 -0.06769873752880823 0.35813979657214207
0.09291399999999994 0.058688996465820834 0.2735747267105089
-0.412959 -0.3591017259458136 0.5010823469713799
-0.61188 -0.4247678220096926 0.5481272250956709
-0.67136 -0.23466357633079366 0.46481144774913946
0.45705700000000005 -0.05665738424262559 0.35226497175690674
0.556772 -0.4726702002977587 0.5914487524734887
-0.701761 -0.5122117364971941 0.5773365669592343
-0.726008 -0.33748613022877333 0.5103251318221416
0.30669900000000005 0.07787107880054511 0.29851966267562735
-0.240796 -0.40200559804585273 0.5239104121505291
-0.621895 -0.005497436670260647 0.3250440576393965
-0.010350999999999999 -0.2774520351540604 0.45763861166223435
0.705746 -0.3254913024884519 0.47798734673286847
-0.491259 -0.5133571589962969 0.5999665136736778
0.11431000000000002 -0.3166878155531249 0.4785149780241371
-0.004901999999999962 -0.4064020112036995 0.5262496323935828
-0.327782 -0.00014581888655243458 0.32219659717486016
0.5465330000000002 -0.1613096736771208 0.40794780800039065
0.528278 -0.283277474693545 0.4728437899963352
0.399459 0.02002358069082255 0.29935936050559153
-0.09485200000000005 -0.48619755749006505 0.5986463170888121
0.177122 -0.26402796718654675 0.4504960046309344
0.04148600000000002 -0.10958472521700044 0.3804262712010422
0.21691499999999997 -0.4074799269598703 0.5268231641037773
0.3637760000000001 -0.22521833659335422 0.4419519910998161
0.402717 -0.3822912318310187 0.5255265058196619
0.6705860000000001 -0.09649644268118565 0.3561449737838388
0.24164200000000002 0.08950833146053225 0.2923277748756408
0.376773 0.10581390395559843 0.283651992166966
0.2954030000000001 -0.2988229444318027 0.48111514125334953
-0.686622 -0.2707724299416868 0.48402405545624383
-0.442542 -0.19019294492356054 0.4112102567899638
-0.709814 -0.14152141435654064 0.4152528592022285
0.742067 -0.2797251947162724 0.45396032243968476
0.6820279999999999 -0.41636874464681956 0.5614921719512507
-0.655129 0.11170668665210991 0.28051659153998143
-0.530091 -0.08631551678034888 0.3680453139387113
-0.239002 -0.012625525296455886 0.31673112400937714
-0.598839 0.10794589949298797 0.2825176112659671
-0.382998 -0.1629034020449744 0.3966901812571779
-0.699555 -0.42519277164399044 0.5310359767267451
-0.352002 0.029580923832760106 0.2942741399531219
-0.07077699999999998 -0.08885184107803837 0.3693948279464007
0.265702 -0.30765726300019075 0.4858156587176543
-0.04272600000000004 -0.34953707099117315 0.5080988452859718
-0.400176 -0.4326003961178078 0.5401891303720685
0.3615409999999999 -0.489978951564019 0.5655070644289004
0.275644 -0.1640236928677269 0.3972862596685102
0.5774870000000001 -0.4408712440837747 0.5745293321612815
-0.124108 -0.4223065368924081 0.5468176375379132
0.34141599999999994 0.10520476237348714 0.2839761009958228
-0.421073 -0.1400162027198389 0.3966180906786128
-0.293657 -0.2896445777490446 0.46412595519171496
0.09889700000000001 -0.4530867398398241 0.5810288884872119
0.2916289999999999 -0.024786286591503892 0.3232015575130044
0.35616899999999996 0.08061279653850484 0.26190962720930533
-0.704035 -0.2550533480630951 0.4405090927664502
-0.471149 -0.07720865802244734 0.3510941754352469
0.287836 -0.21006748466263814 0.4338906059971481
0.2745549999999999 -0.5149554372677689 0.5986295931199648
0.5399419999999999 -0.23811208271631595 0.43670681799336764
0.6218889999999999 0.0892390732249613 0.29247104037245436
0.740775 -0.3404599875542142 0.512698099712342
-0.316515 -0.13901622388734036 0.3839804179365865
-0.24158400000000002 -0.44802821626663897 0.5783373760388791
-0.174045 -0.11079153180069051 0.381068382460531
0.39873899999999995 -0.4698993497015241 0.5548232161501344
0.07786700000000002 -0.35834074037511804 0.500677445796779
0.4822470000000001 -0.08578494563419103 0.36776301045154763
-0.15514700000000003 -0.25291220823224037 0.4566871997392925
0.3686799999999999 0.0799659961546757 0.2974050101381241
0.007862000000000036 -0.48878861624875597 0.6000249539188047
-0.29019 -0.11055165572500036 0.36883514117016514
0.621915 0.026725270209539895 0.30789917031581066
0.42624400000000007 -0.3543033831677223 0.5106348794410415
0.11894800000000005 0.07749411727074579 0.2987202343711663
0.6413340000000001 -0.06852883188430489 0.3464758594855073
0.5508470000000001 -0.4342132970895722 0.5410473141841285
0.033685999999999994 -0.44959697654404734 0.5791720737039205
0.4567969999999999 0.09510537150485923 0.289349731433681
-0.23136400000000001 -0.08389660672964602 0.36675827308209147
0.616833 -0.47054203821134594 0.5551651744507254
-0.624505 -0.161595705376547 0.40809999823307125
0.23771200000000003 -0.4583238940136352 0.5486642089559739
-0.333266 0.05682625916400223 0.2745658421146943
-0.707602 -0.40645562750837355 0.556217653053811
0.36118499999999987 -0.3242444531252476 0.4946412830443079
-0.008889999999999953 -0.17444329587577267 0.41493587618430816
0.45445099999999994 0.04870084014696978 0.27888917205788016
-0.06437999999999999 -0.5072586708008624 0.6025314939328896
-0.140084 -0.16354584125319027 0.4091376162083535
-0.697935 0.04408314289888467 0.3164973687724931
-0.06924700000000006 0.03446994713961861 0.29167281430934056
0.675421 0.05600435943509553 0.27500315417218085
0.11948499999999995 -0.3892354458670874 0.5292213464686296
-0.512505 -0.29991498521016746 0.48169618853058993
0.566014 -0.01601023373966562 0.31853204176276423
0.41799799999999987 -0.4372463249605773 0.5692137070474987
0.07312699999999994 0.048532840649956305 0.2985681932776717
0.14796900000000002 -0.08380151213144321 0.35460206635394664
0.644901 -0.19884338890182213 0.4279185485332558
-0.696249 -0.09506509917473949 0.3905346289110214
-0.19593799999999995 0.011036535319963126 0.30414114003858067
0.019455 -0.20025437479504238 0.416563689141386
0.49570500000000006 -0.4781925033571089 0.5592357934519909
-0.316988 -0.3257876117999295 0.4954623587440785
-0.480965 -0.25952448424675284 0.4602054245626804
-0.647533 -0.11328668000027953 0.365078634386778
0.45630100000000007 0.01947358763914815 0.2996519978974434
0.3341319999999999 -0.13665116548375167 0.38272203017932926
0.32055100000000003 -0.19258423844215677 0.4245882128860168
-0.603543 0.01737097426163943 0.31287635459199464
-0.448905 -0.4154561504299799 0.5310671108700402
-0.51729 -0.02102966420021163 0.33330836305230527
-0.327795 -0.5070234392826027 0.5745760052386668
0.5611090000000001 0.0648095451452087 0.27031813756490836
0.21657700000000002 -0.13694930727599158 0.39498627318375973
-0.272503 -0.4604788427120898 0.5498108026534225
-0.398098 -0.49473731841558405 0.5680388710775067
0.2773349999999999 0.07319922770991757 0.30100543647607714
-0.591702 0.08285456319332521 0.2958680766772262
-0.013646999999999965 -0.42412689912764506 0.5477862062409606
0.290365 -0.09344600454659951 0.3718392661280977
0.717781 0.05874284811293502 0.27354607361114625
-0.22673199999999993 0.08708677296816805 0.2936162249010818
0.26638399999999995 0.050393194368574645 0.2779887131811866
0.711163 -0.4165965106296959 0.5616133604698667
-0.653182 -0.4513814456053406 0.5449703077528868
0.250007 -0.4565147061635025 0.5828528226646772
0.5573269999999999 -0.4611612578468319 0.5501738984863302
-0.661643 -0.05330800231406643 0.3683167338314156
-0.72662 -0.08383403482268548 0.37445480871550857
0.15213600000000005 0.03352092221096696 0.2921777664702407
0.258405 -0.093809973169698 0.35992731532894645
0.33640800000000004 -0.4280027013936984 0.5377428132986102
-0.655343 -0.2583321188398507 0.4422536437669926
-0.58799 -0.40223576316878445 0.5361384864885509
-0.638678 -0.04760240003311608 0.33266589876950414
0.3130470000000001 -0.40520138431721925 0.5256108091946765
-0.21811500000000006 0.05273706523887248 0.2767415987744984
0.227642 -0.5166350102263682 0.5959732392887249
0.43341699999999994 -0.11249384627665962 0.36986853163898403
-0.556233 -0.27917528786171436 0.4585555108418409
0.606018 -0.2681427627144029 0.4526853832560093
-0.703108 -0.08709977166670355 0.35114524280651693
-0.11405299999999996 -0.45359730846200635 0.5461493123332211
-0.046150000000000024 -0.07028979628749901 0.3595184334021345
0.03512599999999999 -0.02878694982631594 0.3374358185293559
-0.210152 -0.3321105741610732 0.4867210377924397
-0.030046000000000017 -0.46894207725246023 0.5894651124962969
-0.19877900000000004 -0.15286820728850015 0.40345631724455155
0.07837899999999998 -0.5029949075062528 0.6023550270307843
0.01472399999999996 -0.22567298574521993 0.4421938984141078
-0.622013 -0.47861537120903835 0.5594607907404293
-0.008561999999999959 -0.02554614004670641 0.3357114656152495
-0.197334 -0.045682241997976825 0.34642537616219937
0.705263 -0.11314336195513827 0.40015361528396365
-0.10467499999999996 -0.048378355609234674 0.34785991002209615
0.4691559999999999 -0.19828481701288253 0.41551573726141555
-0.036466 -0.2712844480370493 0.4664626038513786
-0.550347 -0.16653858033051966 0.41072997697621527
-0.312737 -0.028899950003867025 0.33749594306572356
0.576635 -0.35595954201995533 0.5115160796771797
0.5210159999999999 -0.3850570877393588 0.526998147791848
0.591942 0.09065568731835719 0.25656605903963103
-0.08110200000000001 -0.3434271160784306 0.5048478928156557
0.6644380000000001 0.008941551112844393 0.30004408412342365
0.5343010000000001 -0.19536976555761948 0.41396471211230645
0.10440499999999997 0.0008991834541891702 0.30953496856287477
-0.537759 0.06251779653335722 0.3057599077422017
-0.717097 -0.05490062634883772 0.36547252397912466
0.3689279999999999 -0.18173357295559167 0.41881484822590187
0.556201 0.0843350420820218 0.295080351306222
0.658536 -0.18499323798142464 0.4032318802185112
0.583326 -0.1914897985237366 0.4119002797893706
0.04311200000000004 -0.08035475741452933 0.36487374464531813
0.23909800000000003 -0.1194292321738572 0.3735586750585481
0.584268 0.12254112742720212 0.27071250315344497
0.17143600000000003 -0.03815095672697469 0.34241816975788403
0.5858759999999998 -0.28506012523324176 0.46168668396236207
-0.670426 -0.2141755338339914 0.41875904173545514
0.33108899999999997 -0.3099360549444478 0.4749225369761704
-0.01506799999999997 -0.09553763994678757 0.36084656312325486
-0.421055 -0.07470676346635541 0.3497629806222321
0.21251399999999998 -0.4684568318099736 0.5540556888655663
-0.601423 -0.17508157031615884 0.41527548587019725
-0.485128 -0.10230327627605265 0.3765519963888522
-0.270496 -0.06271726806540825 0.343383673369037
-0.363603 -0.08051189828643629 0.3649573553287044
-0.390077 -0.039230638110919785 0.3429926409139592
0.375227 -0.3778118341677828 0.5231431316202132
-0.704603 0.0759986305459682 0.29951594503215684
-0.14885700000000002 -0.08335544181684282 0.3664703329196433
-0.22096899999999997 -0.4214952309301469 0.5463859621557112
0.699149 -0.026462514820700556 0.35403292893763694
0.3257939999999999 -0.007442275663581216 0.3260788572770365
-0.69998 -0.45135937525816267 0.5449585646793775
-0.502823 -0.20091358746711346 0.4290200488284286
-0.258617 0.09635013908569537 0.28868742208775616
-0.345649 -0.4220039810307327 0.534551045918781
0.32009200000000004 -0.4965250165369976 0.5689900600317604
-0.478283 -0.35958992202538975 0.5013421037574057
-0.13223699999999994 -0.47712841042770365 0.5938208533223683
0.6858029999999999 -0.46212793905322586 0.5506882451060378
-0.397644 -0.2760887212107445 0.46901883609288425
-0.401662 0.055363405939166235 0.3043548339983178
0.11109199999999997 -0.27813508380108365 0.47010765386866704
0.48565100000000005 -0.5118709703367668 0.5771552539042506
-0.564018 -0.0051840377403338245 0.32487730599556436
-0.02587600000000001 -0.4549533105926193 0.5468708067696328
-0.585855 -0.4382813034814112 0.5432117974933639
0.7394430000000001 -0.37033471669848883 0.5018473932120155
-0.654867 -0.2894254045625993 0.4939488314633683
-0.347394 -0.32196527697031524 0.4813229817616822
0.4215550000000001 -0.500109240918696 0.5708971351696717
-0.408448 0.06991220941274973 0.26760313896955695
-0.345772 -0.46743276770091696 0.5535108102547345
-0.369644 -0.38402772674697944 0.5264504508433739
0.606506 -0.38136011248171525 0.5129254714669844
0.29221200000000014 -0.12029502329551384 0.3861249499136379
0.588686 -0.09034644498892883 0.37019006888445083
0.435295 -0.17301490300641603 0.4141758644667859
0.41835 -0.282739207524009 0.46045178235212353
-0.22669800000000007 0.08500302999914178 0.2595736950268343
-0.480244 -0.14344063778796895 0.39844014596431665
-0.325436 -0.19038981242038783 0.4113150050056668
-0.56804 -0.20362294328667802 0.430461628532431
-0.0044480000000000075 -0.20075821222298068 0.4289373775909231
-0.573426 -0.09563273454499038 0.3730027698513997
-0.24171200000000004 -0.186554619593142 0.4213800052032745
-0.681245 -0.401903839106394 0.5537957615732518
0.609869 -0.04136376576380235 0.33202201488731387
0.561895 -0.3162814718634448 0.4904043821221505
-0.12653899999999996 -0.33408076545551435 0.4998749360459351
-0.625595 -0.10579392238571653 0.3784092808950839
0.22846299999999997 -0.04682725160956866 0.3470346068158622
-0.077623 -0.1435485903838033 0.38639197551245746
0.05531699999999995 -0.004011910199847285 0.31214803728016544
-0.288481 -0.3714964329209478 0.5076772570542057
0.684901 -0.331682174083381 0.5164325897272248
0.25440799999999997 -0.5074498383900807 0.5748028814188666
-0.06115499999999996 0.08151356889879324 0.2965815858236516
-0.319477 -0.2629162552010595 0.4620101000995904
0.04761899999999997 -0.14517385074998718 0.38725673544568273
-0.39785 -0.37708880959423324 0.5227584285320483
-0.15233699999999994 -0.38061741670104315 0.5246359111247161
-0.20450000000000002 -0.24375831103671564 0.45181664257057297
-0.270475 -0.21038819540526782 0.4219556387739186
0.4621629999999999 -0.2725471211972338 0.4550288310055263
-0.683265 -0.4561024320782185 0.5826334620515233
-0.459564 0.060185950101549354 0.30446215036177
0.13122299999999998 -0.49786673446412116 0.6044609969379663
0.18331300000000006 0.12697269166442204 0.26539925712004947
-0.724558 -0.36904397573909864 0.5283917302498049
0.6841469999999998 -0.07645480181583686 0.3454813235915088
0.17263300000000004 -0.2878945913231712 0.4753004409744819
-0.365304 0.05966221171244669 0.30455504869211103
-0.594266 -0.02380876231685855 0.334787050868597
0.13524400000000003 -0.03328248744112583 0.3277221710911466
-0.540476 -0.19386898194951913 0.4131661831136737
0.05984800000000001 -0.2813611350462181 0.45971854484220254
-0.424094 -0.3986038668371818 0.5342060463118596
0.37298300000000006 -0.27875330282367206 0.458330983276343
-0.701445 -0.3413660618066046 0.4864339046466417
-0.20023199999999997 -0.09006419384665706 0.35793428089294715
-0.013295999999999975 -0.4423172932308738 0.5752987383376112
0.4734259999999999 -0.3506043929806986 0.5086667403208819
0.312246 0.048920660804862126 0.27877221104572747
-0.500773 -0.42881199242657936 0.550279025885516
0.52033 0.10236386728474198 0.2854876694179406
0.561895 -0.07214836882148798 0.3484017235410334
-0.477048 0.0563053989706027 0.2748429786495139
0.5975489999999999 -0.5177440328984915 0.5941358569897146
0.10831299999999999 -0.37125983879920016 0.5075513713061859
-0.394733 -0.460532694359204 0.5498394557527853
-0.09953100000000004 -0.0040984259607848295 0.3121940701283219
0.744076 -0.24022322531857443 0.4346912766484855
0.4289799999999999 -0.4098299775273779 0.5280735665710481
0.46179100000000006 -0.41600589418004824 0.5434652249124767
-0.525015 0.02064331603957928 0.2990296150014502
-0.447897 0.028962320599496466 0.30670889238490745
0.33333999999999997 -0.2598193440850502 0.46036231202476474
-0.46783 -0.5199399876447315 0.5900087020674388
-0.09157700000000002 -0.4649132168670826 0.5521702209829121
-0.665867 -0.4955406790528613 0.5684663189532454
0.45397299999999996 -0.24131733063883481 0.4505178586404438
-0.510837 -0.14798801212051282 0.40085968883017387
-0.031783000000000006 -0.2503452347501076 0.4432157687781054
-0.54187 -0.02440491099226899 0.3229986372027636
-0.608341 -0.2743789600130032 0.45600350610679863
0.136996 0.06001492077139481 0.30449198269702704
0.016245999999999983 -0.35151835465547143 0.49704742691358245
-0.09589000000000003 -0.09390683339567499 0.37208446150297203
0.39342699999999997 -0.253675208732316 0.44498756370918946
0.230024 0.021292184246610876 0.29868436864027664
0.5589390000000001 0.04156262193777299 0.2854681180067303
0.30323900000000004 -0.5146853810088985 0.5786527306381573
-0.09190900000000002 0.044631384281950695 0.298371779916241
-0.07547599999999999 -0.02967089582892679 0.32580053454208385
0.2755540000000001 -0.00413084077300227 0.3243169265277003
0.312373 0.030684690493263334 0.30579246292824125
-0.728585 0.029369312321829405 0.3100774694937105
0.19908199999999998 -0.09437472475584746 0.37233341466136927
0.25950699999999993 -0.059999966920859626 0.34193786615857136
-0.405565 0.012126176958272464 0.31566697858074594
-0.12320399999999998 -0.08654416557711239 0.3681669721802677
-0.668232 0.027579517897675876 0.2901272934062854
-0.421798 -0.4633576987979811 0.5513425691619763
0.5170590000000002 -0.2280391762643016 0.4313472792437207
-0.624171 -0.4463432267515592 0.5422895989321825
-0.435244 -0.1669546349729581 0.39884573983054594
0.30135 -0.4471986734081764 0.5427447604614033
-0.573693 0.027608966910544833 0.30742897765249805
-0.469431 -0.37341806945159745 0.5208053205459806
0.13309000000000004 -0.17238545670490102 0.41384095201030047
-0.482392 -0.3276388725212156 0.49644736775003906
-0.518445 -0.5089038328621638 0.5755765151016596
-0.340358 -0.019604802586403458 0.3325502302265445
0.44131600000000004 -0.2787565847776146 0.47043833881868913
0.19286099999999995 -0.16528410179692526 0.41006250067794636
-0.61075 -0.06356363728154832 0.3559396143194386
0.04341799999999996 -0.4247830791473797 0.5360297337350727
-0.10896799999999995 -0.18368194320446063 0.41985152675530335
-0.647538 0.09537432754500196 0.25405538992334153
0.744731 -0.1640779909274951 0.4085100353576758
0.322222 0.09731563528277405 0.253022469177463
-0.03939999999999999 0.0490530828879298 0.27870175260467167
-0.647645 -0.24357746428130694 0.4687727103768498
-0.596121 -0.3796668754462233 0.5120245428673507
-0.164655 -0.136465774567457 0.38262338836185117
0.390679 -0.34626447991162734 0.506357582346012
-0.642681 -0.2143309090781242 0.4188417129729607
-0.646633 -0.10456034354988447 0.3922792028579425
-0.15501500000000001 -0.5040679959231562 0.6026246809747708
-0.354531 -0.23700856535741865 0.4361196643179024
0.5094539999999999 0.1260133054125791 0.26717272914401113
0.087955 -0.16934063160823165 0.4122208775889567
-0.557642 -0.48577645526591 0.5984222592462547
-0.265234 0.03911114904580294 0.30130895746238845
-0.651559 -0.3199472312773521 0.47503748666733103
-0.464442 -0.013111955748257798 0.31698994134952224
0.6801819999999998 -0.3580786115036321 0.4953262296308281
-0.530584 -0.23607454826484803 0.43562269744698856
-0.696972 -0.22819638398919667 0.4262191814744467
-0.669424 -0.4304187276602997 0.5689678125472745
-0.19867499999999993 0.035858862685660894 0.3030394167747197
0.7084299999999999 -0.2842891933673478 0.4912159833962828
-0.373342 -0.41824495949938506 0.532550965638676
-0.396618 -0.0987537309375578 0.36255776379503085
0.40154 -0.03672546160088533 0.32955409055859824
-0.027837 0.08107834165244415 0.29681315923325513
0.09814199999999995 -0.2119531751255218 0.43489393419778316
0.12430300000000005 -0.5109051719442599 0.5766413770074834
0.007668000000000008 -0.06616882106243302 0.357325766716477
0.28982700000000006 -0.41314052960406983 0.5298350275974439
-0.569745 0.09430112805369491 0.28977764903236003
0.20155100000000004 -0.36070226752315815 0.5019339546622746
0.6289929999999999 -0.43398484504608675 0.5636259019536023
-0.57921 -0.35313718602283967 0.5100143754368098
0.24966100000000002 -0.24633789321487387 0.4531891730023406
-0.610698 -0.23034596895134046 0.43257466528691324
0.4685809999999999 -0.2936019831033879 0.47833719978398825
-0.510375 -0.36012755568264443 0.5016281650280923
-0.638103 -0.3952511889955142 0.5203165619337413
0.48624 -0.05313054276358989 0.35038842861011976
-0.719348 -0.055632753474275876 0.3344024383198897
-0.42085 -0.04712299426175312 0.3471919640008868
0.16961700000000002 -0.18573385197972841 0.40883768621814376
0.716372 -0.3796322103621856 0.5419455912335417
0.12989700000000004 -0.4669277981574855 0.5532421287328415
-0.13907899999999995 -0.013857050668985238 0.3173863875111964
-0.046408000000000005 -0.15135354795981193 0.3905447960282882
-0.446073 -0.2778042778950204 0.45782603111544284
0.3461669999999999 -0.05449625584696119 0.3511150899988756
-0.643481 -0.23937898749731812 0.43216916196014155
0.0028280000000000527 -0.15378456810332852 0.4039438896566579
0.656555 -0.39530960146436794 0.5429968096833467
0.03839300000000001 -0.0604802176754517 0.3421933954381338
0.22800599999999993 -0.4192714227484971 0.5452027300689135
-0.22003400000000006 -0.4582944589599321 0.5837997841124676
0.4496500000000001 -0.022461588325116744 0.334070253661589
0.38731399999999994 -0.43480169396107166 0.5577115100279613
-0.55529 -0.4693140440943649 0.5545117898406676
0.35047499999999987 -0.4522595432275946 0.580588758092083
-0.375332 -0.3257522992444448 0.49544356982646365
0.29374100000000003 -0.14800743402602945 0.40087002273486216
0.060583000000000053 -0.3914716134431569 0.5304111546765924
-0.607433 -0.19800648133683446 0.42747325118578294
-0.64777 -0.3661643038957443 0.4996284220416973
0.14216000000000006 -0.09739306543590331 0.3739393973945019
-0.18157500000000004 -0.030280920224925206 0.3261251130938811
-0.17002099999999998 -0.42242483395328195 0.5468805804119231
0.654344 -0.29270339614807955 0.46273924974291714
-0.670577 -0.06820667166849503 0.3410927021596112
-0.55086 -0.401362909536031 0.5235684538499381
-0.667604 -0.1253724021149225 0.37150914144047364
0.10283500000000001 -0.26183240904928473 0.4493278036782287
-0.61513 -0.3381543180322819 0.4899367610422279
-0.05617099999999997 -0.21879081798285527 0.42642646172038134
-0.23790100000000003 -0.37792924841476944 0.5232056047712828
-0.25279 -0.2165888308467775 0.43736044935767765
-0.035148999999999986 -0.4197077821103394 0.5333292965508728
0.4413579999999999 -0.4417302219959403 0.5749863725822637
0.43149799999999994 -0.4562210313345207 0.5475453289120074
-0.662809 -0.18107059368553197 0.43629597720796337
0.624088 -0.3306678069679168 0.4980589871584561
0.608822 -0.08495534988190623 0.3552159942370131
-0.264706 -0.1600181169602674 0.4072606033386261
-0.443439 -0.36808347443335027 0.5058613081667267
0.744853 -0.0971611576254382 0.3610737950468679
-0.502892 -0.48395374678443975 0.56230120536086
0.561623 -0.10601286022972173 0.37852577218429617
0.35256200000000004 -0.5080467734183032 0.6023957800265172
0.18685799999999997 0.04372650004765494 0.2988532459301225
-0.17491900000000005 -0.21983430399742854 0.4269816742359013
-0.425327 0.04327979622077331 0.2990909257379508
-0.462312 -0.49661476135805543 0.6041890477852043
0.6012930000000001 -0.4347815691736208 0.5577642356662225
0.19413000000000002 -0.4496261094023221 0.5791875745609527
0.527547 -0.36169430103067274 0.5145673998978377
-0.007762999999999964 0.006831692775620943 0.30637843040357354
0.13794300000000004 -0.31284404388861387 0.47646980434175645
-0.10379499999999997 -0.13826318364162882 0.383579744268449
0.20043699999999998 -0.25893677949953825 0.44778711243380787
-0.167987 -0.311195581059759 0.48769830826266614
0.2698050000000001 0.014315306096718716 0.30239658903803823
-0.17651400000000006 -0.1741910604056629 0.40269605877277703
-0.700274 -0.038587963560263866 0.36048457352364927
0.010986000000000051 0.05931438644587453 0.3046166488863802
0.33598799999999995 -0.10602282048408593 0.3664254624860557
-0.571659 -0.31111524499603127 0.48765556347509226
0.18366400000000005 -0.38026340833230904 0.5244475522256269
0.010839000000000043 -0.26995316469527564 0.46575426165729733
-0.19806400000000002 -0.3712342371964738 0.5075377493409152
0.35674300000000003 -0.5106191402448337 0.5764891867748029
-0.332911 -0.3665420813864426 0.5050411719128369
0.49196799999999996 0.004605236152309802 0.3075630716591922
0.08198400000000006 -0.15598302398385777 0.3930080231276001
0.365923 0.03781870951506246 0.30199663184709336
-0.542957 -0.25347367786444724 0.45698594352936917
-0.188766 0.05769646547750609 0.3048352392340943
-0.523424 -0.07238761138489691 0.34852901845787426
-0.548247 0.04178840741083724 0.2825671026809946
0.5976270000000001 0.041995302015016875 0.29977437261619244
0.04815899999999995 0.09209321052201323 0.29095242610623095
-0.67854 0.12642007293244226 0.26663006885913265
-0.625975 -0.08158123520534191 0.35342071315891055
-0.252223 -0.5098705828585921 0.6020805212034626
0.7310210000000001 -0.06971686403392541 0.377047474124114
0.07707700000000006 -0.10823691771297747 0.3676035276205092
-0.19364000000000003 -0.13977279538860032 0.3843829704964855
0.41321399999999997 -0.23545216447442996 0.43529154277402615
-0.269091 -0.04005366995531953 0.3313249460438015
-0.639279 0.027383731812103088 0.31474852505315265
0.739638 -0.4789543717416916 0.5596411643495323
-0.639383 -0.3701843565842396 0.5264996701217869
0.18332199999999998 -0.11938042810845981 0.38563831694741224
