0.208333 -0.157728 0.04638
0.184014 0.656603 -0.162256
0.184014 0.428643 0.378678
0.184014 -0.630059 0.50515
0.184014 -0.070314 0.007668
0.184014 0.034186 -0.536163
0.184014 0.544532 0.39596
0.208333 -0.424999 -0.003082
0.184014 -0.456663 0.502798
0.184014 0.192972 0.373499
0.208333 -0.309082 0.028934
0.208333 0.568171 -0.366522
0.184014 0.658115 0.087306
0.208333 0.431572 0.467592
0.184014 -0.339878 0.048319
0.184014 -0.025629 0.127482
0.184014 -0.259483 0.273297
0.208333 0.732657 0.40672
0.184014 -0.097647 0.409856
0.184014 0.444613 0.503662
0.184014 -0.197545 0.336565
0.184014 0.406351 -0.037423
0.208333 0.416084 0.113296
0.184014 -0.026224 -0.438866
0.208333 0.574132 0.351923
0.184014 0.068878 0.043351
0.184014 -0.150188 -0.302981
0.208333 -0.421153 -0.540344
0.184014 -0.572913 0.373352
0.208333 -0.2435 -0.481787
0.208333 -0.377553 -0.065046
0.208333 0.529508 -0.160441
0.184014 -0.587969 -0.255696
0.184014 -0.097264 0.226445
0.208333 0.294702 0.194776
0.184014 -0.119267 0.354271
0.208333 0.753559 0.343311
0.184014 -0.004919 -0.502591
0.208333 -0.278523 -0.20705
0.184014 -0.519774 -0.441703
0.184014 -0.301694 0.407865
0.208333 0.660831 0.179978
0.208333 -0.307398 -0.381532
0.208333 0.728019 0.459043
0.208333 0.173204 -0.556664
0.208333 0.294999 -0.098538
0.208333 -0.318578 0.195697
0.208333 -0.635227 0.148776
0.184014 0.610088 -0.002382
0.184014 -0.065866 -0.083782
0.184014 -0.469586 0.022723
0.208333 -0.160274 -0.046461
0.184014 0.466508 -0.279335
0.208333 0.585557 -0.287009
0.184014 -0.602331 0.2018
0.184014 0.582568 0.29783
0.184014 -0.37092 0.266621
0.184014 -0.168651 -0.170805
0.20477 0.658684 -0.599254
0.184014 0.5017 -0.05847
0.208333 0.078007 0.261449
0.184014 0.532332 -0.451801
0.208333 -0.603175 0.452296
0.184014 0.142436 -0.387999
0.184014 -0.015007 -0.274057
0.184014 0.397878 -0.282761
0.184014 -0.518515 -0.078628
0.184014 0.119961 0.456455
0.208333 -0.441104 0.404532
0.184014 0.680659 -0.429572
0.208333 0.032521 0.449198
0.208333 -0.46298 -0.52408
0.184014 0.236604 -0.067893
0.189309 0.804225 -0.28536
0.208333 0.372191 -0.42171
0.184014 0.034237 -0.216902
0.184014 -0.006915 0.477431
0.184014 -0.543482 0.290994
0.184014 0.260507 -0.196502
0.208333 -0.423065 -0.049555
0.184014 -0.365869 -0.123395
0.208333 -0.357813 -0.415526
0.208333 -0.510554 0.280824
0.208333 -0.503955 -0.229957
0.208333 -0.339551 0.310895
0.184014 0.787803 -0.012866
0.184014 0.295701 0.255928
0.208333 0.218122 -0.217008
0.184014 -0.335969 -0.205035
0.184014 -0.188257 -0.480678
0.184014 0.079822 0.497183
0.184014 0.638899 -0.475664
0.184014 0.782352 -0.222285
0.184014 0.419712 -0.549909
0.184014 -0.389674 -0.369149
0.208333 -0.152695 0.21903
0.208333 0.217826 -0.48393
0.184014 -0.313797 0.305657
0.208333 0.258975 0.312966
0.208333 0.684846 -0.257936
0.208333 0.157218 -0.142813
0.208333 0.745186 -0.230761
0.208333 -0.398698 -0.090628
0.184014 -0.047194 0.27855
0.201127 0.455226 -0.599254
0.208333 -0.465759 -0.45938
0.208333 -0.541446 0.247433
0.208333 0.599349 -0.436765
0.208333 0.292962 -0.182293
0.208333 0.55007 -0.019312
0.184014 -0.077393 0.135908
0.208333 -0.311253 -0.262507
0.208333 0.600239 0.037382
0.208333 0.377226 0.351123
0.184014 0.466458 -0.397172
0.208333 0.628288 -0.062317
0.184014 0.473093 -0.188236
0.208333 0.268687 -0.141879
0.184014 0.060327 -0.374079
0.184014 -0.519469 0.055036
0.184014 0.80194 -0.181055
0.208333 0.608408 0.217771
0.184014 -0.535264 0.114166
0.184014 0.161756 0.262708
0.184014 -0.581525 -0.302839
0.184014 0.260717 0.358427
0.208333 -0.218038 -0.329542
0.208333 0.598467 -0.082885
0.184014 -0.641732 0.17711
0.208333 -0.631242 -0.20062
0.208333 0.089066 -0.467816
0.184014 -0.626332 -0.108942
0.208333 0.433273 0.011081
0.184014 0.449581 0.173302
0.184014 0.128173 0.490928
0.208333 -0.011156 -0.106753
0.184014 0.164005 0.430418
0.208333 -0.206823 0.100423
0.208333 0.752021 -0.276534
0.184014 0.19892 -0.552485
0.184014 -0.280677 0.3817
0.184014 -0.258888 0.09186
0.184014 0.714257 -0.407235
0.185536 0.596632 -0.599254
0.184014 -0.021239 -0.086201
0.184014 0.317716 0.103118
0.208333 0.735644 -0.06011
0.184014 0.186551 -0.199511
0.184014 0.578911 0.38469
0.208333 0.481908 -0.231519
0.208333 0.390496 -0.086158
0.208333 -0.407429 -0.217874
0.184014 -0.400656 -0.569731
0.184014 -0.40725 0.084827
0.184014 0.094848 -0.574681
0.184014 -0.066836 0.472512
0.184014 0.377716 -0.390516
0.184014 -0.020722 0.19895
0.184014 -0.320656 0.091235
0.184014 0.021341 0.07391
0.184014 0.196185 -0.02821
0.184014 0.470981 -0.475898
0.184014 0.010918 -0.160269
0.184014 -0.355393 -0.022218
0.184014 0.531993 -0.354734
0.184014 0.721014 -0.130008
0.184014 -0.29176 -0.503001
0.208333 0.262537 -0.002068
0.184014 0.610872 0.1659
0.184014 0.779196 0.360128
0.184014 -0.486928 0.27994
0.184014 0.26897 0.073799
0.184014 0.536957 0.083779
0.208333 -0.290263 0.512537
0.208333 -0.55393 0.199582
0.208333 -0.25844 -0.402835
0.184014 0.743204 0.254903
0.208333 0.735145 -0.559874
0.208333 0.035873 -0.107029
0.208333 -0.563435 -0.054407
0.184014 -0.035183 -0.583013
0.208333 0.086772 -0.351875
0.184014 0.206845 0.500654
0.184014 -0.479206 -0.01995
0.184014 0.666942 -0.043209
0.184014 -0.055332 0.170936
0.184014 0.054173 0.411778
0.208333 0.784736 0.447303
0.184014 -0.592172 0.000308
0.208333 -0.131686 -0.107824
0.184014 -0.400007 -0.403833
0.184014 0.221782 0.078408
0.208333 0.311709 0.484178
0.184014 0.607975 -0.21538
0.184014 -0.631467 0.367387
0.184014 0.033392 -0.258974
0.184014 -0.268343 0.445607
0.208333 0.433657 0.19548
0.208333 0.774605 -0.55283
0.184014 0.435915 0.142775
0.184014 -0.027426 -0.221285
0.184014 0.259802 -0.30161
0.184014 0.368329 0.053881
0.184014 0.80391 0.090937
0.184014 0.31993 0.001144
0.208333 -0.408623 0.387451
0.208333 -0.151009 -0.363519
0.208333 0.105445 0.196691
0.184014 0.291722 0.369975
0.184014 0.21436 -0.383534
0.208333 0.628973 0.054744
0.208333 0.00257 0.29429
0.184014 0.011988 0.147443
0.184014 0.199606 0.126175
0.208333 -0.566043 -0.520086
0.184014 -0.557539 0.262329
0.208333 0.385658 0.297625
0.184014 0.651117 -0.407582
0.208333 0.545531 0.1356
0.208333 0.395017 0.423434
0.184014 -0.469975 -0.434406
0.184014 -0.087246 -0.515081
0.184014 0.000374 -0.199693
0.184014 0.254422 0.428783
0.208333 -0.628218 0.418345
0.184014 0.651439 0.274628
0.208333 -0.591747 -0.174227
0.208333 0.557449 -0.467278
0.184014 0.08885 -0.287715
0.208333 0.530441 0.00945
0.208333 0.042922 0.061937
0.208333 -0.317998 0.263609
0.208333 -0.424689 0.231471
0.208333 0.033449 0.319442
0.184014 0.455361 0.414398
0.184014 0.379243 0.006064
0.208333 0.213995 -0.100489
0.184014 0.411108 0.009518
0.184014 -0.591727 0.401103
0.208333 0.684846 -0.536395
0.184014 -0.412548 -0.455807
0.184014 0.624296 0.240655
0.208333 -0.2839 0.461648
0.184014 0.439428 -0.091164
0.208333 0.097107 -0.392928
0.208333 0.676904 0.373609
0.184014 -0.038991 0.511488
0.184014 0.468252 0.105651
0.184014 0.123308 0.028844
0.208333 0.527119 -0.399903
0.208333 0.117226 0.075717
0.184014 0.773937 -0.337841
0.184014 -0.192723 -0.084928
0.184014 0.215905 0.441931
0.184014 0.166161 0.517018
0.184014 0.297042 -0.216559
0.208333 0.384064 -0.033887
0.208333 0.080815 -0.223258
0.208333 -0.001676 0.227802
0.184014 0.358616 -0.319983
0.184014 0.269368 -0.42694
0.208333 0.17677 0.498247
0.208333 0.066231 0.146703
0.184014 0.343362 0.377442
0.208333 0.13716 -0.221951
0.208333 -0.044416 -0.202861
0.184014 -0.132679 0.462249
0.184014 -0.083471 -0.13013
0.184014 -0.128979 0.510977
0.208333 -0.519813 -0.499455
0.184014 0.158972 -0.309235
0.208333 0.321104 -0.37233
0.208333 0.735122 0.016798
0.208333 0.379675 -0.145943
0.184014 0.642198 -0.123359
0.184014 -0.376342 -0.322063
0.184014 0.714878 0.354582
0.184014 0.040092 0.494474
0.208333 -0.564761 -0.229164
0.208333 -0.502669 0.338522
0.184014 -0.359056 0.317662
0.184014 0.801053 -0.412463
0.208333 0.245134 0.345375
0.208333 -0.033188 -0.15029
0.208333 -0.569192 0.074988
0.208333 -0.212981 0.291788
0.184014 -0.22952 -0.238195
0.184014 0.58098 -0.231848
0.184014 -0.328411 -0.482729
0.208333 0.57128 0.445551
0.208333 0.259829 -0.372191
0.208333 0.104166 0.40721
0.184014 0.529606 0.498647
0.184014 -0.4103 -0.267153
0.184014 -0.197664 0.367631
0.184014 -0.02982 -0.534219
0.184014 0.66587 0.39186
0.208333 -0.464396 -0.19859
0.184014 0.248799 0.243496
0.184014 0.428475 -0.417657
0.208333 0.31729 0.052967
0.208333 -0.205559 -0.581368
0.208333 0.144331 -0.502463
0.208333 -0.001053 -0.224632
0.208333 0.697786 0.002491
0.184014 0.307308 0.326841
0.208333 -0.568608 0.518036
0.184014 -0.113227 -0.539156
0.184014 -0.506788 -0.279815
0.208333 0.337575 0.347415
0.208333 -0.457353 0.244246
0.208333 -0.391232 -0.188241
0.208333 0.056949 -0.002696
0.208333 0.56425 0.397606
0.208333 0.298226 -0.010211
0.208333 0.068978 0.322497
0.208333 0.517313 -0.478448
0.208333 0.588293 -0.339081
0.208333 -0.605423 0.220467
0.184014 0.671251 -0.244793
0.184014 -0.230837 -0.181855
0.208333 -0.178013 -0.449672
0.208333 0.267914 0.257953
0.208333 -0.514857 0.087864
0.184014 0.414287 0.508949
0.184014 -0.353646 -0.290888
0.184014 -0.17208 0.279005
0.208333 0.401381 0.453666
0.208333 -0.160155 0.108831
0.184014 -0.176986 0.22459
0.208333 -0.151778 0.402707
0.208333 0.180606 -0.249953
0.184014 0.456966 0.014808
0.184014 0.254379 0.152194
0.184014 -0.170772 -0.061968
0.208333 -0.625088 0.259123
0.184014 0.746469 0.456316
0.184014 0.679823 0.433702
0.184014 0.630511 0.129701
0.208333 -0.515299 0.373113
0.184014 -0.385885 -0.440465
0.208333 0.31501 -0.448417
0.208333 0.364643 0.415583
0.208333 -0.339063 0.108807
0.208333 0.314107 -0.043513
0.208333 -0.202603 -0.417213
0.184014 -0.121299 0.066651
0.184014 -0.202473 0.274423
0.184014 -0.195751 0.019953
0.208333 -0.427346 0.269583
0.184014 -0.475015 0.128423
0.208333 -0.59961 -0.30618
0.208333 0.221688 0.235668
0.184014 0.520262 -0.567783
0.208333 0.537739 0.340142
0.184014 0.768294 -0.184531
0.184014 -0.421847 0.056003
0.208333 -0.368261 -0.500769
0.208333 0.025737 0.511809
0.184014 0.800794 -0.516009
0.208333 0.410283 -0.423332
0.184014 -0.416752 0.289096
0.184014 0.360026 0.459303
0.208333 0.032437 -0.330959
0.208333 -0.072623 -0.425941
0.208333 0.71362 -0.342454
0.208333 0.699617 0.477722
0.208333 -0.599991 -0.031659
0.208333 -0.025834 0.331996
0.208333 0.036743 0.175209
0.184014 -0.505666 0.506381
0.184014 0.619089 -0.524113
0.208333 0.720694 0.152266
0.184014 0.233196 -0.547974
0.208333 0.00229 0.086323
0.208333 -0.113406 -0.178797
0.208333 -0.23198 0.480498
0.208333 0.323985 -0.089588
0.184014 0.382009 0.368605
0.208333 0.514864 -0.042365
0.208333 0.111652 -0.520077
0.184014 0.313568 0.142534
0.184014 0.164004 -0.538256
0.184014 0.144446 -0.425006
0.208333 -0.111234 0.281144
0.184014 0.283577 0.446306
0.208333 0.411409 -0.206905
0.184014 0.695449 0.135074
0.208333 0.030904 0.206383
0.184014 0.01395 -0.064449
0.184014 0.664351 -0.311918
0.184014 -0.521253 0.18718
0.184014 -0.445394 -0.124796
0.184014 0.663267 0.481579
0.208333 0.424909 -0.116296
0.208333 0.111115 0.278474
0.208333 0.259847 0.411809
0.184014 -0.258881 -0.520983
0.184014 0.697191 0.203754
0.208333 -0.297594 0.174082
0.208333 -0.644037 -0.26398
0.184014 0.197627 0.342349
0.184014 0.77921 -0.461958
0.208333 0.178467 -0.099357
0.193957 0.122531 -0.599254
0.184014 0.296045 -0.267066
0.208333 0.781249 -0.306743
0.208333 0.470042 0.396581
0.184014 -0.320197 0.178151
0.208333 0.034512 0.379722
0.208333 0.679712 -0.096972
0.208333 0.596464 -0.390543
0.208333 0.187638 0.39021
0.184014 -0.306903 -0.233946
0.184014 -0.46063 -0.095438
0.208333 -0.34571 -0.071581
0.208333 0.43516 -0.248438
0.184014 0.207581 0.27334
0.184014 0.030803 0.270291
0.208333 0.457991 -0.034601
0.208333 -0.429214 -0.464375
0.208333 -0.609149 -0.473049
0.208333 -0.243612 0.406887
0.184014 -0.216676 -0.361165
0.184014 0.366037 -0.442475
0.184014 0.513255 -0.495347
0.184014 -0.283943 0.306424
0.205243 -0.394434 -0.599254
0.208333 -0.621727 -0.355033
0.208333 0.427301 0.361468
0.184014 0.160802 -0.449942
0.184014 0.404048 -0.478207
0.184014 0.400022 0.213269
0.208333 0.13084 -0.375284
0.184014 0.780296 0.30125
0.208333 0.659756 -0.350516
0.184014 -0.569471 0.488162
0.184014 -0.631621 0.288295
0.184014 -0.342964 0.415894
0.208333 0.762169 0.156582
0.184014 0.592211 0.021375
0.208333 -0.018798 -0.422786
0.208333 0.221751 0.02312
0.208333 0.469443 0.257636
0.208333 -0.559045 0.108971
0.208333 0.123761 -0.472946
0.184014 0.007105 0.390675
0.184014 0.056505 0.129084
0.208333 -0.031928 -0.304683
0.208333 0.029368 -0.16512
0.208333 0.232857 0.182872
0.184014 0.647766 0.054609
0.208333 -0.330012 -0.146332
0.208333 -0.355643 0.366487
0.184014 0.755364 -0.108282
0.208333 0.669205 -0.442046
0.208333 -0.272747 -0.081927
0.184014 -0.566323 -0.3993
0.208333 0.329267 -0.143043
0.208333 0.31434 -0.487642
0.208333 0.716954 0.50844
0.208333 0.376427 -0.270648
0.184014 0.291109 0.177477
0.208333 0.42329 -0.335843
0.208333 0.542092 0.257078
0.184014 -0.473457 0.415344
0.208333 -0.455208 -0.364916
0.184014 -0.086524 0.260309
0.184014 0.080397 -0.143449
0.184014 0.368219 0.399234
0.184014 -0.233734 0.168181
0.184014 -0.033317 -0.467516
0.208333 0.172648 -0.211832
0.208333 0.488509 -0.352408
0.208333 -0.235122 0.221073
0.184014 0.550246 0.239654
0.184014 0.732053 0.085907
0.184014 -0.166004 0.005762
0.208333 0.788529 0.346376
0.184014 -0.631073 0.002007
0.208333 0.186675 0.115879
0.208333 0.178239 0.082676
0.208333 0.059554 -0.179444
0.208333 -0.633948 -0.578996
0.208333 -0.281095 -0.270144
0.208333 0.593048 -0.045862
0.184014 -0.3592 -0.569441
0.184014 -0.233437 -0.385245
0.184014 0.541818 -0.323803
0.208333 -0.296062 0.335373
0.208333 -0.276592 -0.48205
0.184014 -0.068739 -0.49235
0.184014 0.716238 -0.173676
0.208333 0.028283 -0.029553
0.184014 0.803237 -0.117272
0.208333 0.468418 -0.105706
0.208333 0.307049 -0.291354
0.184014 -0.314664 0.371377
0.208333 -0.591235 0.370745
0.208333 0.129898 0.175412
0.208333 -0.183008 0.329482
0.208333 0.725644 -0.29047
0.208333 0.35945 0.190076
0.184014 0.052295 0.077547
0.184014 0.513607 0.348299
0.184014 0.062447 -0.261279
0.184014 -0.590007 0.230298
0.208333 0.747889 0.270231
0.208333 -0.179886 0.13024
0.208333 -0.618083 0.048256
0.184014 0.245011 -0.2663
0.184014 0.201135 -0.143315
0.184014 0.731959 0.496419
0.208333 -0.174267 -0.405547
0.208333 -0.186964 -0.202884
0.184014 -0.548864 -0.129506
0.208333 -0.567323 -0.01298
0.184014 -0.37311 0.019708
0.184014 0.382954 0.236868
0.184014 0.476439 -0.585109
0.184014 -0.550415 -0.4781
0.184014 -0.010295 0.167863
0.184014 -0.619902 0.145042
0.184014 0.680141 -0.34699
0.208333 0.563851 -0.236134
0.208333 0.20801 -0.339622
0.184014 -0.126878 -0.012131
0.184014 0.558087 0.118326
0.208333 -0.091191 -0.208022
0.208333 0.236179 -0.293461
0.208333 0.123682 -0.417205
0.208333 0.797026 -0.575976
0.184014 0.383807 0.435574
0.208333 0.554459 0.063856
0.184014 -0.343125 -0.509843
0.184014 0.355439 -0.596773
0.208333 0.615593 0.289855
0.184014 -0.202925 -0.223621
0.208333 0.503121 -0.451622
0.184014 0.441268 -0.524159
0.208333 -0.03937 -0.514129
0.184014 -0.609469 -0.317938
0.184014 -0.559382 0.41307
0.184014 0.220265 0.220424
0.208333 -0.341011 0.001162
0.208333 0.455831 -0.494804
0.184014 0.027341 0.421962
0.208333 -0.081374 -0.101398
0.184014 -0.241447 0.044505
0.208333 0.424946 -0.373801
0.184014 -0.465162 0.370182
0.184014 0.491714 0.083523
0.208333 -0.238315 -0.166137
0.208333 -0.464965 -0.132505
0.208333 -0.209345 -0.515295
0.184014 0.130583 0.060753
0.208333 -0.185845 0.245504
0.184014 0.436887 -0.460501
0.184014 -0.621208 -0.157972
0.208333 0.064069 -0.111639
0.208333 0.127899 -0.149002
0.184014 -0.16031 -0.58797
0.184014 0.65162 0.339169
0.184014 0.21462 -0.498506
0.184014 -0.063412 0.09863
0.208333 0.774692 0.088512
0.184014 -0.259867 0.514484
0.208333 0.123213 0.470956
0.208333 -0.383397 -0.392456
0.184014 0.126803 -0.026744
0.208333 -0.371432 -0.098784
0.208333 0.427185 0.279236
0.184014 -0.258214 -0.480447
0.208333 0.693742 -0.039884
0.208333 -0.143116 0.487633
0.208333 0.423973 -0.488014
0.184014 -0.399963 0.19115
0.184014 0.167951 0.054106
0.208333 -0.638323 -0.545166
0.184014 0.018669 0.295971
0.208333 -0.483666 0.018598
0.184014 -0.081528 -0.060108
0.208333 0.570122 -0.182429
0.184014 0.126241 -0.283644
0.208333 -0.375678 -0.215576
0.208333 -0.532259 -0.360551
0.184014 0.325279 -0.213492
0.184014 0.646977 -0.076406
0.208333 -0.144587 -0.143336
0.208333 -0.412513 -0.115923
0.208333 -0.035796 0.086997
0.208333 -0.330584 -0.354232
0.184014 -0.284603 0.252624
0.184014 -0.653231 0.214411
0.208333 -0.490952 0.482993
0.184014 -0.412034 -0.03389
0.208333 -0.088352 -0.240413
0.208333 -0.085129 0.366069
0.208333 -0.610224 -0.389752
0.184014 0.450361 -0.319781
0.184014 0.647267 -0.023004
0.208333 -0.089875 -0.47594
0.208333 0.396286 0.028955
0.208333 0.459563 0.073501
0.184014 -0.455701 0.465437
0.208333 -0.290922 0.238539
0.184014 0.118374 -0.198104
0.184014 0.233177 -0.163981
0.184014 -0.531484 -0.185061
0.208333 0.25672 0.512869
0.208333 0.485825 0.347411
0.208333 0.068009 0.472562
0.208333 -0.189511 -0.376848
0.184014 0.29404 0.417001
0.184014 -0.497638 -0.10075
0.184014 0.133591 0.371722
0.184014 -0.326163 -0.09909
0.208333 0.433149 -0.553549
0.208333 0.172188 0.469533
0.184014 0.778407 -0.064046
0.184014 0.020497 -0.299487
0.208333 -0.604611 0.006122
0.184014 0.47636 -0.42328
0.208333 0.53514 -0.098467
0.184014 -0.233792 -0.210088
0.208333 -0.303296 0.296909
0.208333 0.545779 -0.56815
0.184014 0.512058 -0.309776
0.184014 0.09985 -0.502548
0.184014 0.191642 0.472117
0.208333 0.783009 0.503505
0.208333 -0.637404 -0.4635
0.208333 0.1426 -0.082765
0.184014 0.37664 0.134594
0.184014 -0.166575 0.190389
0.208333 -0.22939 -0.278098
0.208333 0.251895 0.383604
0.208333 0.633771 -0.219741
0.208333 0.294882 0.512809
0.208333 -0.477845 0.315387
0.208333 -0.260144 -0.576062
0.184014 -0.22895 0.241125
0.184014 -0.459692 0.2202
0.208333 -0.018608 -0.026744
0.184014 -0.42276 -0.594633
0.208333 0.781389 -0.235617
0.184014 0.63058 0.386165
0.208333 -0.200334 0.179851
0.208333 -0.170266 -0.008901
0.208333 -0.341487 0.061503
0.208333 0.698292 -0.465486
0.184014 0.137689 -0.360703
0.208333 0.76014 0.370219
0.208333 -0.043435 0.003779
0.184014 0.602292 0.197611
0.208333 -0.373551 0.290712
0.184014 0.133116 -0.533677
0.184014 0.082182 0.173979
0.208333 -0.386601 0.34567
0.208333 0.440761 0.053248
0.208333 0.119793 -0.177246
0.184014 0.740693 -0.415229
0.208333 -0.221312 0.383692
0.184014 -0.231697 0.433017
0.208333 0.090473 -0.18773
0.208333 -0.264226 -0.117473
0.184014 0.671965 0.219169
0.208333 -0.234501 -0.194326
0.208333 0.192528 -0.369686
0.208333 0.639172 -0.45064
0.184014 -0.035852 -0.319794
0.208333 -0.109188 0.081059
0.208333 -0.157373 -0.206711
0.184014 -0.506818 -0.5945
0.208333 -0.240208 0.01147
0.208333 -0.297258 0.146559
0.208333 0.029263 0.010917
0.208333 -0.337785 -0.107816
0.184014 -0.561644 0.136137
0.184014 0.46787 -0.071459
0.184014 0.326659 0.232729
0.184014 0.119726 0.42617
0.208333 0.650057 0.077301
0.184014 0.786288 0.227425
0.208333 0.262482 -0.066586
0.208333 0.343491 0.066626
0.208333 0.348301 -0.259056
0.184014 0.37751 -0.129287
0.208333 0.042335 0.416483
0.184014 -0.106412 -0.326904
0.184014 0.386966 -0.098363
0.184014 -0.528606 0.458132
0.208333 0.496046 0.264307
0.208333 -0.241579 -0.315472
0.208333 0.406243 0.202253
0.184014 -0.140193 0.121095
0.184014 0.302306 0.492614
0.208333 -0.068473 0.031181
0.189083 0.804225 -0.595289
0.184014 0.010356 0.00563
0.184014 -0.218546 -0.579412
0.208333 -0.210716 0.234064
0.208333 0.008223 -0.266652
0.208333 -0.57668 0.132218
0.184014 0.482281 0.406996
0.184014 0.687979 0.302827
0.184014 -0.505848 0.130228
0.184014 -0.596074 -0.394875
0.184014 0.717984 -0.535303
0.184014 -0.356884 0.231996
0.208333 -0.248854 0.279855
0.208333 -0.397883 -0.451594
0.184014 -0.300467 0.203941
0.184014 -0.047467 0.341657
0.208333 -0.257508 0.351492
0.184014 0.302461 -0.363201
0.208333 0.281499 -0.419343
0.184014 0.70417 0.074141
0.184014 0.636386 -0.20601
0.184014 0.638148 -0.326608
0.184014 -0.411305 0.462112
0.208333 -0.552642 -0.289161
0.184014 -0.619973 -0.270487
0.184014 0.497172 0.308832
0.208333 0.145381 0.145121
0.208333 -0.329342 0.400743
0.184014 0.134382 -0.133834
0.208333 -0.314893 -0.046893
0.208333 -0.08437 -0.369649
0.208333 -0.514775 -0.008553
0.208333 0.638973 -0.406297
0.184014 0.189946 -0.001731
0.184014 -0.532088 0.15733
0.208333 0.357814 0.225432
0.184014 0.423345 0.412994
0.208333 0.518311 0.114408
0.184014 -0.115916 -0.066113
0.184014 -0.106778 0.029633
0.184014 -0.320696 -0.317324
0.184014 0.597857 -0.272777
0.184014 0.233945 -0.094893
0.184014 0.117417 0.17056
0.184014 0.219831 -0.341816
0.184014 -0.216122 -0.460614
0.184014 0.407559 -0.510702
0.208333 0.099929 -0.104433
0.208333 0.499125 0.392289
0.208333 -0.027506 0.115361
0.208333 -0.078364 0.082275
0.184014 0.065122 0.209471
0.208333 0.323374 -0.417673
0.208333 -0.512136 0.253785
0.208333 -0.51568 -0.527938
0.208333 0.512801 -0.190539
0.184014 -0.532468 -0.564697
0.184014 0.371995 -0.293232
0.184014 0.130787 0.124903
0.184014 0.74458 0.169402
0.208333 0.264413 -0.47508
0.208333 -0.116301 0.125113
0.184014 0.672155 0.183569
0.208333 -0.010678 0.394519
0.184014 0.79531 -0.549953
0.208333 -0.52859 -0.086129
0.184014 -0.009637 -0.341159
0.208333 0.343361 0.312934
0.184014 0.573099 -0.310436
0.208333 -0.654376 0.067361
0.208333 -0.59322 -0.360449
0.208333 0.022582 -0.53511
0.184014 -0.050151 0.435951
0.184014 0.255968 -0.042901
0.184014 -0.537424 0.034942
0.184014 -0.149533 -0.090317
0.184014 0.335879 -0.434766
0.208333 -0.443689 -0.230724
0.184014 -0.062441 -0.577717
0.208333 0.014993 0.252912
0.184014 0.462348 -0.450405
0.208333 -0.527327 -0.246454
0.208333 -0.649721 -0.146585
0.208333 0.05335 0.300632
0.184014 0.348388 0.168423
0.208333 0.801672 -0.06913
0.184014 -0.01974 0.341647
0.184014 -0.504624 -0.028625
0.208333 -0.156689 0.337784
0.184014 -0.049404 -0.383712
0.208333 0.324763 -0.17656
0.208333 -0.394263 0.129144
0.184014 0.056667 0.471997
0.208333 0.251474 -0.510912
0.184014 -0.289952 -0.154541
0.184014 -0.604366 0.287168
0.208333 -0.211586 0.437777
0.208333 -0.247195 -0.14084
0.208333 -0.242799 -0.037087
0.208333 0.45843 -0.163461
0.184014 0.604657 -0.13943
0.184014 -0.25186 -0.165255
0.208333 -0.206454 0.063151
0.208333 -0.124377 -0.540061
0.208333 -0.507112 -0.30989
0.184014 0.652842 0.508562
0.208333 0.510877 0.046415
0.208333 0.043808 -0.132857
0.184014 0.494504 0.247524
0.184014 0.021028 -0.129241
0.208333 0.32083 0.276542
0.184014 -0.284741 -0.009866
0.184014 0.745984 0.351433
0.184014 0.561503 0.161609
0.184014 0.322605 0.296615
0.184014 -0.482966 0.49065
0.184014 0.062084 -0.344414
0.208333 0.294009 -0.506837
0.184014 0.613616 0.492073
0.184014 -0.64836 0.26267
0.208333 -0.061199 -0.537783
0.208333 -0.574715 -0.196253
0.184014 0.327059 -0.049658
0.208333 0.257427 -0.173214
0.184014 0.314114 0.031984
0.208333 -0.649466 -0.33626
0.208333 -0.086707 0.141614
0.184014 0.544019 -0.295333
0.184014 0.230099 0.417881
0.208333 0.018334 0.34138
0.184014 -0.092717 0.197799
0.208333 0.783088 0.282593
0.184014 0.698487 0.33239
0.184014 0.489777 -0.165539
0.208333 0.0994 0.506538
0.184014 0.101856 0.353222
0.184014 0.671792 -0.385684
0.184014 0.779648 0.412731
0.208333 0.358486 -0.350974
0.208333 -0.400134 0.498834
0.184014 0.563538 0.084541
0.208333 0.314116 0.166559
0.184014 -0.175275 0.251171
0.208333 -0.11879 0.166044
0.208333 0.197622 0.174959
0.208333 0.562397 -0.300031
0.208333 0.305523 -0.205673
0.208333 0.552138 -0.540128
0.184014 0.416246 -0.063582
0.184014 0.330077 -0.377886
0.208333 -0.224125 0.123498
0.184014 0.28249 -0.181629
0.208333 0.049225 -0.496131
0.184014 0.704793 -0.356546
0.184014 0.146776 0.216625
0.208333 0.037915 -0.597587
0.208333 0.528037 -0.128433
0.208333 -0.538333 0.273664
0.208333 0.315271 -0.556505
0.184014 0.587412 -0.495717
0.184014 0.146466 -0.217547
0.19963 0.804225 0.242794
0.208333 -0.243644 0.170869
0.208333 0.504332 -0.554606
0.208333 -0.193807 -0.126205
0.184014 -0.160981 0.454842
0.184014 -0.30297 0.009186
0.208333 0.730834 -0.009232
0.208333 0.079106 -0.433401
0.208333 -0.087196 -0.151567
0.208333 -0.095896 0.053522
0.208333 -0.514502 -0.204715
0.184014 -0.613556 0.170609
0.184014 -0.184004 -0.572107
0.184014 -0.04205 -0.557584
0.184014 -0.265992 0.410693
0.208333 -0.159499 -0.119576
0.184014 -0.61275 0.331508
0.208333 -0.484495 -0.009487
0.208333 -0.385915 0.210738
0.184014 0.596619 0.143774
0.208333 0.693406 0.352602
0.208333 0.542258 -0.490626
0.184014 -0.419088 0.209169
0.184014 -0.269804 -0.30755
0.208333 -0.508861 0.416921
0.184014 0.720783 -0.068112
0.184014 0.759464 0.392728
0.184014 -0.23909 -0.276625
0.184014 -0.524182 0.213239
0.208333 -0.307966 -0.192354
0.184014 0.711904 0.237064
0.208333 0.721293 -0.182049
0.184014 0.410365 0.136927
0.208333 0.700146 -0.383777
0.208333 0.26506 0.057615
0.208333 -0.521955 0.045647
0.208333 0.35462 -0.158544
0.184014 -0.600747 0.368944
0.184014 0.62111 -0.372884
0.184014 0.597744 0.448374
0.208333 -0.46519 -0.415628
0.208333 -0.259596 0.207161
0.184014 0.571982 0.203833
0.208333 0.568963 -0.429171
0.205788 -0.437961 -0.599254
0.208333 -0.295115 -0.116949
0.184014 0.802002 -0.488458
0.184014 0.337251 -0.096094
0.184014 -0.312131 -0.032921
0.208333 -0.549964 0.341869
0.208333 -0.250436 0.50753
0.208333 0.801559 -0.471863
0.208333 -0.598426 0.24561
0.208333 0.474543 -0.449266
0.208333 0.591056 0.23724
0.184014 0.698586 0.03447
0.184014 0.428651 -0.165478
0.184014 -0.015635 0.428412
0.184014 -0.211398 0.474687
0.208333 0.372466 -0.493121
0.208333 0.30166 0.346211
0.184014 -0.123207 -0.231244
0.184014 0.504578 0.011051
0.208333 -0.648386 -0.521212
0.208333 -0.261236 0.116183
0.208333 0.013686 -0.368491
0.184014 -0.284799 -0.344563
0.184014 0.093629 -0.45997
0.208333 0.779248 -0.488711
0.208333 0.694875 0.149625
0.208333 0.568785 -0.110402
0.184014 0.690166 -0.216616
0.184014 0.628661 -0.296614
0.208333 0.225628 0.301334
0.208333 0.181214 0.211963
0.184014 -0.431577 0.482426
0.208333 0.696175 -0.41684
0.208333 -0.608536 0.100305
0.184014 0.377053 -0.58054
0.184014 -0.461466 -0.405946
0.208333 0.457832 -0.304854
0.184014 -0.386313 -0.158924
0.208333 -0.407826 -0.320356
0.184014 0.477533 0.035386
0.208333 0.213213 -0.595613
0.184014 -0.332031 0.496674
0.184014 -0.617465 -0.019993
0.184014 0.254155 -0.365452
0.184014 0.559383 -0.365941
0.208333 0.046155 0.227271
0.208333 -0.629229 0.358903
0.184014 -0.523835 0.43118
0.184014 0.499007 -0.110673
0.184014 0.476134 -0.134922
0.208333 -0.635554 -0.291025
0.184014 -0.641422 -0.480569
0.208333 -0.487869 0.190057
0.208333 -0.17724 -0.171995
0.208333 0.401995 -0.275131
0.184014 -0.433528 0.171698
0.184014 0.47148 0.299072
0.184014 -0.05307 -0.224103
0.208333 -0.174632 -0.563785
0.208333 -0.574317 -0.494492
0.208333 0.201708 0.507504
0.208333 0.667775 -0.566899
0.184014 -0.311455 0.269027
0.208333 -0.128744 0.102558
0.184014 0.683384 0.462833
0.208333 0.651796 -0.383958
0.184014 -0.139686 0.085016
0.184014 0.252355 -0.336523
0.208333 -0.299787 -0.507198
0.184014 0.764383 0.493424
0.184014 -0.425034 -0.198164
0.208333 0.491619 -0.478106
0.208333 0.644665 0.206305
0.208333 -0.30896 0.359019
0.208333 0.488435 -0.023312
0.208333 0.539225 0.188158
0.184014 0.426225 0.337394
0.184014 0.283537 0.344873
0.208333 0.565437 0.24647
0.208333 0.656447 0.312836
0.208333 -0.360231 -0.304802
0.184014 -0.500883 -0.354425
0.184014 0.082301 -0.231158
0.208333 -0.651739 -0.081107
0.184014 0.559392 -0.053195
0.184014 0.692073 0.254391
0.208333 0.608842 0.106474
0.184014 0.423183 -0.016212
0.208333 -0.068882 2e-06
0.208333 0.249207 0.289373
0.184014 -0.009781 0.371523
0.184014 0.101574 -0.067322
0.184014 -0.292015 0.436076
0.208333 0.384298 -0.119121
0.184014 0.496029 -0.265675
0.184014 -0.343349 0.258758
0.184014 -0.585153 -0.341596
0.184014 -0.16943 0.121816
0.208333 -0.400306 0.003182
0.184014 -0.2102 -0.063157
0.208333 0.191722 0.306625
0.184014 0.160568 0.100482
0.184014 -0.040685 -0.150802
0.208333 0.601149 -0.250815
0.208333 0.151849 -0.004187
0.184014 -0.261374 0.318158
0.208333 0.422506 -0.2982
0.208333 -0.346964 0.187097
0.208333 -0.432762 0.132024
0.208333 0.503057 0.437367
0.208333 0.20689 0.439244
0.208333 0.376948 0.047503
0.208333 -0.19692 -0.488894
0.208333 0.68354 0.523561
0.184014 0.554967 -0.009361
0.184014 -0.3585 -0.153636
0.208333 -0.532046 0.503525
0.208333 0.751631 0.205897
0.208333 0.05862 -0.308517
0.208333 -0.396639 -0.367323
0.184014 0.739048 0.410018
0.184014 -0.64543 -0.423355
0.208333 0.53873 0.3822
0.184014 0.226714 -0.43199
0.208333 0.476178 -0.286772
0.184014 0.338672 -0.192017
0.184014 -0.388038 0.148609
0.184014 -0.572066 0.019986
0.208333 0.632185 -0.477096
0.208333 0.335954 -0.293784
0.184014 -0.400532 0.236075
0.208333 0.00778 -0.044306
0.208333 -0.613867 -0.414746
0.208333 0.157636 0.176973
0.208333 -0.551476 0.45905
0.208333 -0.276457 -0.436377
0.208333 0.799281 -0.174005
0.208333 0.23289 0.000469
0.184014 0.166599 -0.567105
0.208333 0.687667 -0.071195
0.184014 0.140301 0.441532
0.184014 -0.641185 0.473416
0.208333 -0.229098 -0.40944
0.208333 -0.362026 -0.022305
0.208333 0.459609 0.437619
0.184014 0.305341 -0.593172
0.208333 -0.381073 0.107691
0.208333 0.205982 -0.124354
0.201829 0.804225 0.071897
0.208333 0.038799 0.104762
0.187053 0.761513 -0.599254
0.208333 0.341027 0.392833
0.208333 0.746438 -0.102622
0.208333 0.704349 0.441687
0.184014 -0.168698 0.321199
0.208333 0.402598 -0.582157
0.208333 -0.155979 -0.466764
0.184014 0.476358 -0.312385
0.208333 0.079876 -0.323894
0.184014 0.426893 -0.276378
0.184014 0.735029 -0.580972
0.208333 0.299053 0.26119
0.184014 0.352835 0.521829
0.208333 0.128162 0.396563
0.184014 0.054096 0.352487
0.208333 0.080383 0.228194
0.184014 -0.167772 -0.257015
0.208333 -0.649515 0.253542
0.184014 -0.57279 -0.10568
0.208333 -0.211154 0.209045
0.208333 0.197727 -0.546772
0.184014 0.159093 0.385903
0.208333 0.455648 0.227292
0.184014 -0.64369 -0.336725
0.208333 -0.478303 -0.074352
0.208333 -0.176357 0.407256
0.208333 -0.412007 -0.171985
0.208333 0.555164 0.005895
0.184014 -0.494968 0.059856
0.208333 0.717934 0.30402
0.208333 0.616826 0.241557
0.208333 -0.177963 -0.288602
0.208333 0.656732 0.131889
0.184014 -0.445007 0.408577
0.208333 0.584859 -0.311958
0.208333 0.347818 0.257512
0.184014 -0.501748 -0.057353
0.208333 0.680866 -0.187659
0.208333 0.740788 -0.420718
0.208333 0.501601 0.197534
0.184014 0.059452 0.26322
0.208333 0.219039 -0.188636
0.184014 0.457708 -0.214406
0.184014 0.540734 -0.262332
0.208333 0.037124 -0.557169
0.184014 0.758133 -0.318618
0.184014 0.462135 -0.370725
0.208333 0.372115 -0.055887
0.184014 0.771892 0.252483
0.184014 0.718078 -0.252158
0.184014 -0.195874 -0.297135
0.184014 0.744037 -0.207073
0.184014 0.573251 -0.474882
0.208333 -0.124807 -0.029004
0.184014 0.584041 -0.336313
0.184014 -0.384701 0.074426
0.184014 0.531826 -0.528877
0.184014 -0.617299 0.5309
0.184014 0.79108 0.510081
0.208333 -0.64732 -0.027018
0.184014 -0.368961 -0.224484
0.208333 0.703216 -0.489782
0.184014 0.571235 0.408255
0.208333 0.055213 -0.155044
0.208333 -0.10887 0.451929
0.208333 -0.647844 0.319382
0.208333 -0.553687 0.174817
0.208333 -0.22137 -0.25467
0.184014 0.627771 -0.232828
0.208333 -0.443868 -0.315015
0.184014 0.086837 -0.017416
0.208333 0.148851 -0.03695
0.208333 0.109445 -0.233148
0.184014 -0.573036 -0.279016
0.208333 0.330431 0.500332
0.184014 -0.231169 -0.019519
0.184014 -0.46588 -0.217161
0.184014 -0.355243 -0.057174
0.208333 0.516354 -0.424572
0.184014 -0.222497 0.379448
0.184014 0.764684 0.126774
0.208333 -0.592502 -0.149529
0.208333 0.625904 0.413531
0.184014 0.526977 -0.132469
0.208333 -0.083633 0.47893
0.208333 0.544685 0.282249
0.184014 -0.087035 -0.562153
0.184014 -0.076884 -0.240287
0.184014 0.352151 -0.398492
0.208333 -0.489015 -0.199979
0.184014 -0.395235 -0.088564
0.184014 0.288924 -0.410937
0.184014 0.486827 0.343565
0.208333 -0.336167 -0.440223
0.184014 0.126376 -0.053579
0.208333 0.797924 -0.147505
0.208333 0.797295 -0.364567
0.208333 -0.277908 0.378958
0.184014 -0.144434 0.058208
0.208333 0.063574 0.206014
0.184014 -0.333939 -0.564264
0.184014 0.778878 -0.120757
0.208333 -0.137337 -0.05537
0.184014 0.740478 0.119114
0.208333 0.507209 -0.214497
0.184014 0.729802 -0.55688
0.184014 0.541151 -0.426044
0.184014 -0.120144 -0.275341
0.184014 0.247567 -0.400518
0.184014 -0.051865 -0.021699
0.184014 0.200793 0.025154
0.184014 0.574915 0.439287
0.184014 -0.347052 0.206255
0.184014 -0.24399 -0.32869
0.208333 -0.37709 -0.27505
0.184014 -0.394962 0.441759
0.184014 -0.556623 -0.075475
0.184014 -0.079666 0.167665
0.184014 -0.018165 -0.563267
0.208333 0.442594 0.388579
0.184014 -0.315107 -0.45902
0.208333 0.491469 0.167227
0.208333 0.28005 0.300392
0.208333 0.102311 -0.024244
0.208333 -0.564477 0.041885
0.208333 0.00633 0.019626
0.184014 -0.220755 0.350835
0.208333 0.079199 -0.569556
0.208333 0.320947 0.460769
0.208333 -0.018558 -0.476487
0.208333 -0.612558 0.475882
0.208333 0.77513 0.470756
0.184014 0.605722 0.415225
0.208333 0.497673 0.494105
0.184014 -0.14345 -0.398715
0.184014 0.354688 0.435409
0.184014 0.497724 -0.526994
0.208333 -0.164762 0.507301
0.208333 -0.105572 0.352624
0.208333 0.463272 0.332459
0.184014 -0.459962 -0.246341
0.208333 0.768873 -0.14371
0.184014 0.156683 0.012328
0.184014 0.04114 0.214149
0.184014 0.01307 -0.030392
0.184014 0.347079 -0.499932
0.208333 -0.052129 -0.596798
0.184014 -0.269122 -0.084702
0.184014 -0.213405 0.154698
0.208333 0.367119 0.511049
0.208333 0.076612 -0.525868
0.184014 -0.280143 -0.056424
0.184014 -0.453932 0.143996
0.208333 0.400818 -0.536307
0.208333 -0.074396 0.338839
0.208333 -0.358169 -0.56959
0.184014 0.68865 -0.310612
0.208333 0.001772 -0.33361
0.184014 -0.318842 -0.511323
0.208333 -0.4326 -0.419291
0.184014 -0.578253 0.339995
0.191172 0.804225 -0.261121
0.184014 0.278706 -0.533922
0.208333 -0.140625 -0.571107
0.184014 -0.462995 0.283989
0.184014 -0.373652 0.170072
0.208333 0.655527 -0.209009
0.208333 -0.652644 0.100241
0.208333 0.291728 -0.562345
0.184014 -0.621998 -0.215198
0.184014 0.236413 0.454819
0.208333 0.638946 0.032686
0.208333 -0.513587 0.188597
0.184014 0.116031 -0.099935
0.208333 0.000305 0.468147
0.208333 -0.007302 0.424061
0.184014 -0.357779 -0.18662
0.184014 0.782211 0.384535
0.208333 0.478699 0.092522
0.208333 0.581438 0.174926
0.208333 0.20357 0.408383
0.184014 -0.527941 0.309479
0.208333 -0.161663 0.472168
0.208333 -0.090052 0.430328
0.208333 -0.524685 0.137961
0.184014 -0.052185 0.119976
0.184014 -0.157713 0.369113
0.184014 -0.012566 0.294059
0.208333 0.119311 -0.090187
0.208333 0.032638 -0.306909
0.184014 -0.566952 -0.362442
0.195114 -0.639 -0.599254
0.208333 0.477535 -0.538316
0.208333 0.698805 0.1939
0.184014 0.320786 0.394078
0.208333 -0.466948 0.036008
0.208333 0.235757 0.10779
0.208333 -0.40381 -0.523779
0.208333 0.651218 -0.505756
0.184014 -0.330122 0.323209
0.208333 0.415647 0.053372
0.208333 -0.041065 0.245644
0.208333 0.407044 0.091161
0.208333 0.243063 0.204482
0.208333 -0.19492 -0.004841
0.184014 -0.325338 -0.152754
0.184014 0.026156 0.461403
0.208333 -0.496319 0.235881
0.208333 0.766489 0.133087
0.184014 0.470767 -0.550629
0.184014 0.031633 0.388408
0.208333 -0.553404 0.00639
0.208333 -0.573183 0.261995
0.208333 -0.241279 -0.376234
0.184014 -0.372947 0.406133
0.208333 -0.354929 0.486075
0.208333 -0.313878 0.096383
0.208333 0.194323 -0.042593
0.184014 0.444653 0.102553
0.184014 0.276565 -0.284725
0.184014 -0.1808 -0.503269
0.184014 0.447516 -0.26452
0.184014 -0.072567 -0.282467
0.208333 0.243869 -0.588848
0.208333 0.744064 -0.537841
0.184014 0.174028 0.451965
0.208333 0.686648 0.49763
0.208333 -0.471118 -0.258423
-0.205103 -0.332429 -0.126367
-0.205103 0.416968 -0.411997
-0.205103 0.053953 0.29861
-0.203891 -0.181317 -0.599254
-0.180783 0.089371 -0.138428
-0.205103 -0.592903 -0.490102
-0.192777 0.804225 -0.314634
-0.180783 0.358942 0.12519
-0.205103 0.631071 0.389972
-0.180783 0.146066 -0.594743
-0.205103 -0.251028 0.375294
-0.180783 0.507409 -0.141949
-0.205103 0.026595 -0.378313
-0.205103 0.391313 0.363533
-0.205103 -0.006899 0.081602
-0.205103 -0.446185 -0.319317
-0.205103 0.297649 -0.216036
-0.189875 0.804225 0.248643
-0.205103 0.803822 0.516995
-0.205103 -0.321376 0.097761
-0.205103 0.550366 0.194209
-0.205103 0.621328 -0.411756
-0.205103 0.75688 -0.112907
-0.205103 -0.477306 0.403315
-0.205103 -0.254622 -0.399759
-0.205103 0.213181 0.447277
-0.205103 0.1965 0.02382
-0.205103 -0.115711 -0.241172
-0.205103 -0.427617 -0.590499
-0.205103 0.348999 -0.586568
-0.205103 -0.124747 0.237823
-0.205103 0.237458 0.260722
-0.205103 0.800816 -0.493794
-0.205103 0.35474 -0.053106
-0.205103 -0.50159 -0.150743
-0.205103 0.517799 0.02458
-0.205103 -0.165351 0.024431
-0.205103 0.488366 0.497828
-0.180783 -0.356377 0.26498
-0.205103 0.530472 -0.595981
-0.180783 -0.36896 0.506699
-0.180783 -0.044561 -0.067783
-0.205103 -0.550692 0.089198
-0.205103 -0.607163 0.510265
-0.180783 0.134225 0.161762
-0.180783 -0.274206 -0.259105
-0.180783 0.502549 -0.299498
-0.205103 0.155198 -0.284985
-0.180783 0.764112 0.380034
-0.180783 -0.307438 -0.521392
-0.205103 -0.178237 -0.114257
-0.180783 0.015571 -0.252684
-0.198853 0.804225 0.107748
-0.205103 0.418185 0.238974
-0.180783 0.523484 0.314669
-0.205103 0.017278 0.429139
-0.205103 0.108584 -0.478047
-0.205103 0.654832 -0.185904
-0.205103 0.677814 0.169139
-0.205103 0.282053 -0.476622
-0.205103 0.639119 -0.032031
-0.205103 -0.411294 -0.018835
-0.180783 -0.197393 0.137975
-0.205103 0.6865 -0.303125
-0.180783 -0.647946 0.157154
-0.205103 -0.411771 -0.469576
-0.180783 0.059808 -0.012646
-0.205103 -0.138016 0.493553
-0.205103 -0.009781 0.198646
-0.180783 -0.288891 -0.011581
-0.205103 0.38945 -0.291581
-0.205103 -0.440578 0.124594
-0.205103 -0.094022 0.35592
-0.205103 -0.244663 0.253292
-0.196947 0.804225 -0.009079
-0.205103 0.156009 0.346428
-0.205103 0.39692 -0.163259
-0.205103 -0.460618 0.289196
-0.205103 -0.359122 0.394183
-0.205103 0.381016 0.476331
-0.205103 0.453354 -0.518833
-0.180783 -0.396052 -0.211446
-0.205103 0.693033 -0.504009
-0.180783 0.757235 -0.217886
-0.205103 -0.64949 -0.391107
-0.205103 -0.16486 -0.336709
-0.205103 0.469789 0.120272
-0.205103 0.617219 0.072145
-0.205103 0.318425 -0.372253
-0.205103 0.653878 0.280416
-0.205103 -0.347571 -0.351207
-0.205103 0.306771 0.039089
-0.205103 -0.562346 -0.241864
-0.205103 -0.239948 0.479183
-0.205103 0.184082 -0.169709
-0.205103 -0.118382 -0.515879
-0.180783 -0.536628 -0.592694
-0.205103 -0.634842 0.373081
-0.194592 0.246863 -0.599254
-0.205103 0.670409 0.497656
-0.205103 -0.534035 -0.407485
-0.205103 0.226555 0.119837
-0.205103 -0.561684 0.231823
-0.205103 -0.508523 -0.003837
-0.205103 -0.099391 0.117819
-0.180783 0.12613 -0.384631
-0.205103 0.569606 -0.506113
-0.180783 0.452657 -0.043116
-0.180783 -0.490953 0.504495
-0.205103 -0.055034 -0.429801
-0.205103 0.12547 0.488318
-0.205103 0.571936 -0.239732
-0.205103 0.513573 0.405352
-0.205103 -0.048215 -0.320868
-0.180783 0.552867 -0.059717
-0.205103 0.28542 -0.115513
-0.205103 0.17755 -0.06707
-0.205103 -0.210815 -0.510097
-0.205103 0.313916 0.313684
-0.205103 0.308466 0.419789
-0.180783 -0.195127 -0.201715
-0.205103 0.094397 0.083071
-0.205103 0.058411 -0.598203
-0.180783 -0.559708 0.431636
-0.180783 -0.184661 0.315782
-0.205103 0.233001 -0.344396
-0.205103 0.396328 0.036515
-0.180783 0.131901 0.262052
-0.180783 -0.427129 -0.102301
-0.205103 -0.077388 0.022258
-0.180783 0.544497 -0.37669
-0.180783 -0.006067 -0.158677
-0.180783 0.463595 -0.221335
-0.180783 -0.353197 0.174749
-0.205103 0.716658 -0.39781
-0.205103 0.710199 0.022518
-0.180783 -0.162664 0.413694
-0.205103 0.590585 0.466878
-0.180783 0.363986 -0.479929
-0.205103 -0.426931 0.211221
-0.205103 -0.625562 0.042507
-0.180783 0.095669 0.400797
-0.205103 0.024348 -0.471786
-0.180783 -0.501418 -0.493979
-0.205103 -0.159356 -0.438175
-0.180783 -0.246609 0.071239
-0.180783 0.605539 -0.318705
-0.180783 -0.025138 0.296284
-0.180783 0.601113 -0.126035
-0.194912 0.429294 -0.599254
-0.180783 -0.394823 0.061445
-0.205103 0.34521 0.20239
-0.180783 -0.255867 -0.108404
-0.205103 0.8023 -0.394743
-0.205103 0.739192 0.454789
-0.184515 -0.654961 0.448848
-0.205103 0.495846 -0.435965
-0.180783 0.054772 0.153768
-0.205103 0.729597 0.304978
-0.205103 -0.06191 0.435328
-0.205103 0.116442 -0.211157
-0.180783 0.268697 0.183834
-0.205103 -0.272959 0.179814
-0.205103 0.080835 -0.321303
-0.205103 -0.107284 -0.148119
-0.180783 0.178774 -0.453093
-0.205103 0.249865 0.360437
-0.180783 -0.536763 0.161467
-0.205103 -0.593387 0.307632
-0.205103 -0.432028 -0.395715
-0.180783 0.711816 0.234708
-0.205103 -0.217754 -0.046843
-0.180783 -0.301573 0.438111
-0.180783 0.758873 0.165892
-0.205103 -0.342636 -0.426806
-0.180783 -0.525488 -0.336532
-0.180783 -0.293784 0.318335
-0.205103 0.640697 -0.566581
-0.200252 -0.256322 -0.599254
-0.205103 0.556154 0.119575
-0.180783 -0.35296 -0.272645
-0.205103 0.054448 0.510883
-0.180783 -0.331976 -0.591743
-0.205103 -0.249806 -0.325539
-0.180783 0.431041 0.421222
-0.205103 0.06229 0.225257
-0.205103 -0.620848 -0.116754
-0.205103 0.224104 -0.259197
-0.205103 -0.525909 0.348241
-0.205103 -0.417617 0.348554
-0.205103 -0.074162 -0.581448
-0.205103 -0.133472 -0.056463
-0.205103 0.252164 -0.023196
-0.205103 -0.485458 -0.257988
-0.205103 0.212905 -0.512526
-0.205103 -0.006728 0.005452
-0.205103 0.449035 -0.341977
-0.205103 0.733137 0.095955
-0.180783 -0.413502 0.449723
-0.205103 -0.518376 -0.075383
-0.205103 -0.472424 0.058588
-0.205103 0.302443 -0.301987
-0.205103 0.672185 -0.115973
-0.180783 0.003673 0.361974
-0.180783 0.487394 0.252757
-0.205103 0.017214 -0.095497
-0.205103 0.459439 0.335286
-0.205103 0.618983 0.218434
-0.205103 -0.270637 -0.192762
-0.180783 -0.077599 0.191067
-0.205103 -0.378877 -0.539828
-0.205103 0.728284 -0.565856
-0.205103 0.802172 -0.166442
-0.205103 -0.109194 -0.38539
-0.180783 0.593833 0.306457
-0.180783 0.694086 0.372541
-0.205103 0.73236 0.528857
-0.180783 0.12454 0.025779
-0.205103 -0.269321 -0.466954
-0.180783 0.473754 0.184326
-0.180783 0.367561 -0.231304
-0.198219 0.804225 0.435888
-0.180783 0.110537 -0.058027
-0.205103 0.166253 0.088307
-0.180783 0.630155 -0.474619
-0.205103 -0.346812 0.019994
-0.205103 -0.211355 -0.264555
-0.205103 0.104572 -0.54773
-0.205103 -0.050373 -0.20289
-0.205103 0.407885 -0.093467
-0.180783 0.391693 0.30144
-0.180783 0.346852 -0.123944
-0.205103 -0.436334 -0.163749
-0.205103 -0.434282 0.530847
-0.180783 0.692998 -0.234896
-0.205103 0.207134 0.187947
-0.180783 -0.653672 -0.022396
-0.205103 -0.353093 -0.063439
-0.180783 -0.177084 0.205369
-0.180783 -0.641397 -0.452839
-0.205103 0.261933 -0.41405
-0.205103 0.153377 0.420595
-0.205103 0.634478 -0.258203
-0.180783 -0.531528 0.284219
-0.180783 -0.333875 -0.193666
-0.205103 0.733584 -0.037755
-0.205103 -0.62977 -0.329541
-0.180783 0.409501 0.165228
-0.205103 0.581445 0.014371
-0.205103 -0.59892 -0.18268
-0.205103 0.77364 0.046136
-0.180783 0.00962 -0.316985
-0.205103 -0.481943 0.179573
-0.180783 -0.036527 0.130937
-0.180783 0.199736 0.304176
-0.180783 0.672345 0.440186
-0.180783 0.387887 -0.362765
-0.180783 0.049546 -0.186019
-0.180783 -0.030346 -0.375938
-0.180783 0.261294 0.073424
-0.180783 0.653317 0.02385
-0.205103 -0.409456 -0.267538
-0.205103 -0.475394 -0.439436
-0.180783 -0.106751 -0.296931
-0.180783 0.575741 0.378709
-0.205103 -0.60521 0.117317
-0.180783 0.5265 -0.206979
-0.180783 0.284873 -0.532776
-0.205103 -0.133071 0.17082
-0.180783 0.658373 -0.369929
-0.205103 -0.538148 -0.53701
-0.205103 -0.083051 0.296153
-0.205103 0.467914 -0.102658
-0.180783 -0.55659 0.031974
-0.205103 0.431833 0.519552
-0.180783 -0.359307 -0.487131
-0.205103 0.243651 -0.179399
-0.180783 0.802654 -0.082024
-0.205103 -0.582024 -0.371039
-0.180783 0.272602 0.474873
-0.180783 0.049378 0.051611
-0.180783 -0.201088 -0.387533
-0.205103 0.455581 0.026939
-0.205103 -0.292232 -0.067455
-0.180783 -0.222027 0.00761
-0.180783 0.352862 -0.41455
-0.205103 0.457338 -0.167267
-0.205103 0.095276 0.341552
-0.180783 -0.646883 -0.221065
-0.205103 0.563755 -0.446976
-0.180783 0.297957 -0.052152
-0.205103 0.511009 -0.496552
-0.180783 0.35462 0.002015
-0.205103 0.446513 -0.275966
-0.180783 0.681887 0.112033
-0.205103 -0.4933 0.237345
-0.205103 0.577475 -0.181196
-0.205103 0.294496 0.246662
-0.205103 -0.588259 -0.57896
-0.180783 -0.651031 0.089356
-0.205103 0.623315 0.130329
-0.205103 -0.256584 0.123502
-0.205103 0.07287 -0.431742
-0.180783 0.043459 -0.547225
-0.180783 -0.096649 -0.465448
-0.191836 -0.001795 -0.599254
-0.180783 -0.609967 0.252551
-0.205103 0.73531 -0.170412
-0.180783 -0.548405 0.501184
-0.205103 0.197113 -0.404472
-0.180783 0.741996 -0.302925
-0.205103 -0.365758 0.315871
-0.180783 -0.455877 0.007318
-0.18914 0.804225 -0.249206
-0.180783 -0.060216 -0.126936
-0.180783 0.191649 0.386169
-0.180783 -0.384466 0.117415
-0.180783 -0.301231 -0.327189
-0.180783 0.009072 -0.04327
-0.205103 0.172486 -0.338906
-0.205103 -0.587442 0.170968
-0.205103 0.324648 0.480358
-0.205103 0.419162 -0.468455
-0.180783 -0.188327 0.509724
-0.205103 0.538287 0.250532
-0.180783 -0.480939 -0.199545
-0.180783 -0.313612 0.371043
-0.180783 -0.376423 -0.156843
-0.205103 -0.132492 -0.570223
-0.180783 0.303197 0.12137
-0.205103 0.555483 -0.314054
-0.205103 0.130266 -0.104257
-0.180783 -0.58529 0.381477
-0.180783 0.690117 -0.440425
-0.180783 -0.560329 -0.139965
-0.180783 -0.4106 0.286845
-0.180783 0.50896 0.089093
-0.205103 0.216907 -0.106385
-0.205103 0.210809 0.517299
-0.180783 0.639095 0.340688
-0.180783 -0.612794 -0.264903
-0.180783 0.424357 0.099593
-0.180783 0.174916 -0.239185
-0.180783 -0.255102 -0.539624
-0.205103 -0.181785 0.090723
-0.180783 0.316701 -0.17035
-0.180783 -0.064255 0.069835
-0.180783 -0.20919 -0.447042
-0.180783 0.471962 -0.39287
-0.205103 0.474754 0.44421
-0.205103 -0.220112 -0.149737
-0.180783 0.342205 0.366213
-0.205103 -0.083904 -0.033217
-0.180783 0.054777 0.460549
-0.205103 -0.566442 -0.29608
-0.180783 -0.390002 -0.327487
-0.205103 0.54947 -0.117678
-0.205103 -0.178907 0.253853
-0.180783 -0.134561 0.06761
-0.205103 0.067986 -0.235179
-0.205103 0.182008 0.235642
-0.205103 -0.272296 0.525447
-0.180783 -0.225236 0.41563
-0.205103 -0.335455 0.471842
-0.180783 0.557761 0.055867
-0.205103 0.147566 -0.015968
-0.180783 -0.163802 -0.262338
-0.180783 0.320416 -0.257789
-0.180783 0.356536 0.071944
-0.180783 -0.14224 0.348031
-0.205103 -0.04539 -0.267675
-0.205103 -0.413037 0.402351
-0.205103 -0.293763 0.23275
-0.180783 -0.59031 -0.437048
-0.205103 0.774955 0.332817
-0.180783 -0.124181 -0.008707
-0.180783 -0.130304 -0.188956
-0.205103 0.253427 0.413113
-0.180783 0.267816 0.305947
-0.180783 -0.296079 -0.424663
-0.205103 0.540191 0.489097
-0.180783 0.684471 -0.022094
-0.205103 -0.398731 0.165913
-0.180783 -0.048966 -0.488258
-0.180783 -0.235741 0.304409
-0.205103 0.349756 0.254497
-0.180783 -0.042569 0.477354
-0.180783 -0.469792 0.448938
-0.180783 0.520787 0.158767
-0.180783 -0.425248 -0.518476
-0.205103 0.804033 0.175124
-0.180783 0.372527 0.408598
-0.180783 0.416263 -0.005861
-0.205103 0.418758 -0.211033
-0.205103 -0.490981 0.111772
-0.205103 -0.55217 -0.03587
-0.180783 -0.077709 0.243059
-0.180783 -0.093368 0.508944
-0.205103 -0.039153 0.345379
-0.180783 0.106279 0.212235
-0.205103 -0.091729 -0.093631
-0.180783 0.573346 -0.551788
-0.181903 -0.485265 -0.599254
-0.180783 -0.542735 -0.462761
-0.205103 0.493255 -0.560139
-0.205103 0.763374 0.221071
-0.180783 -0.101674 0.413651
-0.180783 0.24094 -0.066811
-0.180783 -0.178733 -0.069343
-0.180783 -0.532096 -0.208728
-0.205103 -0.468296 0.34364
-0.180783 0.510037 -0.019384
-0.180783 0.014964 0.120433
-0.180783 0.466849 0.385246
-0.180783 -0.311624 0.054376
-0.180783 0.772757 0.288502
-0.205103 -0.482325 -0.533958
-0.180783 -0.644761 0.311163
-0.205103 0.33691 -0.514578
-0.205103 0.065385 -0.081277
-0.180783 0.006005 0.496242
-0.205103 0.046772 -0.283432
-0.180783 0.301853 -0.437561
-0.180783 -0.133111 -0.107567
-0.204287 -0.654961 0.495711
-0.180783 0.716214 -0.097095
-0.180783 0.166815 0.474745
-0.180783 0.128133 -0.31905
-0.205103 -0.609654 0.446188
-0.205103 0.679636 0.068605
-0.180783 0.448327 0.293675
-0.180783 0.57777 0.156824
-0.205103 -0.310476 -0.236107
