-0.224145 0.415828 -0.150459
0.063258 0.331676 -0.172363
0.28035 -0.688825 -0.172363
-0.080146 0.310282 -0.172363
-0.288647 0.738858 -0.150459
-0.188783 -0.520733 -0.150459
-0.446954 0.726735 -0.172363
0.343021 0.589391 -0.174408
0.177415 0.612862 -0.194267
-0.285035 -0.590273 -0.172363
-0.246527 0.136984 -0.172363
-0.387523 0.440291 -0.150459
-0.199617 0.196835 -0.150459
-0.379986 -0.201063 -0.172363
0.408878 0.00378 -0.150459
-0.308286 -0.270684 -0.172363
-0.242474 -0.587612 -0.150459
-0.412071 -0.544093 -0.150459
0.230288 0.556893 -0.172363
-0.005884 -0.717849 -0.172363
-0.414489 -0.753341 -0.172363
-0.020665 0.198141 -0.172363
0.296196 0.662954 -0.194267
-0.013047 0.453173 -0.150459
-0.089822 0.716409 -0.172363
0.213404 0.279357 -0.150459
-0.35138 -0.06825 -0.150459
0.374878 -0.533809 -0.150459
0.381973 0.650601 -0.172363
0.285303 0.359376 -0.150459
-0.273006 0.745577 -0.172363
-0.386493 -0.567524 -0.172363
0.344809 0.473874 -0.172363
-0.440754 -0.383027 -0.150459
-0.217891 0.70035 -0.178226
-0.257231 -0.272611 -0.150459
0.180304 0.702014 -0.194267
-0.358445 0.187143 -0.172363
-0.129105 0.591574 -0.172363
0.182906 -0.745317 -0.172363
-0.147433 0.294914 -0.172363
0.307645 -0.080538 -0.150459
-0.374861 0.692706 -0.172363
0.057849 -0.595156 -0.172363
-0.389119 0.280641 -0.150459
0.181944 0.11041 -0.150459
0.179704 0.583424 -0.150459
0.427705 -0.331626 -0.172363
-0.211654 -0.464146 -0.172363
0.196631 0.591211 -0.172363
0.244727 -0.743191 -0.150459
0.066105 -0.543104 -0.150459
-0.135544 0.399018 -0.150459
0.259285 0.6012 -0.172363
0.420052 0.699955 -0.194267
0.329337 0.206848 -0.150459
0.106925 -0.080073 -0.150459
0.003802 -0.613392 -0.150459
0.409453 0.29677 -0.172363
0.208955 0.71788 -0.172363
-0.326204 -0.058854 -0.150459
-0.188459 -0.466193 -0.150459
0.184525 -0.579756 -0.172363
-0.048762 0.663198 -0.194267
-0.068033 0.573745 -0.150459
0.017803 0.210203 -0.172363
0.067822 0.286086 -0.150459
-0.191036 -0.443002 -0.172363
0.329253 -0.181258 -0.150459
0.00751 -0.655582 -0.172363
0.301717 0.720968 -0.172363
0.179855 -0.110227 -0.172363
0.445521 0.628442 -0.150459
0.149455 -0.206018 -0.172363
-0.354311 -0.426446 -0.150459
-0.063143 0.15283 -0.172363
0.043078 -0.589765 -0.150459
-0.063996 0.624271 -0.194267
-0.206371 0.692854 -0.150459
-0.144603 0.008116 -0.150459
-0.225153 0.63056 -0.172363
0.249766 -0.020438 -0.150459
-0.287763 0.290329 -0.150459
0.392611 0.500999 -0.172363
-0.340939 -0.278805 -0.150459
-0.087881 0.424301 -0.150459
0.027545 -0.627526 -0.172363
-0.44996 0.738357 -0.150459
0.336036 0.328323 -0.150459
0.416209 0.074327 -0.172363
-0.415592 0.649539 -0.172363
-0.22526 -0.231014 -0.150459
-0.297547 -0.548832 -0.150459
0.152719 -0.252323 -0.150459
-0.398252 0.668879 -0.194267
0.020811 0.469215 -0.172363
-0.406683 0.469175 -0.150459
-0.063854 -0.399601 -0.172363
-0.234644 -0.614306 -0.172363
-0.414459 0.80113 -0.171812
0.02285 0.692689 -0.150459
-0.098282 -0.518897 -0.172363
0.14478 0.104191 -0.172363
-0.217229 0.373348 -0.172363
0.451554 0.282509 -0.172363
0.248301 -0.675042 -0.172363
-0.161229 0.3723 -0.150459
-0.083352 -0.578133 -0.150459
0.356038 -0.139416 -0.172363
-0.414663 0.389228 -0.150459
0.363436 0.049631 -0.150459
0.017783 0.032408 -0.172363
-0.329139 0.702197 -0.150459
-0.028538 0.211702 -0.150459
-0.388224 0.249023 -0.172363
0.174269 0.21322 -0.172363
0.209541 0.000191 -0.150459
-0.299135 0.702603 -0.175973
0.257374 -0.475545 -0.150459
-0.082641 -0.109825 -0.172363
0.057939 0.793175 -0.150459
0.270947 0.425317 -0.172363
0.327174 0.658667 -0.150459
-0.005506 0.39838 -0.150459
0.284345 0.603195 -0.172363
-0.027313 0.415059 -0.172363
0.26292 0.615796 -0.150459
0.168616 0.703373 -0.172363
0.389899 0.527549 -0.172363
0.123625 0.334508 -0.172363
-0.329358 -0.48308 -0.172363
-0.408985 0.32542 -0.150459
0.064642 -0.272416 -0.150459
-0.066613 -0.094796 -0.150459
0.136525 0.43518 -0.172363
-0.353973 -0.770768 -0.172363
0.432972 0.731055 -0.150459
0.043904 0.41247 -0.172363
-0.433312 0.6423 -0.194267
-0.343271 0.260256 -0.172363
0.221012 -0.443369 -0.150459
0.07076 0.043032 -0.150459
0.447408 0.129536 -0.172363
-0.080066 -0.264679 -0.172363
0.31851 0.287749 -0.150459
0.121009 0.455143 -0.150459
-0.259814 0.736808 -0.194267
-0.166758 0.727052 -0.172363
-0.27866 -0.431778 -0.150459
-0.08847 0.464029 -0.172363
0.351888 0.68018 -0.194267
0.456348 -0.162407 -0.172363
-0.040777 -0.688059 -0.150459
0.247934 0.399557 -0.150459
-0.42573 0.287902 -0.150459
0.442992 0.620054 -0.172363
-0.446411 -0.278139 -0.172363
-0.436024 0.598523 -0.172363
0.407826 0.120947 -0.172363
0.059208 -0.351321 -0.172363
0.139667 -0.145647 -0.172363
-0.333778 -0.145747 -0.172363
0.214024 0.647338 -0.172363
-0.382698 -0.173641 -0.150459
0.424243 0.663035 -0.172363
-0.073138 0.363444 -0.172363
0.150046 0.333673 -0.150459
0.368083 0.753642 -0.194267
0.19111 -0.402538 -0.150459
0.170496 0.504343 -0.172363
-0.044763 0.121456 -0.150459
0.14839 -0.10743 -0.150459
-0.220228 -0.129178 -0.172363
0.42427 0.730573 -0.194267
0.059303 0.744115 -0.172363
-0.050043 0.004211 -0.172363
-0.405405 -0.160547 -0.150459
-0.165373 -0.70001 -0.172363
0.368933 -0.547945 -0.172363
0.440996 -0.114373 -0.172363
0.440173 0.328793 -0.172363
-0.237359 0.196297 -0.172363
0.283051 0.634864 -0.194267
0.402585 0.140358 -0.150459
-0.350196 -0.272288 -0.172363
0.190602 -0.678215 -0.150459
-0.435056 0.549942 -0.150459
-0.321573 0.717785 -0.172363
-0.225941 -0.341487 -0.172363
-0.205334 -0.090777 -0.172363
-0.202475 -0.070004 -0.150459
0.022853 0.22815 -0.150459
0.310328 -0.68555 -0.150459
0.318781 0.635282 -0.194267
0.002299 -0.42996 -0.150459
0.244106 0.001913 -0.172363
-0.01405 0.138089 -0.172363
0.010993 0.708998 -0.172363
0.239894 -0.057539 -0.150459
0.158756 0.421616 -0.172363
-0.150258 -0.053776 -0.172363
-0.098501 0.635872 -0.150459
0.442783 -0.600327 -0.172363
0.090248 0.349453 -0.150459
-0.446265 -0.355691 -0.172363
-0.386893 0.134351 -0.172363
-0.363664 -0.008015 -0.150459
0.034122 0.679229 -0.172363
-0.050407 0.358911 -0.150459
0.206622 0.776579 -0.172363
0.22566 -0.713992 -0.172363
-0.227378 0.540183 -0.150459
0.177491 0.408216 -0.150459
0.194076 0.773711 -0.194267
0.201285 -0.564098 -0.172363
-0.189285 0.474812 -0.150459
0.189854 -0.175207 -0.172363
0.371456 0.727049 -0.150459
0.265737 0.652758 -0.172363
-0.005459 -0.585861 -0.150459
0.165151 -0.229947 -0.172363
0.065074 -0.018482 -0.150459
-0.189162 0.666973 -0.150459
0.407989 0.778967 -0.172363
0.216694 0.799837 -0.150459
0.098096 -0.325758 -0.150459
-0.045883 -0.540015 -0.172363
-0.042624 -0.083427 -0.172363
0.153751 -0.775962 -0.165176
0.240808 0.491042 -0.150459
-0.236169 -0.038914 -0.150459
-0.329445 0.025622 -0.150459
0.003914 0.761103 -0.172363
0.176982 -0.496373 -0.172363
0.254863 0.75161 -0.172363
0.273491 0.117329 -0.172363
0.288402 -0.359101 -0.172363
-0.16458 0.412295 -0.150459
-0.268623 0.708004 -0.172363
-0.114436 0.686301 -0.192275
0.114451 0.769832 -0.150459
-0.356964 0.254948 -0.150459
0.085085 0.486794 -0.172363
-0.212907 0.298609 -0.150459
-0.226241 0.077745 -0.150459
0.184877 -0.603256 -0.172363
-0.354039 -0.525617 -0.172363
-0.049002 -0.312362 -0.150459
-0.420285 -0.006044 -0.172363
0.256914 -0.293152 -0.150459
0.120303 -0.648286 -0.172363
0.17818 0.664454 -0.172363
-0.1552 0.28938 -0.150459
-0.238646 -0.426309 -0.172363
0.150169 -0.642244 -0.150459
0.424896 0.762489 -0.172363
0.038626 0.416623 -0.150459
-0.092845 -0.395083 -0.172363
-0.335403 0.778478 -0.172363
0.162859 0.154077 -0.172363
-0.162351 0.000795 -0.172363
-0.268576 -0.727829 -0.172363
-0.339719 0.750385 -0.172363
0.064619 0.692735 -0.172363
0.134421 0.63489 -0.172363
-0.125759 0.722212 -0.172363
0.146557 -0.182941 -0.172363
-0.032139 0.699255 -0.150459
0.201277 0.139531 -0.150459
-0.419896 -0.740117 -0.150459
-0.260152 0.475306 -0.172363
-0.100671 0.593316 -0.150459
0.197969 -0.683638 -0.172363
-0.022106 -0.524922 -0.150459
-0.269922 0.441375 -0.150459
-0.299254 -0.022812 -0.172363
-0.037283 0.147947 -0.172363
0.46405 0.320208 -0.170608
0.17411 0.07354 -0.172363
-0.298611 0.60705 -0.194267
0.2221 0.656872 -0.194267
0.213865 -0.608089 -0.150459
0.099174 0.718256 -0.172363
-0.288644 0.502288 -0.172363
0.263158 0.469938 -0.172363
0.357767 -0.101623 -0.172363
-0.276568 -0.500469 -0.150459
0.205879 -0.533979 -0.172363
0.296116 0.568057 -0.172363
-0.132978 0.774813 -0.172363
-0.161135 -0.201295 -0.172363
-0.043838 0.591323 -0.172363
0.297239 0.691149 -0.194267
-0.421201 0.373038 -0.172363
-0.442837 -0.74185 -0.172363
-0.249933 0.679665 -0.194267
-0.246752 -0.08162 -0.172363
0.135433 0.260244 -0.172363
0.281888 0.45764 -0.150459
-0.094999 0.011938 -0.150459
0.231523 -0.170141 -0.150459
-0.184262 -0.57737 -0.150459
0.151459 -0.574628 -0.150459
0.083259 -0.060457 -0.172363
0.119756 0.800952 -0.150459
0.076228 0.51989 -0.172363
-0.011753 0.640868 -0.172363
-0.425306 0.431595 -0.150459
0.206703 -0.501414 -0.150459
0.012771 -0.132459 -0.172363
-0.29199 0.762892 -0.194267
-0.127159 0.70044 -0.150459
-0.215277 0.778898 -0.172363
0.429505 0.245286 -0.172363
-0.287137 0.703419 -0.150459
0.389269 0.060956 -0.172363
0.142672 0.546808 -0.150459
-0.01432 -0.348284 -0.172363
0.461715 -0.287115 -0.150459
0.347019 0.163543 -0.150459
0.29697 -0.723197 -0.150459
0.450793 0.583919 -0.150459
-0.372028 -0.33653 -0.150459
0.227004 0.611525 -0.194267
0.172386 0.180497 -0.150459
0.263197 -0.53217 -0.150459
0.391798 -0.114196 -0.172363
0.114516 0.53137 -0.150459
0.254062 -0.259042 -0.150459
-0.328285 -0.247597 -0.150459
-0.328825 -0.410981 -0.150459
0.02294 0.616388 -0.150459
0.247506 0.26676 -0.172363
0.074509 0.637695 -0.150459
-0.400687 -0.630918 -0.172363
-0.256013 -0.597618 -0.172363
0.391845 -0.698979 -0.172363
0.167602 0.554849 -0.172363
0.158355 0.436968 -0.150459
-0.261191 0.272676 -0.172363
0.426722 -0.658939 -0.172363
-0.073319 -0.234213 -0.172363
0.142708 0.403709 -0.172363
-0.30788 -0.07372 -0.172363
-0.014882 0.514713 -0.150459
0.341236 0.528116 -0.150459
-0.368952 0.751811 -0.172363
0.10104 0.62908 -0.172363
0.068527 0.706324 -0.150459
0.364382 -0.711381 -0.150459
0.383083 -0.484388 -0.172363
-0.200761 0.330107 -0.150459
0.106869 0.493956 -0.150459
-0.361139 -0.740336 -0.150459
-0.093476 -0.4702 -0.150459
-0.39134 0.80113 -0.18057
-0.445359 0.463844 -0.172363
-0.335746 -0.368901 -0.172363
-0.155619 -0.475152 -0.150459
0.267157 0.036472 -0.150459
-0.108728 0.253659 -0.172363
-0.062708 0.775297 -0.172363
-0.140362 0.125662 -0.172363
0.070174 0.220517 -0.150459
-0.263417 0.667282 -0.150459
-0.267779 0.534703 -0.172363
0.21636 0.512807 -0.172363
0.293359 0.773784 -0.194267
-0.239714 -0.367289 -0.172363
0.396835 -0.407706 -0.150459
-0.283068 0.353758 -0.172363
0.303686 0.592806 -0.172363
-0.148006 -0.394292 -0.150459
-0.459529 0.679849 -0.172363
0.111783 -0.401769 -0.172363
-0.29642 0.647156 -0.172363
-0.137042 0.675696 -0.172363
0.17942 0.731297 -0.150459
0.355443 0.036648 -0.172363
0.349382 -0.018138 -0.172363
-0.325636 0.34423 -0.150459
0.194085 0.193161 -0.150459
-0.071202 0.691158 -0.150459
-0.302404 0.554174 -0.150459
-0.413844 -0.135576 -0.150459
-0.123624 0.555498 -0.172363
-0.378484 0.730798 -0.150459
-0.225359 -0.704414 -0.172363
0.257029 0.698723 -0.194267
0.027259 0.606849 -0.194267
0.201592 0.669473 -0.194267
0.16076 -0.131765 -0.172363
0.287562 0.611949 -0.194267
0.061224 0.501317 -0.150459
-0.044679 0.684714 -0.194267
0.405242 -0.15096 -0.150459
-0.12354 0.547089 -0.150459
-0.090622 -0.010543 -0.172363
-0.210107 -0.507682 -0.150459
0.247548 -0.611795 -0.172363
0.248771 0.638534 -0.172363
-0.278568 0.210317 -0.150459
0.135741 0.172431 -0.150459
0.111106 -0.165957 -0.172363
0.38801 -0.366023 -0.150459
0.384091 -0.378275 -0.172363
-0.107332 0.10936 -0.150459
-0.381354 0.127033 -0.150459
-0.206287 -0.737166 -0.172363
-0.143137 0.238664 -0.150459
-0.203795 -0.40272 -0.150459
-0.38082 -0.43205 -0.172363
0.402095 0.041098 -0.150459
0.224732 -0.751717 -0.150459
-0.238825 -0.248978 -0.172363
-0.070645 -0.74498 -0.150459
-0.084692 0.758309 -0.150459
0.363249 -0.740933 -0.172363
0.019574 -0.758847 -0.150459
-0.18151 0.285191 -0.150459
0.090055 -0.690351 -0.150459
0.139527 -0.202216 -0.150459
-0.322311 0.074621 -0.150459
-0.251341 0.159593 -0.150459
0.197047 -0.089278 -0.172363
0.064037 0.386301 -0.150459
0.357306 0.332112 -0.150459
-0.189211 -0.555564 -0.172363
0.217606 -0.618282 -0.172363
-0.209665 -0.69988 -0.150459
0.443417 0.441023 -0.172363
0.331164 0.771726 -0.172363
-0.447895 0.615715 -0.194267
0.320926 -0.234255 -0.150459
0.225463 0.149695 -0.172363
0.397434 0.63557 -0.172363
-0.006712 0.448487 -0.172363
0.303857 -0.376277 -0.150459
0.327822 0.406955 -0.150459
0.086648 -0.224105 -0.150459
-0.280834 0.573523 -0.172363
0.193875 0.309719 -0.172363
-0.349906 -0.702084 -0.172363
-0.439281 -0.153499 -0.172363
0.029183 -0.408778 -0.172363
-0.030104 -0.474533 -0.150459
0.34712 -0.310612 -0.150459
0.276911 -0.7717 -0.150459
0.120719 -0.379863 -0.150459
-0.370097 0.438191 -0.172363
0.415942 0.706951 -0.172363
0.237189 0.506094 -0.172363
0.208047 0.713558 -0.194267
0.32233 0.266674 -0.150459
-0.44732 -0.62144 -0.172363
0.053927 -0.408125 -0.150459
-0.329741 0.066723 -0.172363
-0.350689 -0.222239 -0.150459
-0.012514 -0.248175 -0.172363
0.391901 0.701026 -0.172363
0.360339 -0.468868 -0.150459
0.001038 -0.047095 -0.150459
-0.463202 0.798183 -0.161052
0.093778 0.426506 -0.172363
-0.429993 -0.412837 -0.172363
-0.000215 -0.751028 -0.172363
-0.324483 0.630862 -0.172363
0.191376 0.404883 -0.172363
-0.251776 -0.028197 -0.172363
0.330971 0.458104 -0.150459
0.404578 0.010827 -0.172363
0.100197 0.667405 -0.150459
-0.302083 0.2268 -0.172363
-0.448058 -0.148911 -0.150459
-0.440949 -0.302139 -0.150459
-0.064471 -0.632156 -0.172363
0.391397 0.721664 -0.194267
-0.05214 0.532058 -0.172363
0.38899 0.197258 -0.150459
0.309719 0.611974 -0.194267
-0.006679 -0.774266 -0.172363
0.217593 0.594634 -0.172363
-0.456608 -0.045374 -0.172363
-0.190454 0.395011 -0.150459
0.378751 -0.32762 -0.172363
-0.040435 0.313035 -0.150459
0.111865 0.685965 -0.172363
-0.44105 0.409875 -0.172363
-0.115216 -0.23801 -0.172363
0.199924 -0.757913 -0.172363
0.244735 -0.110094 -0.172363
-0.342144 0.048155 -0.150459
0.210051 0.563007 -0.172363
-0.106301 0.360907 -0.150459
-0.436599 0.119726 -0.150459
-0.421412 -0.571748 -0.150459
-0.251341 -0.666991 -0.150459
-0.038924 0.736251 -0.194267
-0.0747 -0.171067 -0.150459
0.219544 -0.010335 -0.172363
0.442525 0.652806 -0.150459
0.083932 -0.001269 -0.150459
0.43657 -0.058164 -0.172363
0.14653 0.775599 -0.150459
0.155082 0.616204 -0.194267
0.077844 -0.301116 -0.172363
0.140013 0.756924 -0.172363
-0.081018 0.585266 -0.172363
-0.278493 -0.677667 -0.172363
-0.236055 0.048694 -0.172363
-0.205468 -0.25991 -0.172363
-0.195537 0.646936 -0.150459
-0.256136 0.066025 -0.150459
-0.026914 -0.553267 -0.150459
0.37144 0.672068 -0.150459
0.118687 -0.475889 -0.172363
-0.20464 -0.245004 -0.150459
-0.219103 -0.607987 -0.150459
-0.094692 -0.097985 -0.150459
-0.101018 0.465371 -0.150459
-0.310771 0.644271 -0.194267
0.090892 0.019374 -0.172363
-0.113483 -0.365239 -0.150459
0.011263 0.498309 -0.150459
0.106174 0.608309 -0.150459
-0.135463 0.334894 -0.150459
-0.368044 -0.730558 -0.172363
0.059502 0.563647 -0.150459
-0.176341 0.80113 -0.175083
-0.249106 0.697421 -0.150459
0.150874 0.714385 -0.172363
0.411033 -0.631695 -0.172363
0.097812 0.158826 -0.150459
-0.328121 -0.700984 -0.172363
-0.218577 0.050565 -0.150459
-0.141775 -0.168134 -0.172363
0.39701 -0.613448 -0.150459
0.04637 -0.636471 -0.172363
-0.463183 0.756539 -0.1731
0.329693 -0.125999 -0.150459
0.258802 -0.505837 -0.150459
-0.053292 -0.297415 -0.172363
-0.031646 -0.74217 -0.150459
0.098813 -0.59129 -0.172363
0.122631 0.520156 -0.172363
0.236826 0.410344 -0.172363
-0.055319 0.108999 -0.172363
0.44731 -0.553294 -0.150459
-0.065123 0.69234 -0.172363
-0.386365 0.5998 -0.172363
-0.463202 -0.650081 -0.15319
0.340751 0.367875 -0.150459
0.023405 -0.264966 -0.172363
0.326037 -0.275092 -0.150459
-0.251116 -0.116997 -0.150459
-0.03188 0.649593 -0.172363
-0.357651 0.598497 -0.194267
0.390628 0.591825 -0.172363
-0.011032 -0.407674 -0.150459
0.125614 0.378568 -0.172363
0.350199 0.742742 -0.172363
0.25654 -0.391897 -0.150459
0.259704 0.159285 -0.150459
0.429616 0.106311 -0.150459
0.145222 0.292299 -0.172363
-0.463202 -0.465106 -0.16068
0.130395 0.382212 -0.150459
-0.07725 -0.21709 -0.150459
-0.193873 0.005327 -0.150459
0.34231 -0.432517 -0.172363
-0.03739 -0.272754 -0.150459
0.003899 0.177664 -0.172363
0.22638 0.782614 -0.172363
0.026206 -0.345493 -0.172363
-0.390317 0.220864 -0.172363
-0.013038 -0.320125 -0.150459
0.177529 0.261571 -0.172363
0.357467 0.190574 -0.172363
-0.367835 -0.387305 -0.150459
-0.171595 0.071776 -0.172363
0.272911 -0.476013 -0.172363
-0.338172 0.223548 -0.150459
-0.199891 -0.132366 -0.172363
0.288442 -0.061783 -0.150459
-0.233347 0.567732 -0.150459
0.099807 -0.15989 -0.150459
-0.339575 0.478908 -0.172363
-0.000576 0.484072 -0.172363
0.263762 0.188198 -0.150459
-0.166232 0.113203 -0.172363
-0.209893 0.100895 -0.150459
-0.218076 0.592644 -0.194267
-0.172412 0.750809 -0.172363
0.291953 -0.106154 -0.150459
-0.262756 -0.013488 -0.150459
-0.03892 0.431939 -0.172363
0.348322 0.108255 -0.150459
0.152788 -0.506217 -0.150459
0.123052 0.779461 -0.194267
0.058863 0.354102 -0.150459
-0.284823 0.790777 -0.194267
-0.162242 0.589391 -0.192798
-0.293076 0.749607 -0.172363
-0.420072 0.694622 -0.183954
0.139663 0.139873 -0.150459
-0.037322 -0.064633 -0.150459
0.051587 -0.240504 -0.150459
-0.111801 0.350031 -0.172363
0.46405 0.645905 -0.178217
0.090378 0.604805 -0.172363
0.140246 -0.272945 -0.150459
0.294672 0.693205 -0.172363
-0.369096 0.086423 -0.150459
0.338071 -0.617802 -0.172363
0.249852 -0.552104 -0.172363
-0.456903 0.201652 -0.150459
0.414015 0.623204 -0.194267
0.367372 -0.03543 -0.150459
-0.327968 0.153907 -0.150459
-0.053567 0.170934 -0.150459
0.163118 -0.545067 -0.172363
-0.243463 -0.287961 -0.150459
-0.059106 0.412012 -0.150459
0.039612 0.525936 -0.150459
-0.452546 0.565333 -0.150459
-0.458459 -0.295981 -0.172363
-0.032698 0.517996 -0.172363
0.072548 -0.54795 -0.172363
-0.443558 0.368812 -0.172363
-0.247891 -0.341193 -0.172363
-0.397355 0.016868 -0.150459
-0.333781 0.80113 -0.170105
0.138341 -0.343952 -0.150459
0.33033 -0.564866 -0.172363
-0.024439 0.561573 -0.172363
0.437674 0.226752 -0.172363
0.086618 0.80113 -0.17217
0.255163 0.495519 -0.172363
-0.51956 -0.812469 0.21119
0.037842 -0.812469 -0.186065
0.161178 -0.807325 0.255159
-0.263906 -0.812469 -0.003974
0.36922 -0.812469 -0.107258
-0.229534 -0.785852 0.246399
-0.038668 -0.812469 0.083918
-0.525264 -0.812213 -0.051762
-0.176121 -0.775962 -0.193962
-0.379973 -0.808053 -0.194267
0.210227 -0.812469 0.058962
0.526131 -0.810511 0.014695
-0.043133 -0.801994 0.268179
0.192877 -0.76136 -0.118328
0.526131 -0.791885 -0.179734
0.349909 -0.812469 0.212455
-0.078752 -0.812469 -0.070597
0.375887 -0.812469 0.060389
0.065549 -0.812469 -0.028466
-0.521004 -0.79607 -0.194267
-0.399539 -0.76136 -0.013838
0.088607 -0.812469 0.11949
-0.228615 -0.812469 0.117329
-0.285288 -0.812469 -0.122279
-0.157789 -0.76136 0.018461
0.268354 -0.76136 -0.021776
-0.135406 -0.812469 0.177385
0.060244 -0.763702 0.243019
0.246155 -0.812469 0.161654
-0.436611 -0.812469 0.087332
-0.068431 -0.804522 -0.194267
-0.344602 -0.812469 0.233903
-0.180614 -0.812469 -0.070841
0.158937 -0.76136 -0.009779
0.003232 -0.812469 0.177534
0.152192 -0.811118 -0.194267
-0.335926 -0.812469 0.063635
0.51871 -0.779494 0.108227
-0.525264 -0.798112 0.04791
0.425107 -0.812469 -0.026776
-0.456279 -0.78905 -0.117125
-0.008016 -0.76136 0.008465
-0.007064 -0.76136 -0.107182
0.492414 -0.812469 -0.093073
0.247508 -0.812469 -0.182268
-0.36702 -0.812469 -0.08196
0.083006 -0.76136 0.044734
0.301331 -0.76136 0.063779
-0.427701 -0.780429 0.218924
0.274972 -0.812469 -0.096448
0.101411 -0.76136 -0.091471
-0.142534 -0.812469 0.089949
-0.130977 -0.76136 -0.120277
0.3484 -0.812469 -0.191051
0.263139 -0.800586 0.24383
0.357548 -0.76136 -0.041631
0.151365 -0.76136 0.09782
0.15601 -0.812469 0.168839
-0.269606 -0.76136 0.066245
0.43589 -0.785961 0.223677
-0.140243 -0.803808 0.257389
-0.247836 -0.76136 -0.063668
-0.517095 -0.812469 0.126364
-0.304305 -0.812469 0.138593
0.453559 -0.812469 0.063684
-0.092489 -0.76136 0.062183
0.198282 -0.76136 0.207692
0.02139 -0.76136 0.124987
0.048531 -0.812469 -0.102089
-0.089548 -0.812469 0.002519
-0.303927 -0.80234 -0.194267
0.161167 -0.812469 -0.075796
0.031015 -0.812469 0.046474
-0.235311 -0.76136 -0.135625
-0.066718 -0.76136 0.212855
-0.386595 -0.76136 0.063714
-0.050465 -0.76136 0.137699
0.077438 -0.812469 0.194898
-0.011257 -0.812469 -0.050346
0.316643 -0.812469 0.018036
-0.318119 -0.76136 0.016049
0.478923 -0.762287 -0.010155
0.128114 -0.812469 0.032106
-0.444092 -0.775962 -0.184081
0.222488 -0.76136 0.103512
-0.451701 -0.812469 -0.040542
-0.236015 -0.812469 -0.192684
-0.334279 -0.76136 -0.113582
-0.200767 -0.812469 0.032663
0.387168 -0.812469 0.15581
-0.117305 -0.76136 0.127592
0.202793 -0.812469 -0.013887
0.434635 -0.812469 -0.127749
0.470251 -0.812469 0.141194
-0.176522 -0.76136 0.213407
0.315844 -0.76136 -0.113206
-0.018189 -0.812469 -0.148412
-0.525264 -0.789862 -0.128094
-0.311487 -0.76136 0.202811
-0.423555 -0.812469 0.020063
-0.330689 -0.812469 -0.027109
0.282773 -0.812469 0.107033
0.030489 -0.76136 -0.048099
-0.244583 -0.812469 0.179557
-0.38164 -0.812469 0.180324
-0.061271 -0.76136 -0.139691
0.525539 -0.786322 -0.046734
0.363323 -0.76136 0.026383
0.2151 -0.76136 0.023049
-0.169014 -0.812469 -0.143985
0.39837 -0.76136 0.087011
-0.097327 -0.76136 -0.03085
-0.176211 -0.76136 0.095018
0.223819 -0.76136 -0.063695
0.252465 -0.76136 -0.136122
-0.247156 -0.76136 0.144578
0.09912 -0.805897 0.262055
0.000731 -0.76136 0.068359
0.409373 -0.812469 -0.182426
-0.462492 -0.812469 0.180345
-0.076463 -0.812469 0.154992
-0.005787 -0.76136 0.24537
0.130765 -0.770555 -0.150459
-0.347943 -0.76136 -0.05165
-0.108845 -0.812469 -0.151666
-0.37469 -0.812469 0.119684
-0.160185 -0.76136 -0.049971
-0.502416 -0.764067 0.182453
-0.285887 -0.812469 0.237629
-0.327935 -0.76136 0.099996
0.088266 -0.784088 -0.194267
-0.146617 -0.812469 -0.009903
0.030139 -0.80556 0.269719
0.387538 -0.76136 0.183464
-0.235201 -0.812469 -0.08796
0.280714 -0.76136 0.131447
-0.036749 -0.812469 0.027525
0.285514 -0.812469 -0.037652
0.347573 -0.812469 0.11622
0.524744 -0.812469 0.153492
-0.020513 -0.775962 -0.193921
-0.251194 -0.76136 0.01351
0.426649 -0.76136 -0.04811
-0.381086 -0.812469 -0.139082
-0.409534 -0.76136 -0.106445
-0.116432 -0.76136 0.188545
0.144909 -0.76136 0.1865
0.22907 -0.812469 -0.126812
-0.048854 -0.76136 -0.056911
-0.367171 -0.76136 0.201588
0.32247 -0.812469 0.164751
0.47153 -0.812469 0.010109
-0.214853 -0.812469 -0.027404
0.130442 -0.812469 -0.022135
0.209574 -0.812469 0.221891
-0.477637 -0.812469 -0.162144
0.173915 -0.812469 0.117684
0.303753 -0.812469 -0.16051
0.360448 -0.812469 -0.024153
0.430377 -0.76136 0.013368
0.027157 -0.812469 0.108817
0.258319 -0.812469 0.035085
-0.088751 -0.812469 0.207024
0.097955 -0.76136 0.097984
0.19382 -0.777485 -0.194267
-0.009217 -0.812469 0.229221
0.317581 -0.772446 0.223224
-0.383176 -0.812469 -0.025869
-0.125989 -0.812469 -0.102085
-0.477652 -0.812469 0.004896
-0.270973 -0.812469 0.055346
-0.138664 -0.812027 -0.194267
-0.185081 -0.812469 0.214982
0.108816 -0.812469 -0.090738
0.229618 -0.812469 -0.068032
0.526131 -0.812176 0.066193
-0.301143 -0.76136 -0.072967
0.098506 -0.76136 -0.040289
-0.218745 -0.76136 0.060595
0.526131 -0.79191 -0.128857
-0.317589 -0.812469 0.187317
-0.316815 -0.812469 -0.078558
-0.087315 -0.812469 0.07126
-0.403076 -0.76136 0.117027
0.132528 -0.76136 0.044627
-0.17359 -0.812469 0.145873
0.252551 -0.76136 0.055949
0.152619 -0.812469 -0.136199
0.472266 -0.812469 -0.048459
-0.50381 -0.765461 0.133657
-0.487823 -0.812469 -0.083034
-0.238673 -0.812469 -0.136476
-0.41979 -0.812469 0.150186
-0.205404 -0.76136 -0.032172
0.149974 -0.76136 -0.091148
0.370824 -0.76136 -0.088299
-0.525264 -0.794981 -0.006499
-0.431532 -0.76136 0.043976
0.084311 -0.812469 0.071412
0.409735 -0.76136 -0.127765
0.142604 -0.764416 0.234586
0.418802 -0.812469 0.097047
-0.060182 -0.76136 -0.000502
-0.26766 -0.812469 -0.051368
0.277403 -0.775962 -0.187507
-0.380147 -0.812469 0.046413
-0.093656 -0.812469 0.258208
0.036485 -0.76136 0.035871
-0.189878 -0.812469 0.089884
0.459777 -0.812469 0.1928
0.325329 -0.812469 0.064348
0.311489 -0.76136 -0.051407
-0.026896 -0.76136 0.182881
0.305429 -0.76136 0.00703
0.341278 -0.812469 -0.066671
-0.011972 -0.812469 -0.102211
-0.110157 -0.775962 -0.186636
0.050504 -0.76136 -0.090165
0.425414 -0.812469 -0.072957
0.055291 -0.812469 0.151138
0.17863 -0.76136 -0.055304
0.017214 -0.812469 0.002807
0.489542 -0.812469 0.096372
-0.432438 -0.812469 -0.158922
-0.068314 -0.812469 -0.114591
-0.057961 -0.812469 -0.029763
-0.126619 -0.76136 0.23253
0.075364 -0.812469 0.015543
0.066142 -0.76136 0.13048
-0.199787 -0.76136 -0.076834
0.328026 -0.76136 0.099965
-0.047162 -0.812469 0.1901
-0.10859 -0.812469 0.119258
0.046907 -0.812469 0.228828
0.391573 -0.78136 0.223972
-0.463874 -0.812469 0.052158
0.1471 -0.812469 0.082624
0.505801 -0.766585 -0.098971
0.119836 -0.812469 0.206737
-0.127315 -0.812469 -0.049181
-0.384687 -0.79583 0.230229
-0.332838 -0.812469 0.016363
-0.317493 -0.812469 -0.154212
-0.215811 -0.775962 -0.176436
-0.129752 -0.76136 0.084377
0.239549 -0.812469 0.104671
0.239273 -0.762051 0.221466
-0.150631 -0.775962 -0.157762
-0.420637 -0.812469 -0.070289
-0.331342 -0.775962 -0.1743
-0.333152 -0.76136 0.057455
0.05984 -0.812469 -0.143233
-0.21463 -0.76136 0.117156
-0.283782 -0.76136 -0.01382
-0.208669 -0.76136 0.013022
-0.062907 -0.76136 0.092634
0.186676 -0.812469 -0.109474
0.491408 -0.812469 -0.141226
0.11303 -0.76136 0.00721
0.243794 -0.812469 -0.004502
0.175797 -0.812469 0.03495
-0.330074 -0.812469 0.105179
0.474157 -0.76136 0.134014
-0.022652 -0.812469 0.122542
0.1191 -0.76136 0.133984
-0.363534 -0.76136 0.007264
-0.396221 -0.76136 -0.066922
-0.270928 -0.76136 0.19327
-0.487789 -0.76136 -0.047706
0.227169 -0.775962 -0.165822
0.310486 -0.76136 0.16052
0.173925 -0.76136 0.040605
0.380418 -0.812469 0.012102
0.089487 -0.775962 -0.153716
0.429009 -0.812469 0.13914
0.20837 -0.812469 -0.169602
-0.496535 -0.812469 0.089563
-0.269471 -0.812469 0.116632
-0.16689 -0.76136 -0.1011
-0.468006 -0.779787 0.213801
-0.16032 -0.812469 0.036382
-0.525264 -0.793405 0.166251
-0.2819 -0.76136 0.104755
-0.06672 -0.76136 -0.099803
0.430402 -0.76136 0.185056
0.381593 -0.812469 -0.151629
-0.48329 -0.782941 -0.194267
-0.27712 -0.76136 -0.104854
0.262678 -0.812469 0.205823
0.213134 -0.76136 0.062806
-0.275572 -0.812469 -0.165038
0.511557 -0.77234 0.009725
-0.101552 -0.76136 0.023727
-0.517404 -0.779054 -0.071604
0.363182 -0.76136 0.065795
0.209087 -0.812469 0.174661
0.420798 -0.812469 0.197322
0.279789 -0.812469 0.067952
0.206036 -0.779644 0.242861
0.092044 -0.812469 -0.167327
-0.037589 -0.76136 0.060998
0.060774 -0.76136 0.08626
-0.425766 -0.812469 -0.111444
-0.05928 -0.812469 -0.157401
-0.490039 -0.812469 -0.125449
0.048531 -0.776434 -0.194267
0.300672 -0.806604 0.23966
-0.177532 -0.76136 0.051154
-0.462527 -0.812469 0.142208
0.352086 -0.76136 -0.124968
0.25073 -0.76136 -0.098071
0.397834 -0.76136 0.042447
0.446663 -0.812469 -0.175443
0.098671 -0.812469 0.163543
0.13757 -0.812469 0.135766
0.179609 -0.775753 -0.150459
-0.202818 -0.812469 -0.160461
0.01939 -0.812469 -0.148002
-0.52425 -0.812469 -0.098204
-0.504979 -0.76663 0.023313
-0.322211 -0.812469 -0.116568
-0.457754 -0.783131 -0.080277
-0.135077 -0.76136 -0.010974
-0.416362 -0.798529 -0.194267
0.024586 -0.812469 -0.060066
0.271329 -0.812469 -0.14286
-0.495172 -0.812469 -0.02739
-0.514336 -0.812469 -0.161646
-0.254868 -0.781022 -0.194267
0.06819 -0.812469 -0.071158
-0.110906 -0.770963 -0.150459
0.123432 -0.775962 -0.188808
-0.213608 -0.812469 0.160339
0.396761 -0.76136 -0.000415
0.523642 -0.784426 0.042893
0.481382 -0.796202 0.219581
0.282619 -0.763883 0.218493
-0.395496 -0.76136 0.028548
0.328629 -0.76136 0.040108
-0.017401 -0.76136 -0.026382
-0.299467 -0.812469 0.002148
-0.339203 -0.809614 -0.194267
-0.443742 -0.812469 0.222463
-0.165016 -0.812469 -0.108221
0.071942 -0.76136 -0.126051
0.138996 -0.76136 -0.039469
-0.270563 -0.812469 0.155118
-0.225535 -0.812469 0.2096
-0.015076 -0.76136 0.140794
-0.3163 -0.76136 -0.14416
0.304972 -0.802013 -0.194267
0.159243 -0.775962 -0.187153
-0.435721 -0.76136 -0.023497
-0.180378 -0.812469 -0.00021
-0.400428 -0.812469 0.095873
0.438609 -0.812469 0.022039
-0.063082 -0.776507 0.255491
-0.242601 -0.76136 -0.09801
-0.454212 -0.76136 0.017706
0.459034 -0.781478 -0.145588
0.004575 -0.808174 -0.194267
0.262471 -0.76136 0.088994
-0.242333 -0.812469 0.036159
-0.373951 -0.812469 0.012522
-0.025908 -0.812469 -0.017163
0.199323 -0.812469 0.094721
0.483397 -0.780232 -0.120938
-0.012997 -0.76136 -0.073557
0.234552 -0.76136 -0.025879
-0.358752 -0.776536 -0.194267
0.318008 -0.812469 -0.028129
-0.519303 -0.780953 -0.037859
0.354757 -0.812469 0.174749
-0.048643 -0.775962 -0.173451
-0.427797 -0.812469 -0.013366
0.492736 -0.812469 -0.193069
-0.072308 -0.812469 0.121714
0.023186 -0.76136 -0.003492
-0.244556 -0.76136 0.088172
0.46145 -0.772416 0.207208
0.163319 -0.812469 -0.027149
0.015532 -0.812469 0.075859
-0.253589 -0.812469 0.22997
0.423082 -0.76136 0.112761
0.102221 -0.812469 -0.003875
0.198428 -0.812469 0.139982
-0.306082 -0.76136 -0.040224
-0.390719 -0.775962 -0.165556
0.308244 -0.812469 -0.066092
0.39537 -0.76136 -0.03751
-0.09183 -0.76136 -0.125293
-0.399499 -0.765281 0.206817
-0.417587 -0.76136 0.074859
0.026128 -0.76136 -0.122368
0.520272 -0.781055 0.075399
0.061774 -0.76136 -0.057824
0.452662 -0.812469 0.113569
-0.299764 -0.812469 0.039817
0.066405 -0.76136 0.016561
-0.03605 -0.76136 0.02525
0.132911 -0.791253 0.2583
-0.188367 -0.76136 0.146609
-0.409669 -0.812469 0.217517
-0.46303 -0.761972 0.052236
-0.012429 -0.812469 0.049151
-0.49329 -0.812469 0.190826
0.003227 -0.76136 0.16762
0.247478 -0.812469 0.07046
-0.304934 -0.812469 0.073087
-0.183077 -0.812469 -0.033742
0.286183 -0.76136 -0.100215
-0.186094 -0.812469 0.17705
-0.244181 -0.812469 0.089174
-0.436684 -0.76136 0.194761
-0.034185 -0.812469 0.160951
-0.459114 -0.812469 -0.188034
-0.413277 -0.812469 0.065698
-0.113494 -0.786903 0.26035
0.470407 -0.790565 0.079368
-0.21389 -0.812469 0.239304
0.191284 -0.76136 -0.084211
-0.11161 -0.76136 -0.095405
-0.299521 -0.812469 -0.031514
0.493039 -0.76136 0.106615
-0.361294 -0.76136 0.038566
-0.00288 -0.76136 0.105094
0.178232 -0.812469 0.229329
-0.121639 -0.812469 0.009071
0.071841 -0.790924 0.265086
0.387706 -0.812469 0.100277
0.503282 -0.812469 -0.052322
-0.348694 -0.812469 0.184334
0.17457 -0.76136 0.076921
-0.356003 -0.812469 -0.052816
0.375982 -0.8073 0.231292
-0.336866 -0.770079 0.218603
-0.358958 -0.76136 0.101978
-0.282362 -0.76692 0.22148
-0.379494 -0.76136 -0.092943
0.314849 -0.76136 0.194494
0.526131 -0.809453 0.106931
0.347068 -0.764141 0.211592
-0.288836 -0.775962 -0.18894
0.031147 -0.812469 0.190563
0.526131 -0.799134 -0.013916
-0.030338 -0.76136 -0.142512
0.439004 -0.775962 -0.192467
0.462795 -0.766394 -0.035873
0.429535 -0.775962 -0.151676
-0.052171 -0.812469 -0.085729
-0.194686 -0.800247 -0.194267
-0.077804 -0.76136 -0.071402
0.15004 -0.812469 0.210588
6.5e-05 -0.802206 0.272979
-0.259198 -0.812469 -0.106527
-0.13359 -0.812469 0.050697
-0.2828 -0.812469 -0.07763
-0.15596 -0.767467 0.236076
0.520372 -0.781155 0.162411
-0.287977 -0.76136 0.01695
0.129003 -0.812469 0.106883
-0.30873 -0.76136 0.07507
0.391047 -0.812469 0.194065
-0.098107 -0.812469 -0.042696
0.526131 -0.807618 -0.103402
0.177313 -0.76136 0.112676
0.451753 -0.76136 -0.068733
-0.13449 -0.76136 0.054992
0.292782 -0.812469 0.162645
0.311644 -0.812469 -0.131835
0.127786 -0.812469 -0.051673
-0.50523 -0.812469 0.153504
-0.414011 -0.812469 0.179228
0.236745 -0.812469 0.237645
0.4242 -0.812469 0.0674
-0.096172 -0.76136 0.210155
-0.414201 -0.812469 -0.041422
-0.15336 -0.812469 0.20086
0.352568 -0.778788 -0.194267
0.171044 -0.770998 0.238049
-0.214846 -0.76136 -0.114607
-0.085895 -0.76136 0.145088
0.327463 -0.812469 0.193646
0.493863 -0.812469 0.067415
0.508594 -0.769378 -0.067563
0.077653 -0.812469 -0.10029
0.219102 -0.76136 -0.092941
0.18827 -0.76136 0.011642
0.46297 -0.812469 -0.134542
0.16758 -0.812469 -0.161165
0.446241 -0.812469 0.167039
-0.457794 -0.812469 0.113639
-0.455996 -0.790184 0.015722
-0.145255 -0.76136 0.209153
0.241249 -0.76136 0.010738
-0.071289 -0.76136 0.026095
-0.194114 -0.812469 -0.129866
0.496814 -0.76136 -0.038597
-0.233994 -0.76136 -0.034322
-0.065992 -0.812469 0.224437
-0.187906 -0.76136 -0.125596
-0.31115 -0.812469 0.224156
-0.37202 -0.812469 0.153386
-0.10037 -0.767375 0.24216
0.007488 -0.775962 -0.188107
0.051343 -0.76136 -0.028612
0.183642 -0.812469 0.187501
0.250368 -0.812469 -0.048493
0.088886 -0.773792 0.249989
-0.214381 -0.812469 0.057673
0.178837 -0.76136 0.176266
-0.367391 -0.812469 -0.169127
-0.149003 -0.76136 -0.076113
0.271236 -0.812469 -0.01169
0.526131 -0.805625 -0.067666
-0.04718 -0.812469 0.05693
-0.111221 -0.812469 -0.078016
0.24472 -0.812469 -0.103323
-0.116291 -0.812469 0.201013
-0.400065 -0.812469 -0.159917
-0.391009 -0.76136 -0.127682
0.103515 -0.812469 0.235017
0.355525 -0.812469 0.025257
0.254729 -0.76136 -0.046341
0.187905 -0.812469 -0.04073
-0.03282 -0.76136 -0.096025
-0.477246 -0.76136 0.144923
-0.462662 -0.812469 -0.103065
-0.095693 -0.812469 -0.120629
-0.177916 -0.76136 -0.026917
0.281387 -0.76136 0.021137
-0.007485 -0.812469 0.099186
0.354781 -0.76136 0.092635
0.409227 -0.76136 -0.100052
-0.152889 -0.812469 -0.170506
0.248158 -0.775962 -0.18389
-0.50996 -0.771611 -0.151878
0.467507 -0.812469 -0.081393
0.513135 -0.773919 -0.145094
0.280165 -0.812469 0.018386
-0.022796 -0.805592 -0.194267
0.482388 -0.790565 -0.156598
0.223867 -0.76136 0.188966
-0.390945 -0.812469 -0.068964
-0.209326 -0.812469 -0.096377
-0.47898 -0.812469 -0.049246
-0.252328 -0.76136 0.17128
-0.101038 -0.76136 0.087954
-0.451042 -0.76136 0.119442
0.521977 -0.782761 0.135375
0.321421 -0.76136 -0.014882
0.413069 -0.765382 0.205507
-0.483737 -0.785075 -0.060141
-0.517725 -0.779375 0.198701
0.31984 -0.76136 -0.077147
0.016451 -0.76136 -0.071233
-0.121733 -0.812469 -0.020441
0.402615 -0.812469 -0.058513
-0.074054 -0.812469 0.094785
-0.128575 -0.76136 0.15208
-0.209161 -0.773683 -0.150459
0.260148 -0.76136 -0.072903
0.4159 -0.775962 -0.174816
-0.260838 -0.812469 0.200858
0.135085 -0.812469 -0.081732
-0.240522 -0.812469 0.009008
0.323446 -0.76136 0.126293
0.495434 -0.812469 -0.001776
0.512747 -0.812469 0.177321
-0.483106 -0.790565 0.050831
0.091251 -0.812469 -0.193924
0.053758 -0.812469 0.108233
-0.248538 -0.76136 0.050175
-0.091701 -0.812469 0.176639
0.176444 -0.812469 0.061399
0.345794 -0.76136 -0.096867
0.392636 -0.795754 -0.194267
-0.240557 -0.812469 -0.021202
0.402328 -0.812469 0.12229
0.167515 -0.76136 -0.125461
-0.354249 -0.76136 0.073188
-0.334909 -0.76136 -0.087272
0.018118 -0.769112 0.253143
0.177722 -0.812469 -0.185424
0.141201 -0.812469 0.05489
0.138907 -0.76136 0.01156
0.125387 -0.76136 0.101488
0.210399 -0.812469 0.248037
-0.455237 -0.812469 -0.146139
-0.330362 -0.812469 0.140451
0.439821 -0.812469 -0.005205
-0.042999 -0.76136 -0.021495
0.032421 -0.76136 0.148566
0.227461 -0.76136 -0.128981
0.336767 -0.812469 0.092621
0.0842 -0.76136 -0.072044
0.371057 -0.76136 0.124085
0.401715 -0.76136 0.155816
-0.361343 -0.812469 0.068217
0.119134 -0.76136 -0.072702
-0.032647 -0.812469 -0.068907
0.237015 -0.812469 0.208105
0.031837 -0.812469 -0.018401
0.008106 -0.76136 -0.029731
-0.489282 -0.812469 0.114232
0.21284 -0.76136 -0.040444
0.365899 -0.76136 0.159234
0.069427 -0.812469 0.050545
0.260116 -0.812469 -0.07219
-0.310911 -0.76136 0.044739
-0.438416 -0.812469 0.060781
0.401273 -0.76136 -0.062409
0.337216 -0.812469 -0.16807
-0.343553 -0.812469 -0.130607
-0.519382 -0.781033 0.120789
-0.297716 -0.812469 0.113957
0.418314 -0.812469 0.162286
0.338318 -0.76136 0.161022
0.399879 -0.812469 -0.023484
-0.344289 -0.76136 -0.13796
0.291039 -0.76136 -0.033166
-0.345082 -0.76136 -0.009977
-0.343193 -0.812469 0.039375
-0.41285 -0.812469 0.117832
0.082372 -0.76136 0.218162
0.285171 -0.812469 -0.182743
-0.110035 -0.76136 -0.008632
0.089504 -0.76136 0.139632
-0.483886 -0.785671 -0.138908
-0.222777 -0.76136 -0.062892
-0.160133 -0.799147 -0.194267
0.19008 -0.812469 -0.134275
-0.25879 -0.772145 -0.150459
0.35705 -0.812469 0.077987
0.4917 -0.812469 -0.168144
0.392748 -0.812469 -0.115442
-0.330969 -0.786809 0.236092
0.479716 -0.765468 0.065607
0.128191 -0.812469 0.232107
-0.332209 -0.76136 0.124599
0.042811 -0.812469 0.024623
-0.515544 -0.777194 -0.17912
-0.282173 -0.784389 0.239079
0.498804 -0.76136 -0.125253
0.292089 -0.812469 0.129946
0.075661 -0.76136 -0.024717
-0.487 -0.76136 -0.078695
-0.149294 -0.812469 0.142325
-0.158733 -0.76136 -0.139831
0.128879 -0.803661 -0.194267
0.213836 -0.812469 -0.193315
0.05963 -0.812469 -0.175294
0.165498 -0.76136 -0.033179
-0.012773 -0.812469 0.02391
0.092438 -0.812469 0.094245
0.230793 -0.812469 -0.160442
0.073194 -0.76136 -0.098593
-0.353381 -0.812469 0.131128
0.475026 -0.812469 -0.014724
0.37739 -0.76136 -0.128715
0.441391 -0.812469 -0.044623
-0.370095 -0.812469 -0.117588
0.347944 -0.812469 0.048168
-0.234185 -0.76136 0.213529
-0.368205 -0.76136 -0.016761
0.462782 -0.812469 0.216709
-0.513209 -0.774859 0.156703
-0.311792 -0.772705 0.224031
-0.149016 -0.812469 -0.130614
-0.004018 -0.812469 0.15461
0.084162 -0.76136 0.068743
0.070259 -0.812469 0.169939
-0.497286 -0.806265 0.217718
0.432599 -0.807541 -0.194267
0.420125 -0.812469 0.221306
0.150636 -0.76136 0.153841
-0.203819 -0.812469 0.008885
0.172267 -0.76136 -0.099941
0.295425 -0.812469 0.049898
-0.084871 -0.812469 0.025931
-0.252279 -0.793942 0.244941
0.214177 -0.812469 0.197899
-0.003868 -0.812469 -0.027738
-0.05376 -0.76136 0.166604
0.090128 -0.76136 0.01718
0.419882 -0.76136 -0.025366
0.156934 -0.76136 0.209624
-0.255234 -0.812469 -0.075312
-0.344159 -0.812469 -0.075843
0.35572 -0.812469 -0.047958
0.264006 -0.778563 0.235332
0.206133 -0.812469 -0.070352
-0.158165 -0.812469 -0.063716
0.45745 -0.787831 -0.120926
-0.512423 -0.812469 0.002475
0.001711 -0.812469 -0.132598
0.140752 -0.812469 0.012384
-0.291893 -0.812469 0.210862
0.04037 -0.76136 0.215715
0.094712 -0.76136 -0.131297
-0.130818 -0.775962 -0.171526
0.213084 -0.76136 0.124799
0.268236 -0.812469 -0.165868
-0.481483 -0.812469 0.067252
0.051213 -0.812469 0.202168
0.032209 -0.812469 0.149399
-0.525264 -0.792389 0.016464
0.398282 -0.812469 0.066042
-0.30863 -0.775962 -0.1701
-0.507573 -0.812469 0.051591
0.209688 -0.812469 -0.146606
0.065259 -0.792234 -0.194267
0.518323 -0.812469 -0.173108
-0.448684 -0.76136 0.071569
-0.181545 -0.76136 -0.058367
-0.404298 -0.812469 -0.119545
-0.22164 -0.76136 0.087958
-0.423991 -0.812469 0.042991
-0.093028 -0.812469 -0.020407
0.41284 -0.812469 -0.134596
0.20754 -0.812469 0.008422
-0.140218 -0.812469 0.02563
0.090312 -0.812469 -0.076559
0.461908 -0.769952 -0.088247
0.350842 -0.76136 0.007402
0.253171 -0.76136 0.03005
-0.222663 -0.76136 0.182353
-0.158421 -0.812469 0.178753
-0.158841 -0.76136 -0.014738
-0.279399 -0.76136 -0.066752
-0.458341 -0.812469 0.074062
0.245405 -0.76136 0.195626
-0.479285 -0.790565 -0.000124
-0.268408 -0.812469 0.179652
0.333988 -0.76136 -0.051458
-0.115875 -0.76136 0.042372
-0.248818 -0.76136 -0.008842
-0.481247 -0.812469 -0.191752
-0.085199 -0.771648 -0.150459
0.183403 -0.806585 0.25269
0.514153 -0.774937 -0.031201
0.039749 -0.812469 0.002477
0.364928 -0.775962 -0.170452
-0.478795 -0.812469 0.165153
-0.187298 -0.76136 0.006913
0.082668 -0.812469 -0.042594
0.4945 -0.812469 -0.115126
-0.525264 -0.802524 0.091698
0.049994 -0.793586 0.267513
-0.232768 -0.781823 -0.194267
-0.11929 -0.76136 0.105615
-0.26486 -0.76136 -0.123086
0.318637 -0.812469 -0.179777
-0.352538 -0.812469 0.109221
-0.057964 -0.812469 0.166757
-0.061878 -0.775962 -0.190928
-0.439919 -0.812469 -0.059898
-0.031016 -0.812469 0.204895
0.232358 -0.76136 0.047479
-0.0771 -0.812469 -0.092411
-0.021224 -0.806564 0.270614
0.41233 -0.787356 0.227254
0.04354 -0.812469 0.064361
-0.058499 -0.812469 0.02596
0.23655 -0.812469 0.036166
-0.389661 -0.76136 0.007557
0.491884 -0.812469 0.143681
0.346192 -0.76949 -0.150459
-0.073302 -0.763582 0.241351
0.366197 -0.76136 -0.021722
-0.324264 -0.812469 0.08296
0.299585 -0.76136 0.042147
-0.293933 -0.812469 -0.142125
0.503183 -0.812469 -0.0743
-0.062396 -0.76136 0.114256
0.526131 -0.804112 0.133647
0.25532 -0.812469 0.119398
0.152635 -0.812469 -0.008411
0.041133 -0.812469 -0.153959
0.454312 -0.812469 0.03677
-0.512698 -0.774348 -0.092053
-0.15056 -0.785177 0.254495
-0.385531 -0.812469 -0.092807
0.104103 -0.812469 -0.025243
-0.174565 -0.812469 0.233607
-0.022374 -0.812469 -0.169382
0.02323 -0.76136 0.181041
-0.478914 -0.76573 -0.178133
-0.224217 -0.812469 -0.152157
0.294722 -0.775962 -0.175175
0.112907 -0.76136 0.052799
-0.193986 -0.812469 -0.051918
-0.431341 -0.76136 -0.055383
-0.014266 -0.76136 -0.052436
0.06254 -0.812469 -0.12225
0.260112 -0.76136 0.136239
-0.081048 -0.76136 0.079959
-0.513817 -0.812469 0.185778
-0.066342 -0.76136 -0.045043
0.165144 -0.786582 0.254385
-0.415128 -0.76136 -0.028231
-0.285431 -0.812469 0.017912
-0.132358 -0.791904 -0.194267
-0.495722 -0.76136 -0.022957
0.369503 -0.812469 -0.16885
0.441512 -0.766761 0.203734
-0.503218 -0.764869 -0.06542
0.252072 -0.812469 -0.134573
0.233025 -0.803234 -0.194267
-0.457351 -0.762791 0.197883
-0.357079 -0.812469 -0.150893
0.323256 -0.812469 -0.152458
-0.324073 -0.812469 0.207687
-0.36887 -0.76136 -0.05116
-0.22203 -0.812469 0.141197
-0.057615 -0.76136 0.055042
-0.239674 -0.76136 0.030879
0.016242 -0.775962 -0.164873
-0.229354 -0.812469 -0.067969
0.505631 -0.812469 0.01774
0.307159 -0.812469 0.0745
0.466724 -0.790565 -0.077192
0.387897 -0.812469 0.043439
-0.469309 -0.812469 -0.126431
-0.350187 -0.76136 0.165665
0.526131 -0.806855 -0.143225
0.438471 -0.812469 -0.088963
0.428488 -0.812469 -0.148054
0.461739 -0.790565 -0.164879
-0.331391 -0.781004 -0.194267
-0.404043 -0.812469 0.013481
0.239274 -0.767917 -0.150459
-0.12586 -0.812469 0.245536
-0.525264 -0.797106 -0.169827
-0.434738 -0.812469 -0.129901
0.002505 -0.812469 -0.087667
0.128598 -0.76136 -0.0218
0.179448 -0.792047 -0.194267
0.079874 -0.812469 0.259813
-0.280765 -0.812469 -0.015566
0.270637 -0.812469 -0.12242
0.041656 -0.812469 -0.133522
0.054819 -0.76136 -0.114918
-0.19706 -0.812469 -0.011933
0.202217 -0.76136 0.101368
-0.054703 -0.775962 -0.15403
-0.124554 -0.76136 0.006407
-0.456144 -0.812469 0.03339
-0.442364 -0.80288 -0.194267
-0.174636 -0.76136 0.161529
0.431051 -0.76136 -0.006888
-0.267962 -0.812469 -0.132781
0.514254 -0.812469 -0.035292
-0.476392 -0.790565 -0.119006
0.517636 0.82285 0.215553
-0.525264 0.829049 -0.186193
0.088432 0.837637 -0.19319
-0.258036 0.837637 0.234421
-0.224243 0.837637 -0.088149
0.33524 0.786528 -0.019057
-0.525264 0.827791 0.118056
0.523691 0.837637 -0.163973
-0.019369 0.837637 0.036177
-0.046809 0.837637 0.266707
-0.402568 0.837637 -0.030943
0.5138 0.799751 0.031974
0.165348 0.837637 0.04406
0.327332 0.837637 -0.19258
-0.173574 0.786528 0.084216
0.254661 0.837637 0.198596
-0.065231 0.837637 -0.112089
0.393238 0.837637 0.120758
-0.314431 0.837637 0.09429
0.208514 0.786528 -0.118423
0.079159 0.786528 -0.067794
-0.312654 0.837637 -0.184503
0.058392 0.837637 0.131456
-0.520162 0.837637 -0.061461
0.427413 0.837637 -0.07922
-0.451463 0.837637 0.213612
0.290524 0.786528 0.093695
-0.079109 0.837637 0.145951
-0.423619 0.786528 0.071984
-0.137597 0.786528 -0.02556
-0.289191 0.786528 -0.007803
-0.423847 0.789587 -0.150459
-0.141449 0.830414 -0.194267
0.354406 0.797478 0.218996
-0.155855 0.80103 0.244534
0.155978 0.837637 0.243401
0.054724 0.805527 0.260393
0.079234 0.786528 0.046525
0.250055 0.837637 -0.011277
-0.353778 0.837637 0.195715
-0.340992 0.786528 -0.09154
0.424275 0.837637 -0.179923
0.177431 0.837637 0.138362
0.420647 0.786528 0.040668
-0.212729 0.837637 0.151295
0.291035 0.837637 -0.107123
-0.023499 0.835208 -0.194267
0.507031 0.837637 0.126518
-0.491229 0.837637 0.035399
-0.204026 0.837637 0.017368
0.526131 0.829995 -0.062021
-0.018932 0.786528 -0.056278
0.189715 0.837637 -0.188416
0.165599 0.837637 -0.060554
-0.156338 0.786528 -0.111591
-0.114779 0.837637 0.040648
-0.001955 0.786528 0.101901
0.007368 0.837637 0.203603
-0.430658 0.837637 0.133142
0.327894 0.837637 0.047532
0.105593 0.837637 -0.010511
0.23068 0.786528 0.044077
-0.525264 0.815054 0.208282
-0.072817 0.837637 -0.035295
0.463207 0.789907 -0.13388
0.131852 0.786528 0.104098
0.027913 0.837637 -0.024921
0.132437 0.786528 -0.139216
0.010295 0.837637 -0.117858
-0.36167 0.786528 0.124068
0.427532 0.786528 0.188703
-0.345105 0.786528 0.042972
-0.088052 0.786528 0.089317
0.457271 0.837637 -0.000319
-0.298034 0.837637 -0.06149
-0.09098 0.786528 0.212423
0.098798 0.837637 0.198008
-0.267909 0.786528 -0.115305
0.169174 0.786528 -0.0097
0.24728 0.837637 0.115968
-0.242072 0.786528 0.068615
-0.416702 0.837637 -0.099715
0.382627 0.837637 -0.012914
0.092067 0.837637 -0.112788
0.35853 0.837637 -0.10025
-0.430229 0.786528 0.003693
0.257562 0.786528 -0.054849
-0.335168 0.837637 7.2e-05
0.328576 0.786528 0.14919
-0.246024 0.837637 -0.1519
-0.227543 0.786528 -0.032775
-0.443978 0.837637 -0.191698
-0.383257 0.837637 0.077113
0.440147 0.837637 0.075716
0.395372 0.786528 -0.056248
-0.40307 0.790723 0.206696
-0.167907 0.837637 -0.05006
-0.182332 0.837637 -0.143414
-0.278223 0.786528 0.121429
0.411865 0.837637 0.223049
-0.014891 0.837637 0.144165
0.323423 0.837637 0.112019
0.042808 0.837637 0.070516
-0.079225 0.786528 -0.078938
-0.00268 0.786757 0.247192
-0.463743 0.837637 -0.023582
0.219862 0.829058 0.248639
0.314548 0.837637 0.184472
-0.316606 0.812842 0.237793
0.365333 0.786528 -0.136828
-0.19637 0.837637 0.217117
0.202565 0.786528 0.116869
-0.155696 0.837637 0.130247
-0.057052 0.837637 0.20681
-0.34759 0.837637 -0.123644
-0.035116 0.786528 -0.123815
-0.056294 0.837637 0.084318
0.27337 0.837637 -0.164377
0.304509 0.786528 -0.143844
0.455765 0.837637 0.175804
0.298873 0.786528 0.034566
-0.373835 0.786528 -0.041915
0.322689 0.786528 -0.077225
0.156231 0.837637 -0.120476
-0.269412 0.837637 0.014966
-0.128472 0.837637 -0.094392
0.377436 0.786528 0.087578
0.113034 0.837637 0.071624
0.307448 0.837637 -0.029115
0.040437 0.786528 0.001014
-0.280679 0.837637 0.163836
-0.216826 0.837637 0.078659
-0.053023 0.786528 0.164985
0.124672 0.789766 0.236762
-0.524476 0.837637 -0.12955
-0.355027 0.837637 -0.065629
0.150385 0.786528 -0.080471
0.383255 0.837637 0.063379
-0.211414 0.786528 -0.124846
-0.059018 0.786528 -0.015708
0.261244 0.786528 0.146587
-0.113113 0.837637 0.189658
-0.428476 0.837637 0.024562
0.189897 0.837637 -0.011174
0.224346 0.837637 -0.059892
-0.513682 0.8005 -0.021457
-0.097294 0.786528 0.031534
0.289202 0.837198 0.240935
0.176026 0.837637 0.193008
0.203631 0.837637 0.082209
0.217422 0.837637 -0.142044
-0.099134 0.837637 0.254035
0.11204 0.837637 0.134044
0.181023 0.786528 0.064509
-0.203153 0.786528 0.138421
0.411634 0.786528 -0.107018
-0.010969 0.786528 0.015023
-0.365544 0.837637 0.138182
0.503732 0.789684 0.083152
0.110836 0.786528 0.002538
-0.39908 0.786528 -0.103719
0.516501 0.802453 -0.119305
0.070871 0.837637 -0.057586
-0.20034 0.786528 0.029398
-0.471144 0.837637 0.083796
0.473824 0.815733 -0.19424
-0.016722 0.837637 -0.067105
0.370465 0.786528 0.019538
-0.049574 0.786528 0.051699
0.06332 0.786528 0.124897
0.048872 0.837637 -0.152278
-0.294025 0.786528 -0.066433
0.517979 0.837637 -0.011769
0.26804 0.786528 -0.107607
-0.277115 0.80113 -0.178372
0.395337 0.837637 -0.137624
-0.306086 0.786528 0.078517
0.009427 0.837637 0.254473
0.078406 0.837637 0.034734
-0.397091 0.837637 -0.173229
-0.208727 0.837637 -0.186279
0.478306 0.837637 -0.138819
-0.100742 0.837637 -0.147717
-0.481235 0.815733 -0.088961
0.472154 0.837637 -0.048215
-0.494897 0.837637 0.176306
-0.337127 0.797374 -0.150459
0.029796 0.786528 -0.048601
0.283551 0.837637 0.068462
0.507054 0.837637 0.07349
-0.009338 0.786528 0.198737
-0.166956 0.837637 0.082873
0.010058 0.786528 -0.105107
-0.171825 0.786528 -0.066078
-0.131204 0.800621 -0.150459
0.424169 0.786528 -0.007172
-0.37287 0.837637 0.029518
