-0.453124 0.267451 -0.167493
-0.422797 0.691802 0.082382
-0.422797 0.09391 -0.065358
-0.453124 -0.420072 -0.156685
-0.453124 -0.101265 -0.018511
-0.453124 0.642396 0.083025
-0.422797 0.126765 0.073919
-0.453124 0.679487 0.129304
-0.453124 -0.058966 -0.178117
-0.422797 0.009578 0.006351
-0.422797 -0.725557 -0.074822
-0.422797 0.035876 0.122839
-0.453124 -0.436833 0.139148
-0.453124 0.736831 0.100055
-0.422797 0.26162 0.162105
-0.422797 -0.475403 0.147578
-0.422797 -0.396077 0.043486
-0.422797 -0.715814 0.057023
-0.453124 -0.421767 0.159991
-0.453124 0.267932 0.018965
-0.453124 -0.4787 -0.083243
-0.422797 -0.155947 -0.095968
-0.422797 -0.047914 0.06924
-0.422797 0.54794 0.10249
-0.422797 -0.179012 -0.084193
-0.422797 0.111013 0.041567
-0.44276 -0.748749 0.139755
-0.422797 -0.64525 -0.177784
-0.453124 0.061285 -0.123072
-0.43609 -0.345769 -0.197689
-0.422797 0.317885 0.033005
-0.422797 0.402547 0.105389
-0.453124 0.401628 -0.052244
-0.453124 0.602392 0.000498
-0.453124 0.166215 0.139484
-0.422797 -0.187912 -0.122733
-0.453124 -0.079529 0.143392
-0.437816 -0.23327 -0.197689
-0.422797 0.721351 -0.051174
-0.422797 0.130532 -0.093139
-0.453124 0.111707 -0.178212
-0.422797 -0.377055 -0.179179
-0.453124 0.5412 0.184198
-0.453124 0.376083 -0.179259
-0.453124 -0.63638 -0.094062
-0.422797 -0.532056 0.061786
-0.422797 -0.273784 -0.117689
-0.422797 -0.354381 -0.141301
-0.453124 -0.402223 -0.072582
-0.453124 -0.542301 0.069872
-0.453124 0.345342 0.008525
-0.422797 -0.007328 -0.06985
-0.453124 0.711362 0.126531
-0.453124 -0.36526 0.079332
-0.428478 -0.573319 -0.197689
-0.453124 -0.111229 -0.130256
-0.422797 -0.538092 0.1658
-0.422797 0.072742 0.004784
-0.422797 0.31789 -0.005668
-0.422797 -0.309633 0.001006
-0.422797 -0.008253 0.068014
-0.453124 0.730273 -0.038252
-0.453124 -0.164089 -0.042833
-0.422797 -0.244518 0.071386
-0.422797 -0.086067 -0.027726
-0.422797 -0.725825 -0.189874
-0.453124 0.267751 -0.009835
-0.422797 -0.600488 -0.04921
-0.446054 -0.645446 -0.197689
-0.422797 0.634287 -0.182431
-0.453124 0.658891 -0.0992
-0.453124 -0.720312 -0.071737
-0.422797 0.648911 0.101245
-0.453124 0.020516 0.15249
-0.422797 0.107199 -0.132379
-0.453124 0.466728 -0.013791
-0.453124 0.593593 -0.018965
-0.422797 0.078549 -0.10436
-0.434782 0.724863 -0.197689
-0.422797 0.567795 -0.130152
-0.453124 -0.433682 -0.007275
-0.422797 -0.341352 -0.097786
-0.422797 -0.108055 0.0492
-0.453124 0.013748 0.084732
-0.422797 -0.147869 -0.148907
-0.453124 0.558885 0.032227
-0.437361 -0.679905 -0.197689
-0.422797 0.624156 0.153766
-0.453124 0.670542 -0.003109
-0.422797 -0.242564 0.11696
-0.422797 0.163944 -0.074874
-0.422797 0.118598 -0.034401
-0.453124 -0.527248 -0.08066
-0.453124 -0.015256 -0.066106
-0.422797 -0.421439 -0.059052
-0.453124 -0.001227 0.173077
-0.422797 -0.056924 -0.15732
-0.422797 0.615712 0.018752
-0.422797 -0.645898 -0.025495
-0.453124 -0.262396 -0.192663
-0.422797 -0.669974 -0.122427
-0.422797 0.367532 0.047686
-0.422797 -0.210244 0.044931
-0.422797 -0.577089 0.013285
-0.453124 -0.132395 -0.016885
-0.422797 0.669244 0.10056
-0.422797 0.534319 -0.177624
-0.422797 0.322672 -0.186379
-0.453124 0.023459 -0.019926
-0.422797 -0.079255 -0.055377
-0.422797 0.090532 -0.086342
-0.422797 -0.313765 -0.058615
-0.453124 0.484316 -0.153257
-0.439184 -0.748749 -0.132193
-0.422797 0.429167 -0.069309
-0.453124 -0.476526 0.126528
-0.422797 -0.547079 0.12108
-0.453124 -0.438176 0.077068
-0.453124 -0.132984 -0.087655
-0.453124 0.331393 0.088082
-0.453124 -0.128226 -0.041669
-0.453124 -0.221189 0.140595
-0.422797 0.038435 -0.125507
-0.453124 -0.478607 0.034967
-0.422797 0.631159 -0.123248
-0.453124 0.517111 -0.197221
-0.422797 -0.561632 -0.058782
-0.422797 0.182918 -0.137471
-0.422797 0.685201 -0.1805
-0.422797 0.02993 0.082086
-0.422797 -0.288917 -0.087025
-0.453124 0.044651 -0.159915
-0.422797 -0.296002 -0.164992
-0.453124 0.523722 -0.14429
-0.453124 -0.608266 -0.125716
-0.453124 0.34324 0.171002
-0.453124 0.507929 0.074574
-0.453124 0.703393 0.027534
-0.453124 0.067129 0.162894
-0.422797 -0.449418 -0.019914
-0.422797 -0.518478 0.084233
-0.422797 -0.453351 -0.153639
-0.453124 0.493472 -0.107139
-0.422797 -0.206281 -0.129328
-0.453124 0.4338 -0.015396
-0.422797 0.218969 -0.084364
-0.453124 -0.701737 0.128699
-0.453124 0.696082 0.110286
-0.422797 0.607756 0.169422
-0.422797 -0.317822 -0.18107
-0.429189 -0.748749 -0.156439
-0.453124 -0.59095 -0.01744
-0.422797 -0.127763 0.030997
-0.453124 -0.312873 0.139379
-0.422797 -0.207459 0.123586
-0.453124 -0.252274 -0.110813
-0.453124 -0.287046 -0.025896
-0.453124 0.163509 -0.031127
-0.453124 -0.55256 0.108728
0.245391 -0.392654 -0.199118
-0.159029 0.427272 -0.229439
-0.362635 -0.512287 -0.229439
-0.144483 -0.067472 -0.229439
0.200403 0.346433 -0.229439
0.19519 -0.078375 -0.199118
-0.074437 -0.387611 -0.199118
-0.036325 0.182808 -0.229439
-0.186762 0.696637 -0.229439
0.212275 -0.656816 -0.229439
0.061646 0.541895 -0.229439
-0.375715 0.532458 -0.229439
-0.256974 -0.268936 -0.229439
-0.248603 0.122245 -0.199118
0.00663 -0.58568 -0.229439
0.247829 0.129484 -0.229439
0.268626 0.559248 -0.229439
0.083464 -0.255706 -0.199118
-0.331814 0.326083 -0.199118
-0.348812 -0.036947 -0.229439
0.025931 0.007751 -0.199118
-0.178816 -0.55909 -0.229439
0.390151 -0.602234 -0.229439
0.387075 -0.074843 -0.229439
0.025711 0.369045 -0.199118
0.319932 -0.23601 -0.229439
0.351799 0.260514 -0.199118
-0.084444 -0.221114 -0.199118
0.082618 -0.426985 -0.229439
-0.187023 0.269713 -0.199118
-0.088158 0.569344 -0.199118
-0.314575 -0.663374 -0.199118
0.128014 0.215597 -0.199118
-0.243117 -0.417194 -0.229439
0.18767 0.679985 -0.229439
-0.080577 -0.710106 -0.229439
0.084888 -0.733726 -0.229439
-0.325635 0.670049 -0.229439
0.318714 0.430869 -0.199118
-0.239055 0.538588 -0.199118
-0.119395 0.079095 -0.199118
0.25032 -0.524731 -0.229439
0.023645 -0.139462 -0.229439
-0.357754 -0.35426 -0.229439
-0.27163 -0.13787 -0.199118
0.342799 0.046026 -0.199118
0.012664 0.661833 -0.199118
0.116339 0.090535 -0.229439
0.203164 -0.206091 -0.199118
0.155063 0.466306 -0.199118
0.414263 0.511553 -0.229439
-0.327048 0.208552 -0.229439
-0.088493 0.334266 -0.199118
-0.278282 0.431886 -0.229439
0.350977 0.642002 -0.199118
-0.359254 -0.216242 -0.229439
-0.371409 0.104265 -0.199118
-0.075627 -0.512541 -0.199118
0.344631 -0.453778 -0.199118
-0.239117 0.013011 -0.229439
-0.056472 0.455549 -0.199118
0.161511 0.576358 -0.199118
0.366747 0.149979 -0.229439
0.286926 -0.130069 -0.229439
0.355205 -0.339197 -0.229439
-0.206691 -0.660254 -0.199118
0.213087 0.023204 -0.229439
-0.164705 -0.330868 -0.199118
0.314837 -0.683478 -0.229439
0.230097 0.241527 -0.199118
0.190023 -0.308407 -0.229439
-0.000968 -0.318935 -0.229439
-0.138627 0.179907 -0.229439
-0.167962 -0.166246 -0.229439
0.026896 0.261347 -0.229439
0.101713 -0.635865 -0.229439
0.121208 -0.151668 -0.229439
0.166456 -0.46775 -0.199118
0.399906 -0.165835 -0.199118
0.121799 -0.003282 -0.199118
-0.079263 -0.61571 -0.199118
-0.070823 -0.014242 -0.199118
0.366489 0.34998 -0.229439
0.029445 0.115867 -0.199118
-0.277491 -0.581062 -0.229439
0.107734 0.32075 -0.199118
-0.095504 0.6783 -0.199118
-0.368184 0.433355 -0.199118
-0.156634 -0.438959 -0.199118
0.281813 -0.033236 -0.199118
0.07939 -0.527363 -0.229439
0.015344 -0.679536 -0.199118
-0.071103 -0.134085 -0.229439
-0.228734 0.360133 -0.199118
0.240799 0.472593 -0.229439
0.054921 0.449675 -0.229439
-0.17883 0.60617 -0.229439
-0.279046 -0.496584 -0.199118
0.166735 -0.565237 -0.229439
-0.293445 -0.74851 -0.229439
0.105654 -0.337401 -0.229439
0.274866 0.695646 -0.229439
-0.152481 0.517205 -0.229439
0.177762 -0.743093 -0.229439
0.006275 -0.226246 -0.229439
0.001277 -0.483342 -0.229439
0.314771 -0.573441 -0.199118
-0.410128 -0.693015 -0.229439
-0.096125 0.255642 -0.229439
0.095378 0.644367 -0.199118
-0.306909 0.58149 -0.229439
-0.231559 -0.064581 -0.199118
0.07895 -0.084889 -0.199118
0.286176 0.32859 -0.229439
0.337095 0.516772 -0.199118
0.29809 0.195723 -0.229439
-0.167058 -0.242838 -0.199118
-0.03831 0.05458 -0.229439
-0.355702 -0.59245 -0.199118
0.275124 -0.322771 -0.229439
-0.268104 0.262124 -0.199118
0.171503 0.142139 -0.199118
-0.018286 0.527852 -0.199118
-0.016336 -0.075548 -0.199118
0.382582 -0.527244 -0.199118
-0.35948 -0.437153 -0.199118
-0.245229 0.639233 -0.199118
-0.165268 0.012435 -0.199118
-0.328659 -0.284908 -0.199118
0.397304 0.42271 -0.199118
0.12113 0.723972 -0.229439
-0.394467 0.365932 -0.229439
-0.311153 0.500198 -0.199118
-0.352917 -0.118346 -0.199118
0.014093 -0.388941 -0.199118
0.062608 0.186561 -0.229439
0.170712 -0.383241 -0.229439
-0.104476 -0.293115 -0.229439
-0.390373 0.698845 -0.199118
-0.271842 -0.337932 -0.199118
-0.213759 0.194651 -0.229439
-0.331268 0.037515 -0.229439
0.107158 0.394879 -0.229439
0.232241 0.62724 -0.199118
0.020763 0.730387 -0.229439
0.168646 0.272651 -0.229439
0.242953 0.403965 -0.199118
-0.156605 0.342427 -0.229439
0.275365 -0.454051 -0.229439
-0.378479 0.262264 -0.229439
0.393651 0.001363 -0.229439
-0.396814 0.010895 -0.199118
0.34718 0.708575 -0.229439
-0.183854 0.095607 -0.229439
-0.140687 -0.652845 -0.229439
-0.038105 0.612945 -0.229439
-0.026555 0.312953 -0.229439
0.404719 -0.273404 -0.199118
0.399009 0.092363 -0.199118
0.137083 -0.690509 -0.199118
0.413645 -0.391442 -0.199118
-0.209395 -0.494953 -0.229439
0.263238 0.06322 -0.199118
0.372927 0.581838 -0.229439
-0.310631 0.139997 -0.229439
-0.235752 -0.201896 -0.229439
0.410272 0.205706 -0.199118
-0.163093 -0.718146 -0.229439
0.252834 -0.253949 -0.199118
-0.256516 0.700128 -0.229439
-0.223453 0.460426 -0.199118
0.247743 -0.597863 -0.229439
-0.09628 -0.450375 -0.229439
-0.072464 0.396698 -0.229439
-0.0413 0.115139 -0.199118
0.427156 -0.476424 -0.199269
0.32344 -0.390118 -0.199118
-0.029843 0.243558 -0.199118
0.173398 0.073898 -0.199118
-0.079462 0.510619 -0.229439
0.149581 -0.265574 -0.199118
0.173038 0.402655 -0.199118
0.122188 0.514795 -0.229439
-0.392443 -0.268935 -0.199118
0.076533 0.038336 -0.229439
0.050943 0.606549 -0.229439
0.371194 -0.696997 -0.199118
0.209765 0.185532 -0.229439
-0.237391 -0.725798 -0.199118
-0.374539 0.635799 -0.199118
0.322161 0.107447 -0.199118
-0.128817 -0.124616 -0.199118
0.107369 0.149642 -0.199118
-0.027317 -0.640473 -0.229439
0.197993 -0.135103 -0.229439
0.413646 0.671929 -0.229439
-0.114861 0.619039 -0.229439
-0.13017 -0.379334 -0.229439
-0.393837 0.155671 -0.229439
-0.121862 0.469108 -0.199118
-0.29676 0.371203 -0.229439
-0.044686 -0.264011 -0.229439
0.063587 -0.199166 -0.229439
-0.033151 0.697416 -0.229439
0.354969 -0.121572 -0.199118
0.330337 -0.181709 -0.199118
0.140092 -0.055361 -0.229439
0.061009 -0.598662 -0.199118
0.270357 -0.651059 -0.199118
0.053506 -0.318354 -0.199118
-0.19331 -0.386126 -0.199118
0.40127 0.298018 -0.199118
0.245892 -0.708916 -0.229439
-0.415943 0.458516 -0.229439
-0.319495 -0.162748 -0.229439
-0.194748 -0.103936 -0.229439
-0.308696 -0.419143 -0.229439
-0.291728 -0.088013 -0.229439
-0.004531 0.433216 -0.229439
0.322682 -0.296541 -0.199118
0.053963 -0.473495 -0.199118
-0.136037 -0.591369 -0.199118
0.065514 0.700968 -0.199118
-0.063147 -0.564749 -0.229439
-0.060508 -0.327813 -0.199118
-0.218994 -0.330704 -0.229439
0.127512 -0.212642 -0.229439
-0.091309 0.150482 -0.199118
-0.034241 -0.433729 -0.229439
-0.154109 -0.499877 -0.199118
0.069799 -0.032812 -0.229439
-0.259221 -0.661598 -0.229439
0.291442 0.265282 -0.199118
0.245858 -0.162483 -0.199118
-0.28509 0.084755 -0.229439
0.221622 0.536307 -0.199118
-0.273154 0.201946 -0.199118
0.294075 0.604665 -0.199118
-0.392895 -0.633913 -0.229439
0.296609 0.0164 -0.229439
0.38628 -0.215563 -0.229439
0.041339 0.310524 -0.199118
0.176645 -0.62012 -0.199118
-0.226624 0.067011 -0.199118
-0.286285 -0.022837 -0.229439
-0.156949 0.652075 -0.199118
0.217894 -0.467823 -0.229439
0.333544 -0.629366 -0.199118
-0.222082 -0.601041 -0.229439
0.338818 -0.048039 -0.199118
-0.08571 -0.067448 -0.229439
0.313346 0.370657 -0.199118
-0.223475 0.310695 -0.229439
-0.353558 -0.724854 -0.229439
-0.326191 0.258485 -0.199118
-0.299934 -0.23436 -0.199118
-0.116205 0.017935 -0.229439
0.289296 0.504269 -0.229439
-0.172968 0.143712 -0.199118
0.350375 0.468325 -0.229439
-0.12074 0.388358 -0.199118
0.320734 -0.524969 -0.229439
-0.27444 0.322841 -0.199118
0.107198 0.594884 -0.229439
-0.406361 -0.183641 -0.229439
0.075063 0.255321 -0.199118
0.006333 0.579509 -0.199118
-0.397032 0.063063 -0.229439
0.21435 -0.033977 -0.229439
-0.0177 -0.012484 -0.229439
-0.397793 -0.081511 -0.199118
0.183684 0.504948 -0.229439
0.423513 0.049671 -0.229439
-0.413482 -0.473269 -0.229439
-0.388772 0.204486 -0.199118
0.078076 -0.686444 -0.199118
-0.1475 0.229249 -0.199118
0.203905 -0.517604 -0.199118
0.163501 0.62325 -0.229439
-0.239924 0.592606 -0.229439
0.056307 -0.368657 -0.229439
-0.21039 0.405495 -0.229439
-0.036722 0.366501 -0.199118
0.11241 -0.577252 -0.229439
0.111207 0.450309 -0.229439
0.133305 -0.500439 -0.229439
-0.024456 -0.191279 -0.199118
0.105237 -0.386903 -0.199118
0.020115 0.492374 -0.229439
0.011431 -0.271937 -0.199118
0.144891 0.036455 -0.229439
0.208444 -0.35041 -0.199118
0.407682 -0.322822 -0.229439
-0.391272 -0.561243 -0.229439
0.420833 0.373274 -0.199118
0.076308 -0.144373 -0.199118
0.228995 0.286966 -0.229439
0.083581 0.490934 -0.199118
0.022883 0.05303 -0.229439
0.222684 0.724946 -0.229439
0.350653 0.215292 -0.229439
-0.40874 -0.311465 -0.229439
0.017995 0.193667 -0.199118
0.216757 0.584908 -0.229439
0.270553 -0.076759 -0.229439
-0.387283 0.592715 -0.229439
0.136634 -0.426923 -0.229439
-0.304593 -0.533042 -0.229439
-0.028173 -0.733215 -0.229439
0.334767 0.301037 -0.229439
-0.192025 -0.284639 -0.229439
0.046825 -0.649329 -0.229439
-0.11511 -0.177746 -0.199118
-0.384701 0.306163 -0.199118
-0.121628 -0.030403 -0.199118
0.411091 -0.123892 -0.229439
-0.330725 -0.482916 -0.199118
0.288595 -0.495339 -0.199118
-0.025557 -0.127626 -0.199118
0.399202 0.247481 -0.229439
0.35861 -0.272906 -0.229439
0.330969 -0.732405 -0.199118
0.276311 -0.206741 -0.229439
-0.349227 0.158179 -0.199118
-0.332801 0.409634 -0.229439
0.189179 -0.692368 -0.199118
-0.297241 0.636067 -0.199118
-0.112105 -0.341072 -0.199118
0.201408 0.438626 -0.229439
0.285708 0.155422 -0.199118
-0.128902 0.714847 -0.229439
-0.063979 0.288604 -0.199118
-0.373788 -0.67233 -0.199118
-0.270305 0.491479 -0.229439
-0.218266 -0.248751 -0.199118
-0.074266 -0.668966 -0.199118
-0.213602 -0.453564 -0.199118
-0.315008 -0.616188 -0.229439
-0.386498 -0.396841 -0.229439
0.032898 -0.717099 -0.229439
-0.12724 -0.231653 -0.229439
-0.267608 -0.62126 -0.199118
-0.002316 -0.524337 -0.199118
-0.316467 0.447363 -0.199118
-0.276563 -0.393472 -0.199118
0.155206 0.322943 -0.229439
0.303388 0.660129 -0.199118
-0.210443 -0.016104 -0.199118
0.200156 0.111738 -0.229439
-0.170866 0.566131 -0.199118
-0.28954 -0.707915 -0.199118
0.332785 0.567254 -0.199118
0.250656 0.006685 -0.199118
-0.138125 0.117362 -0.229439
-0.048841 0.658876 -0.199118
0.170493 0.217233 -0.229439
0.401932 -0.654261 -0.229439
-0.301591 0.702087 -0.199118
0.389939 0.474547 -0.199118
0.17323 -0.179924 -0.229439
0.15403 -0.325124 -0.199118
-0.176944 -0.620163 -0.199118
0.150102 0.697088 -0.199118
-0.278314 0.540772 -0.229439
-0.17387 0.390892 -0.199118
0.235849 -0.106557 -0.199118
0.06286 0.411434 -0.199118
-0.221259 -0.154674 -0.229439
0.241253 -0.301937 -0.199118
0.368582 -0.423153 -0.229439
-0.144412 0.267996 -0.229439
-0.30064 0.01318 -0.199118
-0.091776 -0.748749 -0.199649
0.024775 -0.090419 -0.229439
-0.331901 -0.071507 -0.199118
0.397018 0.545861 -0.199118
-0.125976 0.302857 -0.199118
-0.051698 -0.479386 -0.229439
0.257204 0.357223 -0.199118
0.361993 0.079092 -0.229439
-0.251065 -0.469662 -0.229439
0.21692 -0.241409 -0.229439
0.379969 0.689588 -0.199118
0.267074 0.233527 -0.229439
-0.162952 0.050145 -0.229439
-0.116557 0.528683 -0.199118
0.215708 -0.561617 -0.229439
0.298615 -0.615738 -0.229439
-0.414941 0.399266 -0.199118
-0.065837 0.205826 -0.199118
0.351579 0.413 -0.229439
-0.061469 -0.186049 -0.229439
0.065837 0.138589 -0.229439
0.366104 -0.573752 -0.199118
0.385946 0.62928 -0.229439
-0.08878 0.057321 -0.229439
-0.171014 0.485056 -0.199118
0.033226 -0.539916 -0.229439
-0.354354 0.479802 -0.199118
-0.334317 0.074259 -0.199118
-0.029709 -0.591438 -0.199118
-0.344453 0.613547 -0.229439
-0.137344 -0.532461 -0.229439
0.397162 -0.03505 -0.199118
0.280037 0.458306 -0.199118
-0.030853 -0.36904 -0.199118
-0.055452 0.729729 -0.199118
-0.350103 -0.000573 -0.199118
0.279108 -0.378948 -0.229439
0.036844 -0.174514 -0.199118
-0.199603 0.513023 -0.229439
0.047205 -0.253845 -0.229439
0.286998 -0.732134 -0.229439
-0.323897 0.545568 -0.199118
-0.184595 -0.0614 -0.199118
0.259722 0.650493 -0.229439
0.245495 0.181356 -0.199118
0.339199 -0.083918 -0.229439
-0.229408 0.264167 -0.229439
0.287562 0.413281 -0.229439
0.110289 -0.101973 -0.229439
-0.330169 -0.376842 -0.199118
0.171766 0.013158 -0.199118
-0.139762 -0.28976 -0.199118
-0.05388 0.560554 -0.229439
0.111463 -0.277311 -0.229439
0.015627 -0.619819 -0.199118
0.107465 -0.47639 -0.199118
0.087425 0.365725 -0.199118
0.210799 -0.433387 -0.199118
-0.005204 0.153516 -0.199118
0.091767 0.222618 -0.229439
0.401036 -0.556986 -0.229439
0.07868 0.073221 -0.199118
0.222042 0.686273 -0.199118
0.147473 -0.642573 -0.229439
0.25475 0.310526 -0.199118
0.349009 -0.010633 -0.229439
0.157927 0.530273 -0.199118
-0.006624 0.283381 -0.199118
-0.415294 0.322579 -0.229439
-0.189536 -0.139058 -0.199118
0.037274 -0.428636 -0.199118
0.124982 0.288324 -0.229439
-0.028218 -0.68729 -0.229439
0.332522 0.603661 -0.229439
-0.219301 0.661945 -0.229439
-0.347544 0.721663 -0.199118
-0.291394 0.734989 -0.229439
0.22937 0.076419 -0.229439
-0.273728 0.167799 -0.229439
0.355566 -0.663129 -0.229439
0.353777 -0.238208 -0.199118
0.075093 0.329783 -0.229439
-0.089889 0.450074 -0.229439
0.413971 -0.425469 -0.229439
-0.283496 -0.192003 -0.199118
-0.404891 0.109095 -0.229439
0.092417 0.555786 -0.199118
-0.414902 0.227409 -0.229439
-0.195201 0.328953 -0.199118
-0.168971 -0.021005 -0.229439
-0.36991 -0.323048 -0.199118
0.137692 0.374544 -0.199118
0.421501 0.339859 -0.229439
-0.144821 0.602934 -0.199118
-0.240975 0.418542 -0.199118
-0.349757 0.354076 -0.229439
-0.295016 -0.314102 -0.229439
0.278903 -0.277993 -0.229439
0.30107 -0.100085 -0.199118
-0.416231 0.551859 -0.229439
-0.12848 0.668962 -0.229439
-0.373342 -0.181557 -0.199118
-0.268174 0.044048 -0.199118
0.318277 0.150692 -0.229439
0.271256 0.728317 -0.199118
-0.359814 -0.265351 -0.229439
-0.216023 -0.691474 -0.229439
-0.321649 0.290711 -0.229439
0.039755 -0.0451 -0.199118
0.1354 -0.729742 -0.229439
0.139734 -0.594652 -0.199118
-0.20446 -0.539396 -0.199118
-0.224303 -0.376913 -0.229439
-0.000286 0.34985 -0.229439
-0.18176 0.187139 -0.199118
-0.009758 0.034005 -0.199118
-0.24374 -0.116508 -0.229439
0.162676 0.739251 -0.229439
-0.219271 0.135564 -0.229439
0.328445 0.185534 -0.199118
-0.421367 0.2817 -0.200347
-0.002305 0.085324 -0.199118
-0.299461 -0.368233 -0.229439
0.030439 0.522541 -0.199118
-0.205761 -0.182435 -0.199118
0.307025 -0.43083 -0.199118
-0.111204 0.204578 -0.199118
-0.061686 0.03313 -0.199118
-0.295492 -0.455901 -0.199118
0.214579 -0.384224 -0.229439
-0.202262 0.562219 -0.229439
-0.410751 -0.031779 -0.199118
0.290484 0.078964 -0.229439
0.001577 0.22048 -0.229439
-0.195205 0.362824 -0.229439
0.119493 0.680384 -0.229439
0.242189 -0.423809 -0.229439
-0.022259 0.482206 -0.229439
0.170287 -0.114097 -0.199118
0.358487 0.380054 -0.199118
-0.08459 0.718908 -0.229439
0.136959 0.140187 -0.229439
-0.284139 0.39958 -0.199118
0.245385 -0.494046 -0.199118
-0.085101 0.635381 -0.199118
0.313951 -0.477925 -0.229439
0.059768 -0.11573 -0.229439
0.173238 0.652403 -0.199118
0.365274 -0.177852 -0.229439
0.295348 0.544127 -0.199118
0.205175 0.306296 -0.199118
0.235708 -0.676688 -0.199118
-0.096496 -0.096117 -0.199118
-0.203798 0.230051 -0.199118
-0.376299 -0.138033 -0.229439
0.173554 -0.020339 -0.229439
-0.378844 -0.741857 -0.199118
0.38496 -0.345692 -0.199118
0.197806 0.470594 -0.199118
0.226824 -0.186205 -0.229439
-0.13021 0.555801 -0.229439
-0.066769 0.080613 -0.199118
0.106848 0.038664 -0.199118
0.169007 -0.423817 -0.199118
0.394805 0.040011 -0.199118
0.396735 -0.476947 -0.229439
0.286797 -0.178359 -0.199118
-0.339568 -0.69806 -0.199118
0.255543 -0.567683 -0.199118
-0.101271 -0.584024 -0.229439
0.161384 -0.522481 -0.199118
-0.02677 -0.290965 -0.199118
0.332197 -0.141145 -0.229439
0.259623 -0.352436 -0.199118
-0.350838 -0.640951 -0.229439
0.050609 0.084991 -0.229439
0.416507 -0.246374 -0.229439
0.007394 -0.426353 -0.229439
-0.160606 -0.096155 -0.199118
-0.088516 -0.263108 -0.199118
-0.051165 -0.09691 -0.229439
0.386897 0.389955 -0.229439
-0.2551 0.347378 -0.229439
-0.328366 -0.576274 -0.229439
-0.021303 -0.554201 -0.229439
0.394396 0.733188 -0.199118
-0.036139 0.408532 -0.199118
0.403511 0.17388 -0.229439
-0.143547 -0.464847 -0.229439
-0.421367 0.186789 -0.220061
-0.005344 0.619728 -0.199118
-0.272451 -0.225567 -0.229439
0.360215 -0.545528 -0.229439
-0.421367 0.649696 -0.208477
0.13205 0.415998 -0.199118
-0.005363 0.718325 -0.199118
0.063256 0.289714 -0.229439
-0.286787 -0.286566 -0.199118
-0.177365 -0.419095 -0.229439
0.034415 0.690925 -0.229439
-0.377975 0.67301 -0.229439
-0.191584 -0.228036 -0.229439
-0.371341 -0.092462 -0.229439
-0.135142 -0.724042 -0.199118
0.250569 0.521775 -0.229439
-0.380863 0.407868 -0.229439
0.044276 0.477353 -0.199118
0.228998 -0.077508 -0.229439
0.252524 0.605991 -0.229439
0.045362 0.56506 -0.199118
-0.056343 -0.727198 -0.199118
0.096002 0.736926 -0.199118
0.168889 0.170195 -0.229439
0.007249 0.539749 -0.229439
0.202093 0.244159 -0.229439
0.126793 0.256925 -0.199118
-0.25107 -0.028175 -0.199118
-0.099086 0.103961 -0.229439
0.036159 0.156658 -0.199118
-0.243642 0.094756 -0.229439
-0.308344 -0.204545 -0.229439
0.215339 0.153387 -0.199118
0.122824 -0.077103 -0.199118
0.319572 0.710976 -0.199118
-0.315743 -0.024964 -0.199118
-0.074031 -0.415953 -0.229439
-0.01935 0.65883 -0.229439
0.105169 -0.691411 -0.229439
0.318294 0.330016 -0.199118
0.13162 0.607541 -0.199118
0.148685 -0.151593 -0.199118
0.0998 -0.218199 -0.199118
0.327972 0.672461 -0.229439
-0.044969 0.268832 -0.229439
0.220611 0.38809 -0.229439
0.162779 -0.211931 -0.199118
-0.231901 0.686165 -0.199118
0.022017 0.443216 -0.199118
-0.305883 -0.111252 -0.199118
-0.116269 0.419114 -0.229439
-0.329698 -0.329136 -0.199118
-0.19352 0.023331 -0.229439
-0.119676 -0.478257 -0.199118
-0.029124 -0.513182 -0.229439
-0.310413 -0.264924 -0.229439
0.049067 0.388182 -0.229439
-0.107846 -0.425974 -0.199118
-0.132737 0.148791 -0.199118
-0.101054 -0.666436 -0.229439
0.304155 0.633309 -0.229439
-0.421367 -0.586946 -0.211757
0.196072 0.728261 -0.199118
0.152534 0.439812 -0.229439
0.182963 -0.263166 -0.229439
-0.233413 -0.56118 -0.229439
-0.15595 -0.204117 -0.199118
0.028981 -0.571479 -0.199118
-0.36188 0.181408 -0.229439
-0.060193 -0.159721 -0.199118
0.081686 0.666899 -0.229439
-0.184583 0.300788 -0.229439
-0.114438 0.338362 -0.229439
0.240346 0.100278 -0.199118
0.020661 0.632799 -0.229439
0.085026 0.449618 -0.199118
-0.014518 -0.462467 -0.199118
0.140276 0.550505 -0.229439
0.289759 -0.550275 -0.229439
0.362224 0.108018 -0.199118
0.427156 0.633217 -0.226736
-0.241953 0.176983 -0.199118
0.377998 0.286412 -0.229439
0.385122 0.44865 -0.229439
0.289624 0.122949 -0.229439
0.256296 0.493335 -0.199118
-0.306306 0.330297 -0.229439
-0.407088 0.498654 -0.229439
-0.370608 0.03151 -0.229439
0.164499 -0.699548 -0.229439
0.233793 0.447886 -0.199118
0.31619 -0.36471 -0.229439
-0.026108 -0.408476 -0.199118
0.016387 -0.034648 -0.229439
-0.153054 0.466499 -0.229439
0.20406 -0.591449 -0.199118
-0.325512 0.479043 -0.229439
0.233446 -0.050937 -0.199118
-0.21515 0.598774 -0.199118
-0.31492 -0.70456 -0.229439
0.373276 -0.488753 -0.199118
0.2421 0.582521 -0.199118
-0.053297 -0.352175 -0.229439
0.021526 0.236192 -0.199118
0.208284 0.635572 -0.229439
-0.073737 0.663659 -0.229439
0.133877 0.655487 -0.199118
0.165277 0.29766 -0.199118
0.045407 -0.73899 -0.199118
0.203032 -0.011546 -0.199118
-0.417524 -0.648611 -0.199118
0.03098 -0.114742 -0.199118
-0.131735 -0.676285 -0.199118
0.184264 0.609165 -0.199118
-0.014344 -0.242219 -0.199118
0.236333 -0.329223 -0.229439
0.10412 -0.516806 -0.199118
0.379685 0.230388 -0.199118
-0.284834 -0.063989 -0.199118
-0.185611 0.070738 -0.199118
0.40112 0.597685 -0.199118
-0.05606 -0.606712 -0.229439
-0.071754 0.165805 -0.229439
-0.393657 0.469489 -0.199118
-0.32698 0.097949 -0.229439
0.05015 0.741265 -0.199118
-0.334931 -0.458537 -0.229439
0.207292 -0.618017 -0.229439
0.214749 -0.265996 -0.199118
-0.27114 -0.17065 -0.229439
-0.139881 0.692899 -0.199118
0.295151 -0.259661 -0.199118
-0.251572 -0.307501 -0.229439
-0.044712 -0.225089 -0.229439
0.012902 -0.17918 -0.229439
0.184264 -0.487296 -0.229439
-0.240859 -0.51775 -0.229439
-0.140435 -0.330747 -0.229439
0.088819 0.115528 -0.199118
0.30267 0.578837 -0.229439
-0.058302 -0.436488 -0.199118
0.355997 -0.715836 -0.229439
0.112491 0.18986 -0.229439
-0.201529 0.117513 -0.199118
0.304097 0.045482 -0.199118
0.308586 0.452639 -0.229439
-0.151286 -0.261919 -0.229439
-0.284904 0.590975 -0.199118
-0.421367 0.007513 -0.228769
0.253271 -0.213137 -0.199118
-0.150477 0.386282 -0.229439
0.389634 0.344359 -0.199118
-0.25591 0.72447 -0.199118
-0.194588 0.674262 -0.199118
-0.380948 0.346517 -0.199118
0.313333 -0.318258 -0.229439
-0.016634 0.574081 -0.229439
0.316314 -0.040949 -0.229439
-0.373713 -0.472831 -0.199118
-0.251824 -0.70715 -0.229439
-0.228375 0.501746 -0.199118
0.062365 -0.00421 -0.199118
0.143405 -0.304345 -0.229439
0.057146 0.645048 -0.199118
-0.284681 0.222182 -0.229439
0.423775 -0.714315 -0.199118
-0.079731 0.604031 -0.229439
-0.2194 -0.354206 -0.199118
-0.243524 0.051078 -0.229439
0.038443 -0.353864 -0.199118
0.347969 0.549788 -0.229439
-0.193463 0.535327 -0.199118
0.181103 -0.287017 -0.199118
0.190565 0.058456 -0.229439
0.044213 -0.450659 -0.229439
0.254428 -0.731585 -0.199118
-0.34226 -0.249385 -0.199118
0.074399 -0.577809 -0.229439
0.073085 0.209346 -0.199118
0.339626 0.14244 -0.199118
0.076682 -0.35826 -0.199118
-0.315286 -0.054714 -0.229439
0.133188 -0.388755 -0.229439
0.275761 0.281742 -0.229439
-0.328889 0.59699 -0.199118
0.088786 0.704248 -0.229439
-0.010008 -0.707653 -0.199118
-0.299072 0.289308 -0.199118
-0.132318 -0.146877 -0.229439
0.32862 -0.424768 -0.229439
0.422465 -0.520015 -0.199118
0.043705 0.350615 -0.229439
0.349186 -0.588362 -0.229439
-0.36913 0.463037 -0.229439
-0.35243 0.517413 -0.199118
0.178148 0.348327 -0.199118
0.313421 0.270014 -0.229439
-0.389104 -0.216063 -0.199118
-0.365548 0.125797 -0.229439
0.08533 -0.473575 -0.229439
0.361515 0.449022 -0.199118
-0.024563 0.129852 -0.229439
0.020129 0.30372 -0.229439
-0.187413 -0.480565 -0.199118
-0.377262 0.572841 -0.199118
0.330338 0.224371 -0.199118
-0.153691 -0.401479 -0.199118
0.31368 0.002216 -0.199118
-0.353418 -0.414623 -0.229439
0.034715 -0.330627 -0.229439
0.365583 0.190911 -0.199118
-0.046579 0.011386 -0.229439
0.188129 0.181757 -0.199118
-0.073851 -0.640824 -0.229439
-0.271051 0.120126 -0.229439
-0.063101 0.320579 -0.229439
0.304646 -0.142716 -0.199118
0.247805 0.425145 -0.229439
0.204262 0.549784 -0.229439
-0.0788 -0.24186 -0.229439
-0.385756 -0.356664 -0.199118
-0.130442 0.216154 -0.229439
-0.279804 0.472234 -0.199118
0.368542 -0.291876 -0.199118
0.176238 -0.657582 -0.199118
0.046584 -0.212086 -0.199118
0.159479 -0.036368 -0.199118
-0.397435 -0.060212 -0.229439
0.014244 0.144825 -0.229439
0.373567 0.038433 -0.229439
0.183999 -0.097831 -0.229439
-0.064452 -0.068163 -0.199118
-0.085984 0.212621 -0.229439
-0.362672 0.706782 -0.229439
-0.239612 0.297055 -0.199118
-0.331675 0.649471 -0.199118
0.360341 -0.391347 -0.199118
-0.079274 0.531684 -0.199118
0.147728 0.100399 -0.199118
-0.042239 0.094214 -0.229439
0.424376 0.399934 -0.229439
-0.278387 0.361251 -0.199118
-0.226995 -0.128837 -0.199118
-0.121178 -0.068879 -0.199118
-0.271149 0.282678 -0.229439
-0.264287 -0.061062 -0.229439
0.135606 0.234866 -0.229439
0.27931 -0.60833 -0.199118
-0.279158 0.626055 -0.229439
0.311944 0.490083 -0.199118
-0.23778 0.216289 -0.199118
-0.297693 -0.600375 -0.199118
0.001986 -0.350579 -0.199118
0.063273 -0.637105 -0.199118
-0.044787 -0.037081 -0.229439
-0.374269 -0.029079 -0.199118
0.260775 -0.041552 -0.229439
0.361578 -0.62709 -0.229439
0.101515 -0.001456 -0.229439
0.338446 -0.514935 -0.199118
0.37409 0.006945 -0.199118
0.102377 -0.659202 -0.199118
0.003269 0.104864 -0.229439
-0.007936 -0.278058 -0.229439
0.294824 -0.327667 -0.199118
-0.123891 -0.49808 -0.229439
-0.082256 -0.030938 -0.229439
0.103427 -0.721049 -0.199118
0.335376 -0.335406 -0.199118
0.359138 -0.080789 -0.199118
0.003102 0.412102 -0.199118
-0.402861 0.605491 -0.199118
-0.211552 0.15415 -0.199118
-0.025051 0.199455 -0.199118
0.250983 -0.124476 -0.229439
0.016721 -0.309416 -0.199118
0.083519 0.59104 -0.199118
-0.295756 0.101726 -0.199118
0.152338 -0.122966 -0.229439
0.293662 -0.364982 -0.199118
-0.116095 -0.621669 -0.199118
0.260998 0.168935 -0.229439
-0.32158 0.181621 -0.199118
0.133656 -0.019129 -0.229439
-0.295039 -0.484951 -0.229439
0.15867 -0.738023 -0.199118
-0.040536 0.161296 -0.199118
0.042829 -0.606304 -0.229439
-0.000245 -0.024086 -0.199118
-0.380196 0.388285 -0.199118
0.233491 0.212707 -0.229439
0.137605 -0.462981 -0.229439
0.217754 0.060718 -0.199118
-0.252567 -0.434282 -0.199118
-0.101998 0.376004 -0.229439
-0.134584 0.425732 -0.199118
0.058528 -0.509219 -0.199118
-0.157141 -0.036348 -0.199118
-0.204562 -0.711085 -0.199118
0.334041 -0.685588 -0.199118
0.284299 0.22484 -0.199118
-0.089973 0.485632 -0.199118
-0.179278 -0.372985 -0.229439
-0.219771 -0.284621 -0.199118
0.048584 0.053682 -0.199118
0.183876 -0.163961 -0.199118
-0.104927 0.002465 -0.199118
0.108307 -0.318489 -0.199118
-0.103392 0.290713 -0.229439
0.092816 -0.070723 -0.229439
-0.209408 -0.586867 -0.199118
-0.421367 -0.449607 -0.20373
0.032888 0.618545 -0.199118
-0.130867 0.733501 -0.199118
-0.17487 -0.638798 -0.229439
-0.107159 0.239993 -0.199118
-0.20586 0.477948 -0.229439
0.071176 -0.312212 -0.229439
-0.242008 0.45833 -0.229439
0.373658 0.672055 -0.229439
-0.177603 0.253648 -0.229439
-0.264289 -0.354938 -0.229439
-0.130498 -0.703924 -0.229439
0.161688 -0.34199 -0.229439
0.279453 -0.69728 -0.229439
0.427156 0.087472 -0.226169
0.28624 0.364088 -0.229439
-0.169521 0.449591 -0.199118
0.374621 -0.309483 -0.229439
0.394481 0.714751 -0.229439
-0.267671 -0.546966 -0.229439
-0.366733 0.302152 -0.229439
-0.389011 -0.723965 -0.229439
0.085526 0.509187 -0.229439
0.377792 -0.441378 -0.199118
-0.299488 0.235295 -0.199118
-0.02183 0.397276 -0.229439
-0.208779 -0.435337 -0.229439
0.210195 0.417242 -0.199118
-0.229064 0.031753 -0.199118
0.14743 0.168002 -0.199118
-0.247013 0.575977 -0.199118
-0.403897 0.243653 -0.199118
-0.148588 -0.109547 -0.229439
0.395678 -0.360139 -0.229439
-0.310903 -0.51207 -0.199118
0.369172 -0.110575 -0.229439
-0.272032 0.149928 -0.199118
0.267428 0.629094 -0.199118
0.074328 -0.411074 -0.199118
-0.155114 0.322659 -0.199118
0.219331 -0.283237 -0.229439
0.208393 0.653498 -0.199118
-0.099523 0.043134 -0.199118
0.423568 -0.441467 -0.199118
-0.350137 0.034555 -0.199118
0.231109 0.671029 -0.229439
-0.035585 0.524179 -0.229439
0.122649 -0.175125 -0.199118
0.38913 0.511694 -0.199118
-0.237977 -0.63371 -0.229439
-0.319179 -0.12278 -0.229439
0.121898 0.642616 -0.229439
0.087136 -0.035666 -0.199118
-0.077378 0.413557 -0.199118
-0.169764 -0.507789 -0.229439
-0.357332 -0.678233 -0.229439
0.081301 -0.664293 -0.229439
0.057253 -0.55088 -0.199118
-0.216224 -0.076334 -0.229439
0.127877 -0.441968 -0.199118
-0.335572 -0.411361 -0.199118
-0.217798 -0.418902 -0.199118
0.17327 0.38535 -0.229439
0.032419 0.576521 -0.229439
0.139518 0.052877 -0.199118
0.270665 -0.244081 -0.229439
-0.09939 -0.170596 -0.229439
0.322436 0.288976 -0.199118
0.360503 -0.199214 -0.199118
0.391996 -0.092468 -0.199118
0.190942 -0.411613 -0.229439
-0.089979 -0.484642 -0.229439
-0.356233 -0.180317 -0.229439
-0.306965 0.74465 -0.199854
0.036203 0.217203 -0.229439
-0.039753 -0.499872 -0.199118
-0.343785 0.259957 -0.229439
-0.223675 -0.735824 -0.229439
-0.066181 0.478528 -0.229439
-0.1946 -0.047803 -0.229439
0.327913 0.085586 -0.229439
0.065113 0.523019 -0.199118
0.076991 -0.167202 -0.229439
0.025478 0.177602 -0.229439
0.260218 -0.486295 -0.229439
0.073387 0.1563 -0.199118
-0.03742 0.325651 -0.199118
-0.379149 -0.511261 -0.199118
0.19484 0.563366 -0.199118
-0.339855 -0.214956 -0.199118
0.220335 -0.642445 -0.199118
-0.177801 -0.453586 -0.229439
0.130334 -0.350153 -0.199118
0.309747 -0.648355 -0.229439
-0.383009 0.071531 -0.199118
0.116357 -0.627713 -0.199118
-0.34128 -0.544339 -0.229439
-0.26852 0.520752 -0.199118
-0.11079 0.481095 -0.229439
0.05112 -0.26961 -0.199118
-0.274092 -0.43211 -0.229439
-0.106428 -0.124318 -0.229439
0.091481 0.161419 -0.229439
0.342557 0.023702 -0.229439
-0.079149 -0.329594 -0.229439
-0.299488 -0.657904 -0.229439
-0.267389 -0.675409 -0.199118
0.326498 0.504725 -0.229439
-0.389638 -0.129207 -0.199118
-0.128207 -0.605308 -0.229439
0.062334 0.342445 -0.199118
0.188188 0.272236 -0.199118
-0.037866 -0.397824 -0.229439
-0.032784 -0.672104 -0.199118
0.287301 -0.21815 -0.199118
0.299728 -0.688232 -0.199118
-0.245969 -0.594777 -0.199118
-0.245864 -0.484584 -0.199118
-0.396124 -0.505435 -0.229439
-0.357935 0.645325 -0.229439
-0.151768 0.63718 -0.229439
0.262562 -0.628635 -0.229439
-0.28734 -0.13793 -0.229439
0.274916 -0.414078 -0.229439
-0.31279 0.534511 -0.229439
0.273337 -0.170396 -0.229439
0.03226 -0.392847 -0.229439
-0.415012 -0.748628 -0.199118
0.000567 0.687186 -0.229439
0.298365 0.402166 -0.199118
-0.312464 0.243607 -0.229439
0.034994 0.422126 -0.229439
-0.242356 -0.224773 -0.199118
-0.158692 -0.68167 -0.229439
0.023277 -0.488095 -0.199118
0.427156 -0.309606 -0.204413
-0.039682 0.231923 -0.229439
-0.211844 0.070699 -0.229439
0.261534 0.688334 -0.199118
0.266061 -0.122537 -0.199118
-0.069075 0.376667 -0.199118
0.052991 -0.488616 -0.229439
-0.402003 0.435082 -0.199118
0.038637 0.015794 -0.229439
-0.111811 0.584208 -0.229439
0.271367 -0.009409 -0.229439
-0.216324 0.628272 -0.229439
-0.195122 0.038184 -0.199118
0.138046 -0.24476 -0.229439
0.407187 0.5568 -0.229439
0.216735 -0.510048 -0.229439
0.278746 -0.52759 -0.199118
-0.176681 0.620743 -0.199118
0.324014 0.343503 -0.229439
-0.344025 -0.295077 -0.229439
0.029528 -0.24357 -0.199118
0.191804 0.233878 -0.199118
-0.421367 0.710812 -0.20429
0.300624 -0.636436 -0.199118
-0.282605 0.043005 -0.229439
0.110398 0.691543 -0.199118
0.291141 -0.399136 -0.199118
0.252666 0.329515 -0.229439
-0.185212 0.136353 -0.229439
0.396563 0.209669 -0.229439
0.066858 0.577069 -0.229439
0.306387 -0.077204 -0.229439
0.107295 0.55624 -0.229439
0.159415 0.071531 -0.229439
0.341369 -0.210325 -0.229439
-0.336255 0.002124 -0.229439
0.401508 0.644763 -0.199118
-0.318515 -0.142136 -0.199118
0.16522 0.122498 -0.229439
-0.177201 -0.314497 -0.229439
-0.030148 -0.006604 -0.199118
0.402647 0.159689 -0.199118
-0.252333 0.66598 -0.229439
-0.020098 -0.115203 -0.229439
0.400604 -0.286241 -0.229439
-0.32614 -0.389693 -0.229439
-0.384951 -0.33458 -0.229439
-0.14604 0.35453 -0.199118
-0.384682 0.165403 -0.199118
0.008226 -0.157883 -0.199118
-0.300096 0.404133 -0.229439
-0.421367 -0.717648 -0.208877
-0.296719 0.669356 -0.199118
0.074387 0.308859 -0.199118
0.289052 -0.069279 -0.199118
-0.160273 0.733748 -0.229439
-0.104168 0.533139 -0.229439
-0.140687 -0.357657 -0.199118
-0.344212 -0.629625 -0.199118
-0.185202 -0.270429 -0.199118
0.203019 0.149035 -0.229439
0.28053 -0.290792 -0.199118
0.25021 0.142149 -0.199118
0.339112 0.637003 -0.229439
0.37511 0.069693 -0.199118
0.165038 0.474372 -0.229439
-0.180754 0.707904 -0.199118
-0.153033 0.075179 -0.199118
-0.04442 0.691562 -0.199118
-0.315251 -0.728394 -0.199118
-0.391654 0.663843 -0.199118
0.125763 0.451459 -0.199118
0.322963 0.07397 -0.199118
-0.377499 -0.460848 -0.229439
0.390428 -0.670415 -0.199118
0.031211 -0.650822 -0.199118
-0.193912 -0.315961 -0.199118
0.014687 -0.642993 -0.229439
-0.310947 0.618176 -0.229439
-0.22648 0.372538 -0.229439
-0.388932 -0.429493 -0.229439
0.248725 -0.461492 -0.199118
-0.214169 -0.506284 -0.199118
-0.254254 -0.283127 -0.199118
0.076274 0.026061 -0.199118
-0.348881 -0.602543 -0.229439
-0.193135 0.433242 -0.229439
-0.02827 0.596451 -0.199118
-0.134476 -0.551575 -0.199118
-0.082559 -0.354989 -0.199118
-0.273724 0.586606 -0.229439
-0.038292 -0.163137 -0.229439
0.12321 0.526634 -0.199118
0.196913 -0.479279 -0.199118
-0.016377 0.024166 -0.229439
-0.194066 -0.185701 -0.229439
-0.116405 0.64427 -0.199118
-0.242101 -0.191947 -0.199118
-0.123791 0.270398 -0.199118
0.399153 0.136919 -0.229439
0.36 0.539827 -0.199118
-0.011344 0.686388 -0.199118
0.386239 -0.516164 -0.229439
-0.371543 0.246608 -0.199118
0.330478 0.117962 -0.229439
0.397969 -0.154379 -0.229439
-0.110012 -0.088974 -0.229439
0.11881 0.574683 -0.199118
0.231988 0.731844 -0.199118
-0.390997 0.502215 -0.199118
0.172778 -0.582942 -0.199118
0.080904 -0.394621 -0.229439
-0.145869 0.542441 -0.199118
0.400139 -0.596868 -0.199118
-0.067025 -0.677609 -0.229439
0.39579 0.484113 -0.229439
-0.372329 0.500312 -0.229439
0.028102 0.700177 -0.199118
0.247089 0.655867 -0.199118
-0.133194 0.311124 -0.229439
-0.378006 -0.403787 -0.199118
-0.103858 -0.403713 -0.229439
0.074021 -0.293487 -0.199118
0.224292 0.206786 -0.199118
0.118063 0.324324 -0.229439
-0.001206 -0.433161 -0.199118
-0.231273 0.253622 -0.199118
0.370004 0.115238 -0.229439
0.279722 -0.659774 -0.229439
0.19297 -0.208947 -0.229439
-0.312129 0.70109 -0.229439
-0.15817 -0.162284 -0.199118
-0.059521 0.506378 -0.199118
0.327249 -0.259291 -0.199118
0.218242 0.495336 -0.199118
-0.14481 0.592438 -0.229439
0.168757 -0.666564 -0.229439
0.174839 0.434658 -0.199118
-0.331243 -0.082512 -0.229439
0.354386 0.18347 -0.229439
0.219328 -0.144533 -0.199118
-0.342859 0.41179 -0.199118
0.027486 -0.08051 -0.199118
0.393555 -0.22259 -0.199118
0.336558 -0.15016 -0.199118
-0.058665 0.121581 -0.229439
-0.000557 -0.704566 -0.229439
0.318264 0.625459 -0.199118
-0.172968 -0.718744 -0.199118
0.427156 0.536968 -0.209801
-0.048691 -0.32019 -0.229439
-0.116338 -0.201701 -0.229439
-0.19994 0.409231 -0.199118
-0.073783 -0.284533 -0.229439
-0.033279 0.062982 -0.199118
0.374512 0.615102 -0.199118
-0.275715 -0.006529 -0.199118
0.125034 0.12323 -0.199118
-0.130997 0.111138 -0.199118
-0.232635 0.510173 -0.229439
-0.38119 0.230643 -0.229439
-0.16227 0.225871 -0.229439
-0.210919 -0.651996 -0.229439
-0.226078 -0.635167 -0.199118
0.315244 -0.465678 -0.199118
0.398483 -0.123489 -0.199118
-0.391018 -0.225069 -0.229439
0.272294 0.572958 -0.199118
0.131355 -0.220924 -0.199118
-0.362326 -0.062773 -0.199118
0.090837 -0.219144 -0.229439
0.117553 0.081647 -0.199118
0.151685 0.236551 -0.199118
-0.391265 -0.698653 -0.199118
0.363455 -0.653963 -0.199118
0.416107 -0.087289 -0.229439
0.170493 -0.063909 -0.229439
-0.269366 -0.388599 -0.229439
-0.050823 -0.646231 -0.199118
-0.343854 0.51865 -0.229439
-0.082114 -0.10364 -0.229439
0.121291 -0.748749 -0.207781
-0.253333 -0.605088 -0.229439
0.19634 -0.046887 -0.199118
0.206816 -0.342036 -0.229439
0.19636 -0.687895 -0.229439
-0.406763 0.42812 -0.229439
0.018805 0.374857 -0.229439
-0.390143 0.271981 -0.199118
0.289949 -0.748654 -0.199118
-0.161515 -0.666259 -0.199118
0.109224 0.046555 -0.229439
-0.355789 -0.155506 -0.199118
-0.069915 -0.481662 -0.199118
-0.2561 -0.110603 -0.199118
-0.044393 -0.092555 -0.199118
0.130393 0.294264 -0.199118
-0.127357 0.078222 -0.229439
0.096018 0.420249 -0.199118
-0.377221 0.54149 -0.199118
0.000974 -0.531591 -0.229439
-0.201964 -0.100829 -0.199118
0.0044 0.312694 -0.199118
0.09944 -0.12327 -0.199118
-0.11924 -0.265504 -0.229439
-0.328892 0.105491 -0.199118
-0.000863 -0.102749 -0.199118
0.317878 0.405636 -0.229439
0.162003 -0.219463 -0.229439
-0.339299 0.068801 -0.229439
-0.413229 0.289497 -0.229439
0.420495 0.599673 -0.229439
0.1666 -0.435558 -0.229439
0.208744 0.122923 -0.199118
-0.062134 -0.447579 -0.229439
0.218525 0.01867 -0.199118
-0.171035 0.573064 -0.229439
-0.147179 -0.41164 -0.229439
0.124998 -0.667471 -0.229439
-0.061135 -0.241658 -0.199118
-0.30232 -0.421432 -0.199118
-0.09418 0.444936 -0.199118
0.14545 0.198878 -0.229439
0.183396 0.309933 -0.229439
0.370167 0.155682 -0.199118
-0.113289 0.161991 -0.229439
0.279675 0.089539 -0.199118
-0.295897 0.008663 -0.229439
0.206469 0.089588 -0.199118
-0.043492 0.419428 -0.229439
0.272147 0.523599 -0.199118
0.044696 -0.689387 -0.199118
0.329385 -0.612408 -0.229439
0.117259 -0.279514 -0.199118
-0.324174 -0.172559 -0.199118
0.053508 0.185382 -0.199118
0.041388 -0.300431 -0.229439
-0.054481 -0.53088 -0.229439
0.372012 0.286911 -0.199118
-0.235067 -0.158666 -0.199118
-0.309128 0.358196 -0.199118
0.09585 -0.129272 -0.229439
-0.095269 -0.737255 -0.229439
-0.24803 -0.03291 -0.229439
-0.341887 0.691364 -0.199118
-0.159786 0.01191 -0.229439
0.251169 0.394519 -0.229439
0.146328 -0.647906 -0.199118
0.248878 -0.613099 -0.199118
-0.158655 0.67507 -0.229439
0.065059 -0.084037 -0.229439
0.365853 -0.604516 -0.199118
0.060618 0.641267 -0.229439
-0.090523 -0.718034 -0.199118
-0.214889 -0.005869 -0.229439
-0.260628 -0.366521 -0.199118
0.177137 0.506324 -0.199118
0.324885 -0.544465 -0.199118
0.083447 0.368283 -0.229439
0.347387 0.262185 -0.229439
0.157021 -0.536161 -0.229439
-0.187881 -0.207336 -0.199118
0.339395 0.352226 -0.199118
-0.076211 0.601461 -0.199118
-0.12165 -0.034703 -0.229439
-0.40111 -0.029831 -0.229439
0.060401 0.715631 -0.229439
0.045138 0.261525 -0.199118
-0.152655 -0.574879 -0.229439
0.365185 -0.243117 -0.229439
-0.081181 -0.209326 -0.229439
-0.263686 0.663506 -0.199118
0.16946 0.653129 -0.229439
0.200405 0.472003 -0.229439
-0.127374 -0.234475 -0.199118
0.051204 0.087747 -0.199118
-0.202659 0.232624 -0.229439
0.170058 -0.622167 -0.229439
0.232543 0.158164 -0.229439
-0.237606 -0.669194 -0.199118
-0.136671 0.179122 -0.199118
0.213655 0.593223 -0.199118
0.013024 0.74465 -0.20378
0.138803 -0.593818 -0.229439
0.069612 -0.620564 -0.229439
0.360088 -0.391848 -0.229439
0.121185 -0.033585 -0.199118
-0.078622 0.178359 -0.199118
0.345134 -0.302632 -0.229439
-0.186837 0.358038 -0.199118
-0.121548 -0.748749 -0.212091
-0.05915 0.25105 -0.199118
-0.007293 -0.087813 -0.229439
0.237397 -0.673617 -0.229439
-0.350715 0.276093 -0.199118
-0.030546 -0.748749 -0.203662
-0.12824 -0.385246 -0.199118
0.369693 -0.463607 -0.229439
0.339102 0.476986 -0.199118
0.01085 0.45914 -0.229439
-0.187259 -0.342859 -0.229439
0.138478 0.413207 -0.229439
-0.249248 0.622785 -0.229439
-0.161693 -0.225008 -0.229439
-0.345487 0.622032 -0.199118
-0.344834 0.583562 -0.229439
0.247506 -0.301411 -0.229439
0.352007 0.700375 -0.199118
0.133298 -0.125889 -0.199118
-0.003176 0.075621 -0.229439
0.228581 0.356542 -0.229439
-0.421367 -0.622522 -0.214883
-0.404754 0.636297 -0.229439
-0.1964 -0.534904 -0.229439
0.147824 0.597787 -0.229439
-0.394404 -0.564069 -0.199118
-0.273604 0.390271 -0.229439
0.273739 0.03523 -0.199118
0.350348 -0.424457 -0.199118
-0.313263 0.392946 -0.199118
-0.074167 -0.386101 -0.229439
-0.055551 -0.283049 -0.199118
-0.083291 0.5744 -0.229439
-0.294274 0.071925 -0.199118
-0.079636 0.712263 -0.199118
0.04317 -0.395574 -0.199118
0.109947 -0.595971 -0.199118
-0.110724 -0.638268 -0.229439
-0.174684 -0.529464 -0.199118
0.008991 0.40295 -0.229439
0.424444 -0.631078 -0.229439
0.39668 0.356127 -0.229439
0.232444 0.290983 -0.199118
0.301236 0.709202 -0.229439
-0.337122 -0.332975 -0.229439
-0.043283 -0.214149 -0.199118
-0.254717 0.488243 -0.199118
0.173586 0.419016 -0.229439
-0.370175 0.001924 -0.229439
0.377715 -0.14629 -0.199118
-0.256725 0.212556 -0.229439
0.312096 -0.569614 -0.229439
-0.305684 0.569991 -0.199118
0.317884 -0.011461 -0.229439
0.014736 -0.352355 -0.229439
0.090257 0.280625 -0.199118
-0.001302 0.2175 -0.199118
-0.362418 0.218552 -0.199118
0.09193 0.282869 -0.229439
-0.391788 0.711093 -0.229439
-0.103756 -0.519412 -0.229439
0.219981 -0.105421 -0.229439
-0.299059 0.138554 -0.199118
0.391605 0.095413 -0.229439
-0.083431 -0.045841 -0.199118
-0.140256 0.027692 -0.199118
-0.17059 -0.748749 -0.20274
-0.122738 0.498372 -0.199118
0.268049 0.484152 -0.229439
0.107607 -0.420871 -0.199118
0.137792 0.490095 -0.229439
0.012773 -0.254728 -0.229439
-0.065227 -0.188482 -0.199118
-0.179082 0.39212 -0.229439
-0.323962 0.165971 -0.229439
0.362454 0.40891 -0.199118
0.072489 -0.268299 -0.229439
0.293519 -0.345342 -0.229439
-0.171618 -0.587651 -0.199118
0.091638 -0.16912 -0.199118
0.22023 -0.728371 -0.199118
-0.374178 0.133231 -0.199118
0.063252 -0.340422 -0.229439
-0.245636 -0.697121 -0.199118
0.305047 0.204521 -0.199118
-0.046272 0.629952 -0.199118
-0.163096 0.420279 -0.199118
0.036313 0.125983 -0.229439
-0.288723 -0.2842 -0.229439
-0.011477 0.437186 -0.199118
-0.218419 0.650189 -0.199118
-0.185472 0.538624 -0.229439
-0.201113 -0.402531 -0.229439
-0.106438 -0.339253 -0.229439
0.34056 -0.503876 -0.229439
0.0085 -0.455274 -0.229439
0.133439 -0.393282 -0.199118
0.375971 0.315214 -0.229439
0.36293 0.499562 -0.199118
0.427156 0.6624 -0.199566
-0.044843 0.727462 -0.229439
0.263976 0.283189 -0.199118
0.052161 0.38055 -0.199118
-0.116463 -0.272844 -0.199118
-0.289092 -0.530857 -0.199118
-0.301014 -0.561594 -0.229439
0.093858 0.522602 -0.199118
-0.133466 -0.321881 -0.199118
-0.24567 0.429874 -0.229439
0.302992 0.243297 -0.229439
-0.383867 -0.531551 -0.229439
0.343511 -0.482422 -0.199118
-0.099828 0.286083 -0.199118
0.258148 0.358525 -0.229439
0.186089 -0.315217 -0.199118
-0.421367 -0.314765 -0.201717
0.133123 0.024977 -0.199118
0.189481 0.611238 -0.229439
-0.371501 0.600872 -0.199118
-0.060489 0.562105 -0.199118
-0.35248 -0.48105 -0.229439
-0.324349 0.378513 -0.229439
0.021745 0.069991 -0.199118
0.228481 -0.215351 -0.229439
0.320034 0.041159 -0.229439
-0.185327 0.593594 -0.199118
0.316588 -0.164957 -0.229439
0.289461 0.693804 -0.199118
0.317098 0.253091 -0.199118
0.267499 0.062305 -0.229439
0.159037 -0.353044 -0.199118
-0.007008 0.247509 -0.229439
0.192247 0.707965 -0.229439
-0.090816 0.74465 -0.204426
-0.188972 -0.706627 -0.229439
-0.005744 -0.670052 -0.229439
0.13303 -0.303029 -0.199118
0.380571 0.568896 -0.199118
-0.099702 0.360244 -0.199118
-0.326592 -0.226137 -0.229439
-0.386213 0.195768 -0.229439
0.159843 0.530128 -0.229439
-0.057638 -0.595679 -0.199118
0.285104 0.370507 -0.199118
-0.371681 -0.238279 -0.199118
0.060416 -0.710838 -0.229439
-0.257116 -0.076498 -0.199118
0.255601 0.102404 -0.229439
0.208533 -0.669265 -0.199118
0.273333 -0.095197 -0.199118
-0.220159 0.033825 -0.229439
-0.279217 -0.713608 -0.229439
0.280693 0.456363 -0.229439
-0.255111 0.25275 -0.229439
0.066655 -0.054935 -0.199118
-0.051183 -0.748749 -0.225008
-0.321271 0.451256 -0.229439
-0.17649 0.223454 -0.199118
-0.23236 0.391805 -0.199118
-0.072421 0.539456 -0.229439
-0.09148 0.322216 -0.229439
0.24633 0.549616 -0.199118
0.272511 -0.153733 -0.199118
0.096537 -0.041215 -0.229439
0.266645 0.252256 -0.199118
0.184825 0.037932 -0.199118
-0.021052 -0.589782 -0.229439
0.351899 0.587645 -0.199118
-0.099976 0.099148 -0.199118
-0.388315 0.044135 -0.199118
0.380417 -0.729331 -0.229439
0.311069 -0.050878 -0.199118
0.3285 -0.10499 -0.199118
-0.299622 -0.639877 -0.199118
0.151562 0.002201 -0.229439
-0.21232 0.16684 -0.229439
-0.000192 -0.204905 -0.199118
0.272082 -0.678771 -0.199118
-0.14898 -0.698045 -0.199118
0.311025 -0.403323 -0.229439
0.368417 -0.054321 -0.229439
-0.346355 0.127036 -0.199118
-0.213117 0.705245 -0.229439
0.168887 -0.46423 -0.229439
-0.252471 -0.086122 -0.229439
-0.365909 -0.572382 -0.229439
-0.031316 -0.200851 -0.229439
0.088721 0.088548 -0.229439
0.14632 0.712477 -0.229439
-0.356665 0.74465 -0.21166
-0.290499 0.510394 -0.229439
-0.320495 0.209255 -0.199118
0.174532 -0.514771 -0.229439
-0.363347 -0.060456 -0.229439
0.198374 0.286716 -0.229439
-0.049438 0.147598 -0.229439
0.301304 0.125466 -0.199118
-0.280346 -0.461655 -0.229439
0.404339 -0.686339 -0.229439
-0.39442 -0.053931 -0.199118
0.411849 0.018405 -0.199118
-0.276109 0.12257 -0.199118
0.35961 -0.139035 -0.229439
-0.269775 0.092733 -0.199118
-0.212558 -0.737575 -0.199118
-0.030939 0.340074 -0.229439
-0.272281 0.231656 -0.199118
0.393136 -0.304054 -0.199118
0.110646 -0.251971 -0.199118
0.427156 0.314538 -0.206695
-0.053754 0.20839 -0.229439
0.229044 -0.580156 -0.199118
