-0.495413 -0.526571 -0.110033
-0.516998 0.211924 -0.323847
-0.516998 0.350121 -0.110074
-0.516998 -0.374272 -0.358797
-0.495413 0.371645 0.289072
-0.495413 0.451135 -0.175629
-0.516998 0.066037 -0.362184
-0.516998 0.401743 -0.350547
-0.495413 -0.086465 0.163345
-0.516998 -0.482657 -0.185222
-0.495413 -0.260803 -0.270841
-0.495413 -0.355891 0.266124
-0.516998 0.283886 -0.175171
-0.495413 -0.56885 0.085639
-0.516998 0.236737 0.29785
-0.495413 0.426098 -0.102504
-0.495413 0.307068 -0.28759
-0.516998 0.214153 0.208693
-0.516998 0.227816 -0.11435
-0.516998 0.639986 -0.308188
-0.495413 0.296666 0.009425
-0.495413 0.62424 -0.138062
-0.495413 0.657811 -0.355421
-0.516998 -0.218535 0.317533
-0.516998 0.101072 -0.197439
-0.516998 -0.54803 0.18033
-0.495413 -0.309246 -0.289943
-0.516998 -0.355808 0.080961
-0.516998 -0.354894 -0.072549
-0.516998 0.519737 -0.051224
-0.495413 -0.437162 0.180272
-0.495413 0.050107 -0.404866
-0.495413 0.156864 0.223273
-0.516998 -0.235687 -0.336242
-0.495413 -0.098145 -0.090019
-0.495413 -0.198749 0.138925
-0.495413 0.545667 0.167759
-0.516998 -0.566845 -0.036403
-0.495413 -0.153131 0.295347
-0.495413 -0.483606 0.136411
-0.516998 0.099618 0.166297
-0.495413 -0.514345 0.069391
-0.495413 -0.372834 -0.015155
-0.516998 0.45416 0.225786
-0.495413 0.584028 0.088414
-0.495413 0.521166 -0.143388
-0.495413 0.592025 -0.294095
-0.495413 0.494712 -0.343338
-0.495413 -0.104687 -0.34669
-0.516998 -0.069321 0.082765
-0.495413 -0.094476 0.22019
-0.516998 -0.269162 -0.010695
-0.516998 0.017309 -0.361661
-0.495413 0.013478 0.143514
-0.516998 -0.4511 0.234776
-0.516998 -0.472629 -0.345118
-0.495413 0.455549 0.068949
-0.495413 0.422408 -0.015198
-0.516998 0.185408 -0.220522
-0.516998 -0.264366 -0.08944
-0.516998 0.151813 -0.392719
-0.516998 -0.291999 0.109393
-0.495413 0.580183 -0.119922
-0.495413 -0.000442 -0.253243
-0.516998 0.559522 0.315631
-0.495413 0.592484 0.253788
-0.516998 0.176734 0.063064
-0.516998 0.129453 -0.07595
-0.495413 -0.331472 -0.341027
-0.495413 0.012534 0.264305
-0.495413 0.617955 -0.216629
-0.495413 -0.546789 -0.348955
-0.516998 -0.51143 -0.024859
-0.516998 0.690378 0.31756
-0.516998 0.592211 -0.404742
-0.495413 -0.286336 -0.195231
-0.495413 0.631115 0.087664
-0.495413 -0.043741 -0.172086
-0.495413 0.525026 0.236114
-0.516998 -0.046033 0.164457
-0.495413 -0.341044 -0.213919
-0.495413 -0.380779 -0.405369
-0.516998 -0.54084 -0.209081
-0.516998 -0.088624 -0.265951
-0.495413 0.097786 0.094395
-0.508309 0.7028 -0.187286
-0.516998 0.075313 -0.02173
-0.495413 0.546177 0.063545
-0.516104 -0.472726 -0.406626
-0.495413 0.107845 -0.349385
-0.516998 -0.350812 -0.270806
-0.495413 0.237405 -0.224384
-0.495413 -0.451901 -0.248988
-0.495413 0.499975 0.156339
-0.495413 -0.284214 0.025506
-0.495413 -0.046093 0.047725
-0.516998 -0.052745 -0.11607
-0.495413 -0.404269 -0.091739
-0.516998 0.699036 -0.107111
-0.495413 -0.148026 0.06778
-0.495413 0.303344 0.236362
-0.516998 0.00383 0.226707
-0.516998 0.318691 -0.364758
-0.516998 -0.064946 0.274057
-0.516998 -0.555333 0.292262
-0.495413 0.596764 0.005095
-0.495413 0.555905 -0.327157
-0.516998 -0.421749 -0.146224
-0.516998 -0.118846 -0.12893
-0.495413 -0.365093 0.222059
-0.495413 -0.197692 -0.176665
-0.516998 0.430029 -0.057287
-0.495413 -0.39346 0.151653
-0.495413 -0.115156 -0.206566
-0.495413 0.176699 -0.006738
-0.495413 0.425547 -0.2499
-0.516998 -0.500338 0.022477
-0.516998 0.33791 0.178433
-0.516998 0.18195 0.140538
-0.516998 0.314467 0.139595
-0.495413 -0.25907 0.326266
-0.516998 -0.368069 0.037436
-0.516998 -0.527096 -0.28107
-0.516998 0.473292 0.308331
-0.495413 0.063347 -0.216881
-0.516998 0.10246 0.322165
-0.516998 0.341131 -0.050143
-0.516998 -0.300303 -0.390251
-0.516998 -0.417447 -0.237581
-0.516998 0.606228 0.160506
-0.516998 -0.418486 -0.305778
-0.495413 0.341233 0.318319
-0.495413 -0.030779 -0.01665
-0.495413 0.41713 -0.20055
-0.516998 -0.189709 0.03432
-0.516998 0.069063 -0.105749
-0.495413 -0.313165 0.27493
-0.495413 0.27256 0.305228
-0.516998 0.684344 0.029113
-0.495413 0.067816 0.212773
-0.495413 -0.439828 0.02419
-0.495413 0.131509 0.182713
-0.516998 -0.281586 -0.130614
-0.516998 -0.447572 -0.095845
-0.495413 0.205468 -0.142264
-0.516998 0.158495 0.291428
-0.495413 0.574082 -0.076662
-0.495413 -0.465127 -0.050034
-0.516998 -0.207314 -0.116042
-0.495413 0.500987 -0.099341
-0.516998 0.48349 -0.160652
-0.495413 0.513394 -0.22704
-0.495413 0.026454 0.009954
-0.495413 0.381294 0.196313
-0.495413 0.454388 0.19074
-0.495413 0.176115 -0.346762
-0.495413 0.278431 -0.258066
-0.516998 0.132653 0.014076
-0.495413 -0.110038 0.298351
-0.516998 -0.431035 0.091502
-0.495413 0.555384 0.011625
-0.495413 -0.438145 0.270549
-0.516998 0.495634 -0.307532
-0.516998 -0.33604 -0.121298
-0.516998 0.340047 -0.245633
-0.495413 0.331671 -0.199078
-0.516998 0.273777 -0.074233
-0.516998 0.380417 0.255986
-0.516998 -0.330665 0.15691
-0.516998 0.664534 -0.220449
-0.495413 -0.025909 0.252912
-0.509922 0.538635 -0.406626
-0.495413 -0.152871 -0.047116
-0.516998 0.26912 0.190511
-0.495413 0.119745 -0.286761
-0.516998 -0.228626 -0.252373
-0.516998 0.652357 -0.099919
-0.516998 0.462633 -0.279596
-0.516998 0.623162 0.025589
-0.495413 0.250046 -0.314138
-0.495413 -0.385114 -0.056953
-0.495413 -0.096724 -0.38589
-0.516998 -0.01483 -0.091551
-0.495413 0.014638 -0.055769
-0.495413 -0.152834 0.130672
-0.516998 -0.198546 -0.348976
-0.516998 -0.032252 0.095681
-0.495413 -0.558018 -0.291968
-0.516998 -0.04335 -0.353314
-0.495413 0.063761 -0.281526
-0.516998 0.433974 0.115149
-0.495413 0.250012 -0.011075
-0.495413 -0.406736 -0.275418
-0.516998 0.017202 -0.283992
-0.516998 0.319499 0.033692
-0.516998 -0.156376 -0.228815
-0.516998 0.395393 -0.112601
-0.516998 -0.085812 -0.057555
-0.516998 -0.163746 0.26104
-0.516998 0.580611 -0.203522
-0.495413 -0.218892 0.085036
-0.495413 0.31112 -0.112959
-0.516998 0.651818 0.289336
-0.516998 -0.51789 0.151597
-0.516998 0.470247 0.097084
-0.516998 0.217063 -0.248729
-0.516998 0.436901 -0.133253
-0.516998 -0.39768 0.276149
-0.495413 0.076113 -0.068752
-0.495413 -0.503672 0.334888
-0.495413 0.094638 -0.157171
-0.516998 0.120404 0.250191
-0.516998 -0.126091 -0.291865
-0.495413 0.388357 0.00169
-0.495413 -0.302081 -0.013862
-0.495413 -0.202738 0.230103
-0.516998 0.395841 -0.259243
-0.495413 0.156913 -0.233081
-0.516998 -0.34148 -0.008706
-0.516998 0.021787 0.29392
-0.516998 -0.304206 0.327805
-0.495413 -0.575612 0.005545
-0.516998 0.702476 -0.362566
-0.516998 0.327025 -0.314479
-0.495413 0.024043 -0.103397
-0.495413 0.065007 0.157791
-0.516998 -0.562313 -0.126236
-0.516998 0.448594 0.000742
-0.516998 0.100043 0.032201
-0.516998 0.385718 0.166261
-0.516998 -0.142907 -0.350758
-0.495413 -0.575732 0.240092
-0.495413 0.700225 -0.288843
-0.495413 -0.16747 0.168618
-0.516998 -0.46784 0.169556
-0.516998 -0.567747 -0.174941
-0.495413 0.312634 0.101244
-0.516998 -0.397908 -0.201786
-0.516998 0.040383 -0.183813
-0.516998 0.020411 -0.133858
-0.516998 0.498407 -0.385041
-0.495413 0.489239 0.228971
-0.516998 -0.334603 -0.370283
-0.495413 0.361339 -0.026538
-0.495413 0.487708 -0.19341
-0.516998 -0.442895 0.301538
-0.516998 -0.228418 -0.084672
-0.495413 0.516053 -0.012936
-0.495413 -0.511205 -0.190853
-0.516998 0.474798 0.037133
-0.516998 -0.010799 0.172506
-0.495413 -0.104578 -0.170426
-0.495413 -0.558207 0.14416
-0.495413 -0.187001 -0.284826
-0.516998 -0.434593 -0.023181
-0.495413 0.253262 0.274237
-0.495413 0.54086 0.108212
-0.516998 -0.261091 -0.308203
-0.516998 0.265438 0.150653
-0.495413 -0.056288 -0.266606
-0.516998 0.313064 -0.154207
-0.495413 0.542264 -0.178188
-0.495413 -0.388559 0.332308
-0.516998 -0.060135 0.205527
-0.495413 0.206962 -0.091285
-0.516998 0.241113 0.024353
-0.495413 -0.343019 -0.037237
-0.516998 0.262584 -0.366716
-0.495413 -0.26487 0.250984
-0.495413 0.242981 -0.170575
-0.495413 0.204428 0.057389
-0.495413 0.260477 -0.099155
-0.516998 0.17091 -0.304822
-0.495413 -0.097452 0.002287
-0.516998 0.260331 -0.201706
-0.516998 0.399899 0.304804
-0.516998 0.091095 -0.231422
-0.495413 0.400591 0.122657
-0.516998 0.564879 -0.37981
-0.495413 0.295325 0.274848
-0.516998 -0.536141 -0.08275
-0.516998 0.589526 -0.053602
-0.495413 0.197088 0.230575
-0.495413 0.098272 0.266766
-0.495413 0.034 -0.026519
-0.516998 -0.509231 -0.137942
-0.495413 -0.2406 0.055052
-0.516998 -0.150964 0.198028
-0.495413 0.537991 0.201886
-0.495413 -0.566905 0.050761
-0.495413 -0.082855 0.108345
-0.495413 -0.408026 -0.37428
-0.495413 -0.449374 0.330989
-0.516998 0.656913 0.096568
-0.516998 0.02628 -0.220839
-0.495413 -0.407504 -0.020603
-0.495413 0.578328 0.285487
-0.516998 0.35683 -0.188893
-0.516998 -0.444522 -0.172304
-0.495413 -0.005312 -0.331599
-0.498777 0.206688 -0.406626
-0.495413 0.686476 0.189555
-0.516998 0.230456 -0.388238
-0.516998 0.376517 -0.38302
-0.516998 0.529008 -0.326114
-0.516998 -0.325832 0.102661
-0.495413 -0.416425 0.115751
-0.516998 0.165326 -0.258328
-0.495413 -0.147321 -0.150064
-0.495413 0.227078 -0.036499
-0.495413 0.451473 -0.34917
-0.516998 0.612513 -0.190644
-0.495413 0.20307 0.281089
-0.495413 0.223126 0.126404
-0.516998 0.529257 0.299951
-0.516998 -0.061073 -0.031952
-0.495413 -0.176807 -0.245436
-0.516998 0.452897 0.265445
-0.516998 -0.282078 0.213774
-0.495413 0.226962 0.182793
-0.516998 -0.412305 0.172175
-0.495413 0.29766 0.04791
-0.495413 -0.019686 -0.203437
-0.516998 0.106656 0.131078
-0.495413 0.255271 -0.056127
-0.495413 -0.05963 -0.091257
-0.516998 0.544122 -0.225757
-0.495413 -0.123585 0.197227
-0.495413 -0.067708 -0.361595
-0.516998 -0.105979 0.335385
-0.495413 -0.531471 -0.050428
-0.495413 0.640108 -0.280687
-0.516998 -0.016729 0.007023
-0.495413 0.65545 0.257752
-0.495413 0.405671 0.050375
-0.516998 0.141919 0.102297
-0.495413 0.593453 -0.260698
-0.495413 0.667396 -0.387421
-0.495413 -0.095893 -0.032904
-0.495413 0.239151 -0.137594
-0.495413 -0.197334 0.058331
-0.495413 0.53458 -0.071578
-0.495413 0.69484 -0.038835
-0.495413 0.238463 0.215264
-0.516998 0.645303 -0.151946
-0.516998 0.596403 -0.318791
-0.516998 0.293008 0.32143
-0.516998 0.384934 0.080701
-0.516998 -0.109133 -0.320189
-0.495413 0.382863 -0.144724
-0.495413 -0.575693 -0.364786
-0.495413 -0.218623 -0.030074
-0.495413 -0.344803 -0.246763
-0.495413 0.58252 0.166991
-0.516998 -0.105171 0.147473
-0.516998 0.120269 -0.384561
-0.495413 0.346599 0.243247
-0.495413 -0.571633 0.174252
-0.495413 -0.286492 -0.154463
-0.516998 -0.014273 -0.233219
-0.495413 0.361265 -0.225772
-0.495413 -0.027144 0.322505
-0.516998 0.198062 -0.018114
-0.495413 -0.44946 0.115046
-0.495413 -0.537522 -0.140679
-0.495413 -0.222214 0.194156
-0.516998 0.042519 0.095448
-0.495413 -0.576046 0.117218
-0.516998 0.676486 0.142657
-0.516998 -0.431253 -0.266714
-0.495413 -0.280333 -0.071626
-0.516998 0.045625 -0.30046
-0.516998 0.17171 0.031262
-0.495413 0.28441 -0.312118
-0.516998 -0.566889 -0.334774
-0.516998 0.689926 0.241769
-0.516998 -0.22123 -0.172807
-0.516998 0.489553 -0.226961
-0.495413 0.594117 0.214657
-0.516998 0.334925 0.092869
-0.516998 -0.260589 0.022973
-0.495413 -0.477596 -0.086102
-0.516998 -0.526402 0.003751
-0.495413 -0.219159 -0.145483
-0.495413 0.213229 -0.293898
-0.495413 -0.49148 0.169461
-0.495413 0.323052 0.196819
-0.516998 -0.066781 -0.230923
-0.495413 -0.173537 0.106375
-0.495413 0.636672 -0.331511
-0.516998 -0.172761 -0.059568
-0.495413 -0.308851 0.125527
-0.516998 -0.148758 -0.014802
-0.495413 0.672785 0.30225
-0.495413 -0.224945 0.27008
-0.516998 -0.342761 -0.30743
-0.495413 -0.049295 0.291298
-0.516998 0.298293 0.213715
-0.495413 0.066712 0.263956
-0.516998 0.30852 -0.197858
-0.495413 -0.268958 -0.350548
-0.516998 0.688369 0.060461
-0.495413 0.120377 -0.1848
-0.495413 0.074102 0.049952
-0.495413 0.309499 -0.252754
-0.495413 0.378399 -0.097212
-0.495413 -0.466299 -0.205185
-0.495413 -0.060297 0.182698
-0.516998 0.43154 -0.28409
-0.495413 -0.299373 -0.260131
-0.516998 0.564666 0.237325
-0.516998 -0.362886 0.115969
-0.516998 0.491758 -0.065096
-0.516998 -0.281311 0.180516
-0.516998 -0.209898 -0.378007
-0.495413 0.463852 -0.141234
-0.516998 -0.386301 -0.299576
-0.516998 -0.484744 -0.241038
-0.495413 -0.254804 -0.392879
-0.495413 -0.195229 0.290155
-0.516998 -0.111927 0.075427
-0.495413 0.391256 -0.235622
-0.516998 0.123952 -0.322466
-0.516998 0.233558 0.237092
-0.495413 0.094138 -0.377331
-0.495413 -0.162699 0.040393
-0.516998 0.507787 0.250277
-0.516998 0.565152 0.076562
-0.516998 0.174032 0.199332
-0.516998 -0.023997 -0.138892
-0.495413 -0.314777 0.308247
-0.495413 -0.565514 -0.235568
-0.516998 0.602906 -0.118556
-0.516998 0.106792 -0.268771
-0.495413 -0.039859 -0.379325
-0.516998 -0.449626 0.056679
-0.516998 -0.011972 -0.37143
-0.516998 0.447476 -0.097253
-0.495413 0.567369 -0.046575
-0.516998 0.26203 0.088991
-0.495413 -0.325753 0.24683
-0.516998 0.639606 0.06744
-0.495413 -0.391121 0.041056
-0.516998 -0.087001 0.042647
-0.516998 0.15653 -0.336963
-0.516998 -0.418515 -0.108333
-0.516998 -0.25753 0.304454
-0.495413 0.595279 0.138397
-0.495413 0.409486 0.269218
-0.495413 0.098824 0.010048
-0.495413 0.076447 -0.318901
-0.516998 0.155021 -0.008322
-0.516998 -0.148922 -0.271455
-0.516998 -0.391711 -0.333633
-0.495413 0.230424 -0.337629
-0.495413 0.292813 0.140795
-0.516998 -0.305627 -0.20513
-0.516998 -0.208633 0.009209
-0.495413 0.100643 0.187831
-0.516998 -0.040203 -0.193345
-0.516998 -0.425042 -0.358987
-0.495413 0.529119 -0.268506
-0.516998 -0.503019 -0.403844
-0.516998 0.40113 -0.017767
-0.516998 0.598533 0.072468
-0.495413 -0.091172 -0.244707
-0.516998 0.473613 0.147832
-0.495413 -0.57427 -0.402979
-0.495413 0.492323 0.119207
-0.516998 0.143396 -0.291999
-0.495413 -0.197194 -0.051565
-0.516998 0.073742 0.082547
-0.495413 0.181464 -0.037959
-0.516998 0.220621 -0.359566
-0.495413 0.435111 0.322217
-0.495413 -0.345983 -0.102578
-0.516998 -0.4566 0.004779
-0.495413 -0.213936 -0.237119
-0.516998 0.271322 0.024213
-0.495413 -0.030545 -0.311924
-0.495413 0.085338 0.308824
-0.516998 -0.183692 0.308067
-0.495413 0.65247 0.222444
-0.495413 0.163818 0.079594
-0.495413 -0.171977 0.215983
-0.495413 -0.246403 0.176314
-0.516998 -0.117391 0.008578
-0.516998 -0.484598 0.048034
-0.516998 0.590961 -0.01803
-0.516998 0.564287 -0.175761
-0.516998 -0.458736 0.198048
-0.516998 0.204621 -0.163483
-0.516998 -0.099537 0.179266
-0.495413 0.380407 -0.194436
-0.516998 0.290371 0.252278
-0.516998 -0.468651 -0.374635
-0.516998 -0.49665 0.306026
-0.516998 -0.493899 0.103511
-0.516998 0.471657 -0.34627
-0.516998 -0.423497 0.245442
-0.516998 0.032879 0.13756
-0.516998 0.401075 0.192464
-0.495413 0.007228 0.181337
-0.516998 -0.554744 -0.004338
-0.495413 -0.576868 -0.066679
-0.516998 -0.521602 -0.369689
-0.516998 0.043783 0.054407
-0.495413 0.016195 0.313128
-0.516998 -0.534345 0.069707
-0.495413 0.070019 -0.252806
-0.495413 -0.39584 0.18342
-0.516998 -0.288624 0.297633
-0.516998 -0.083401 0.236748
-0.516998 0.635713 0.175081
-0.495413 0.466013 0.010372
-0.516998 0.13812 0.20148
-0.495413 0.191753 -0.065453
-0.516998 0.293004 0.098068
-0.495413 0.559587 0.336945
-0.516998 -0.513927 0.048475
-0.495413 0.502696 -0.168209
-0.495413 0.208191 -0.203578
-0.495413 0.318396 0.33663
-0.516998 -0.194949 0.170138
-0.495413 0.118187 -0.139819
-0.516998 0.014186 -0.328542
-0.516998 -0.534732 -0.237681
-0.516998 -0.040358 0.024179
-0.495413 0.454849 -0.065412
-0.495413 0.603756 -0.067106
-0.495413 0.036207 -0.271986
-0.495413 0.567847 -0.277821
-0.516998 0.382811 0.227031
-0.495413 0.027156 0.209823
-0.495413 0.340636 -0.300618
-0.516998 -0.061953 -0.165351
-0.516998 -0.557187 -0.370577
-0.495413 -0.283617 -0.03622
-0.516998 -0.408003 0.051031
-0.516998 -0.104481 -0.222678
-0.495413 -0.023287 0.114251
-0.516998 0.3745 -0.054285
-0.495413 -0.489314 -0.299942
-0.495413 -0.262283 0.140658
-0.516998 -0.445194 -0.31668
-0.495413 0.269295 -0.38637
-0.516998 -0.335109 0.283449
-0.516998 -0.479571 0.230795
-0.516998 -0.255569 -0.144106
-0.516998 -0.559987 0.102399
-0.516998 0.438702 0.143474
-0.516998 0.635987 -0.35976
-0.495413 -0.512695 -0.268875
-0.516998 0.353477 -0.14486
-0.516998 -0.171556 0.059747
-0.516998 -0.588435 -0.108761
-0.495413 -0.39006 0.259017
-0.495413 0.343644 -0.371535
-0.516998 0.181747 0.091164
-0.495413 0.046085 0.180187
-0.516998 0.191709 -0.101955
-0.495413 0.187043 -0.31403
-0.495413 0.685162 0.223673
-0.495413 -0.385973 0.297453
-0.495413 0.383077 -0.272632
-0.516998 -0.189979 0.114799
-0.516998 0.425236 0.076546
-0.516998 0.130749 0.308538
-0.516998 -0.327501 -0.152012
-0.516998 -0.038577 0.06802
-0.516998 -0.109892 -0.188995
-0.516998 -0.377724 0.317531
-0.495413 -0.126674 0.150807
-0.495413 0.639738 -0.086694
-0.516998 0.315041 -0.005975
-0.516998 -0.03327 0.129454
-0.516998 0.008674 0.019273
-0.516998 0.610279 0.206431
-0.495413 0.69432 -0.254877
-0.516998 -0.241044 -0.00955
-0.516998 0.538311 -0.130923
-0.516998 0.27783 0.051943
-0.516998 0.070286 -0.200273
-0.516998 -0.019817 -0.058033
-0.516998 -0.122786 -0.073184
-0.516998 -0.535147 -0.307967
-0.495413 0.544421 -0.016628
-0.495413 0.024251 -0.191588
-0.495413 -0.312945 0.188354
-0.516998 -0.084979 -0.297837
-0.516998 0.058438 -0.131659
-0.516998 -0.116674 -0.360502
-0.516998 0.346653 -0.215617
-0.495413 -0.024338 -0.267783
-0.495413 -0.4363 -0.082082
-0.516998 -0.045379 0.254074
-0.495413 0.557089 -0.104135
-0.516998 -0.00523 0.263964
-0.495413 0.485336 -0.290048
-0.516998 0.056682 0.283317
-0.516998 0.144368 0.264412
-0.495413 0.698872 -0.124702
-0.516998 -0.466532 -0.032515
-0.495413 0.614319 0.064757
-0.508961 0.7028 0.115919
-0.516998 -0.472708 0.122714
-0.516998 -0.360417 0.294885
-0.495413 -0.0637 -0.304359
-0.516998 -0.5665 0.258153
-0.495413 0.590888 -0.387392
-0.495413 -0.363787 0.020683
-0.516998 -0.571669 0.208726
-0.495413 0.164707 0.140614
-0.496875 0.7028 -0.343657
-0.516998 -0.369496 -0.149764
-0.495413 0.50287 -0.048006
-0.495413 -0.272869 -0.10428
-0.516998 -0.137891 0.270496
-0.516998 -0.31915 -0.083169
-0.495413 0.190872 0.033457
-0.495413 -0.552185 0.337638
-0.495413 0.424717 0.012191
-0.495413 -0.580124 -0.025802
-0.516998 0.570441 0.019391
-0.516998 0.285594 0.294573
-0.516998 -0.161011 0.151191
-0.495413 -0.362365 0.324335
-0.516998 -0.263872 -0.037518
-0.495413 -0.381578 -0.107078
-0.495413 0.243853 -0.398293
-0.495413 0.618797 0.236616
-0.495413 0.103318 -0.066303
-0.495413 -0.070749 -0.214668
-0.495413 -0.08205 0.067189
-0.516998 0.474969 0.181481
-0.516998 0.310007 -0.269376
-0.495413 0.457753 -0.110302
-0.495413 -0.374814 -0.334917
-0.495413 -0.428007 -0.171456
-0.498848 -0.421534 -0.406626
-0.516998 -0.379473 -0.22805
-0.495413 -0.544219 -0.321764
-0.516998 -0.389206 -0.013105
-0.495413 0.01284 -0.301142
-0.495413 0.140587 -0.000309
-0.516998 0.359615 0.11314
-0.516998 -0.293554 -0.096087
-0.516998 -0.065847 0.115868
-0.516998 -0.545522 0.126632
-0.495413 -0.50436 -0.08988
-0.495413 -0.009644 0.299029
-0.516998 -0.111296 -0.099486
-0.496166 -0.305409 -0.406626
-0.495413 0.324897 0.065217
-0.516998 0.649744 0.030333
-0.495413 -0.584012 -0.329303
-0.495413 -0.509452 0.099528
-0.516998 0.393611 -0.180461
-0.516998 -0.490585 -0.325127
-0.516998 -0.194902 -0.140047
-0.516998 -0.161052 0.116265
-0.495413 -0.424928 0.046487
-0.495413 -0.22333 0.149643
-0.495413 -0.230239 -0.295719
-0.516998 -0.010356 -0.161957
-0.516998 0.299863 -0.308544
-0.495413 0.628004 -0.241432
-0.516998 0.651051 -0.255742
-0.499995 0.136548 -0.406626
-0.495413 -0.59157 0.035998
-0.516998 -0.022227 0.220767
-0.495413 -0.412974 -0.133192
-0.516998 0.038694 -0.011537
-0.495413 -0.552173 -0.176762
-0.495413 0.700585 -0.091572
-0.495413 0.267433 0.175018
-0.516998 -0.352168 -0.343982
-0.495413 -0.189652 -0.336245
-0.495413 0.191371 0.152849
-0.516998 0.500413 -0.358547
-0.516998 0.276326 -0.273249
-0.495413 0.537251 -0.204169
-0.495413 0.528913 -0.310823
-0.495413 -0.080187 0.2731
-0.516998 0.361863 0.015155
-0.516998 0.088316 0.106204
-0.495413 0.282793 -0.220804
-0.516998 0.240027 -0.028753
-0.516998 0.59857 -0.166009
-0.5156 0.7028 -0.159667
-0.495413 -0.438785 -0.037657
-0.495413 -0.238319 -0.320774
-0.495413 -0.345156 -0.292557
-0.495413 0.152452 0.277105
-0.495413 0.688132 -0.205973
-0.516998 0.289748 0.160677
-0.516998 0.46929 0.063006
-0.495413 -0.288425 0.071534
-0.516998 0.401447 -0.306359
-0.516998 -0.216912 0.290038
-0.495413 0.223405 0.304595
-0.516998 0.016992 0.05843
-0.495413 -0.288837 0.198629
-0.516998 -0.421225 -0.189837
-0.516998 -0.296624 -0.180561
-0.516998 0.091214 -0.171558
-0.495413 -0.482461 -0.130955
-0.495413 0.667664 0.171406
-0.516998 0.100895 -0.011412
-0.495413 -0.217861 -0.073219
-0.495413 -0.385326 0.089173
-0.495413 0.280909 0.332201
-0.516998 0.614018 -0.233569
-0.516998 -0.004867 -0.346368
-0.496761 -0.592306 0.284759
-0.495413 -0.494264 -0.17114
-0.495413 -0.531723 0.30504
-0.495413 0.581941 0.311222
-0.516998 0.165358 -0.16898
-0.495413 0.137181 -0.0881
-0.495413 -0.524903 0.018061
-0.495413 -0.557829 0.30643
-0.495413 0.018478 -0.235519
-0.495413 -0.550485 -0.267162
-0.516998 -0.57851 -0.229592
-0.516998 0.090224 -0.352942
-0.516998 0.418606 -0.214733
-0.495413 0.419252 0.140565
-0.516998 -0.32357 -0.186503
-0.516998 -0.158712 -0.31041
-0.495413 -0.15168 0.253559
-0.495413 0.183286 -0.234557
-0.516998 -0.216917 0.23009
-0.495413 0.287868 -0.073114
-0.516998 -0.210718 0.073517
-0.516998 -0.460971 -0.259812
-0.516998 0.240271 0.187337
-0.516998 0.077348 0.15106
-0.516998 0.44628 -0.037319
-0.516998 -0.215447 0.034775
-0.516998 -0.346544 -0.201049
-0.516998 0.34089 -0.075855
-0.495413 0.484631 0.300184
-0.495413 0.536643 -0.045979
-0.495413 -0.073648 -0.064044
-0.495413 -0.430592 -0.312367
-0.495413 0.593638 -0.141679
-0.495413 0.259272 0.075616
-0.516998 0.19969 0.187667
-0.495413 0.321682 -0.143671
-0.495413 0.561852 0.139095
-0.516998 -0.275647 0.259154
-0.516998 0.532978 0.060614
-0.516998 0.439247 -0.337683
-0.495413 -0.497752 -0.056473
-0.516998 -0.503866 -0.291457
-0.495413 -0.065516 -0.333895
-0.495413 0.516912 0.065455
-0.495413 -0.139722 -0.198418
-0.495413 0.244637 0.163819
-0.516998 0.563879 -0.059471
-0.495413 0.434532 0.280129
-0.495413 -0.156999 -0.28205
-0.516998 0.298464 -0.038312
-0.495413 0.411196 -0.341198
-0.495413 0.351382 0.152021
-0.495413 0.560405 0.249903
-0.516998 0.424775 0.238631
-0.495413 0.277668 0.200664
-0.495413 -0.33965 0.166615
-0.516998 -0.185739 -0.271661
-0.516998 0.195277 -0.297992
-0.495413 -0.027928 -0.093238
-0.516998 -0.541934 -0.032125
-0.516998 0.556532 0.16036
-0.516998 -0.213793 -0.042293
-0.495413 0.138777 -0.250667
-0.495413 0.479914 0.08821
-0.516998 0.261548 -0.307842
-0.516998 -0.078623 -0.368802
-0.516998 -0.395644 0.224443
-0.516998 -0.366606 -0.251195
-0.516998 -0.515569 -0.103182
-0.495413 0.607611 -0.364269
-0.495413 -0.35469 0.068108
-0.495413 0.421328 -0.047768
-0.516998 0.420072 -0.188033
-0.516998 -0.086716 -0.169497
-0.495413 0.330341 -0.096844
-0.516998 0.591962 -0.370197
-0.495413 0.364231 -0.175328
-0.516998 -0.244714 0.210329
-0.516998 -0.398316 -0.382417
-0.516998 0.658974 0.313694
-0.495413 0.209783 -0.013439
-0.495413 0.34438 0.209847
-0.495413 0.088582 -0.013894
-0.516998 0.359581 0.285647
-0.495413 -0.371057 -0.134293
-0.516998 0.607472 0.318664
-0.516998 0.203945 0.04489
-0.516998 -0.327792 0.032167
-0.495413 0.51503 -0.290146
-0.495413 0.45849 -0.306667
-0.495413 -0.004337 -0.08498
-0.495413 -0.463013 0.269736
-0.495413 0.517758 -0.333962
-0.516998 0.07468 -0.385513
-0.495413 0.059388 0.236179
-0.495413 0.152465 -0.208648
-0.495413 -0.405299 -0.239347
-0.516998 0.688223 -0.286321
-0.516998 -0.258186 -0.21851
-0.495413 -0.489504 0.287087
-0.516998 -0.390462 -0.163021
-0.516998 0.69642 -0.026737
-0.516998 0.514788 0.041136
-0.516998 -0.27082 0.14927
-0.495413 0.161357 -0.400191
-0.495413 -0.119284 0.275393
-0.516998 0.089695 0.195781
-0.516998 -0.275706 -0.392664
-0.516998 -0.347877 -0.048246
-0.516998 0.622321 -0.330883
-0.495413 0.373708 0.16605
-0.516998 0.092936 0.237547
-0.495413 0.575699 0.111653
-0.495413 -0.530078 -0.292653
-0.495413 0.267599 -0.29407
-0.495413 0.598331 -0.095286
-0.516998 -0.371336 -0.178589
-0.516998 0.487643 -0.269704
-0.495413 0.629024 0.036618
-0.495413 -0.173443 -0.1809
-0.516998 -0.317843 0.133165
-0.495413 0.524329 0.31801
-0.516998 0.249532 -0.078247
-0.495413 -0.23789 -0.242583
-0.516998 0.11001 0.084862
-0.495413 -0.148045 0.186693
-0.495413 -0.553623 -0.032034
-0.495413 0.472679 0.159483
-0.495413 -0.124626 0.07515
-0.516998 0.418467 -0.035651
-0.495413 0.47291 -0.013167
-0.516998 -0.138389 -0.211748
-0.495413 0.285484 -0.132214
-0.495413 -0.280382 0.232037
-0.516998 0.315888 0.112332
-0.495413 0.320087 -0.378578
-0.516998 -0.185502 -0.090317
-0.495413 -0.459477 0.161727
-0.495413 0.088977 0.153041
-0.516998 0.533187 -0.014473
-0.516998 -0.250645 -0.262941
-0.516998 -0.57816 0.048877
-0.515147 -0.395752 -0.406626
-0.516998 0.632536 0.003053
-0.516998 0.070882 -0.272645
-0.516998 -0.13098 0.333587
-0.495413 -0.124693 -0.405154
-0.506985 0.7028 -0.060328
-0.495413 0.653854 -0.144597
-0.495413 0.071157 0.18134
-0.495413 0.008607 -0.142203
-0.085016 -0.051163 -0.374248
0.318993 -0.331439 -0.374248
0.324057 0.396748 -0.374248
-0.338109 -0.396632 -0.374248
0.239415 0.045217 -0.374248
0.003524 -0.453827 -0.374248
-0.176784 0.27974 -0.374248
-0.384697 0.451882 -0.374248
0.083394 0.297165 -0.358059
-0.326677 0.036343 -0.374248
-0.003793 0.525464 -0.374248
-0.271713 -0.19474 -0.374248
-0.063426 -0.252672 -0.374248
0.003525 0.120317 -0.374248
0.109509 -0.095647 -0.374248
0.193485 -0.482279 -0.358059
0.312043 -0.154281 -0.374248
0.244612 0.221327 -0.358059
-0.167981 -0.493402 -0.374248
0.154706 0.455599 -0.358059
0.130367 -0.314015 -0.374248
-0.35508 0.256105 -0.374248
-0.358277 0.63586 -0.374248
-0.183084 0.106613 -0.374248
-0.188139 0.442663 -0.374248
-0.205547 -0.329015 -0.374248
-0.0403 0.379485 -0.358059
0.354685 0.125171 -0.358059
0.436029 -0.403725 -0.358059
-0.390274 -0.087897 -0.374248
0.37435 0.271836 -0.374248
0.365691 -0.022959 -0.358059
-0.047918 0.245973 -0.374248
0.139477 0.129602 -0.358059
-0.420852 -0.238365 -0.358059
-0.226283 -0.042188 -0.374248
0.19552 -0.201016 -0.358059
0.201187 0.338186 -0.374248
0.063347 -0.21133 -0.374248
-0.292051 0.532728 -0.374248
-0.092119 -0.377447 -0.374248
-0.145741 -0.162141 -0.374248
-0.413033 0.138852 -0.358059
-0.123129 0.542311 -0.358059
0.03274 -0.003474 -0.374248
-0.284016 0.351354 -0.358059
0.316357 -0.446313 -0.358059
-0.290068 0.150767 -0.374248
0.390739 -0.237297 -0.374248
0.235251 -0.075479 -0.358059
0.023359 -0.338442 -0.358059
0.050381 0.619242 -0.358059
0.222112 -0.374866 -0.358059
-0.329982 -0.290912 -0.374248
0.262403 0.482849 -0.374248
-0.028875 -0.139089 -0.358059
-0.077951 0.052027 -0.358059
0.139463 0.024173 -0.358059
0.051691 0.438485 -0.374248
0.406996 0.483465 -0.358059
-0.103894 0.16276 -0.358059
0.099696 -0.441763 -0.358059
-0.413053 0.345674 -0.358059
0.40715 -0.492604 -0.358059
0.280921 -0.240795 -0.358059
0.400478 -0.131166 -0.358059
0.071612 0.191921 -0.358059
-0.417789 0.025201 -0.374248
0.1562 0.243898 -0.374248
0.412607 0.370022 -0.358059
-0.073792 0.46431 -0.358059
-0.295622 -0.107086 -0.374248
-0.40481 0.543355 -0.358059
0.448149 0.095615 -0.358059
-0.261884 0.25339 -0.374248
-0.423078 -0.351 -0.358059
0.254351 0.132171 -0.374248
-0.190612 -0.242078 -0.374248
-0.137016 0.356721 -0.374248
-0.22065 0.578844 -0.358059
0.035255 -0.552289 -0.358059
0.120102 0.379198 -0.374248
-0.20836 0.186901 -0.374248
-0.226623 -0.427244 -0.374248
-0.444882 0.238016 -0.374248
-0.302235 0.44756 -0.374248
0.199701 0.648837 -0.370911
0.29041 0.321656 -0.374248
0.076115 0.518219 -0.358059
0.324617 0.047587 -0.358059
-0.233364 0.042375 -0.374248
-0.353231 -0.194444 -0.374248
0.074843 0.082466 -0.374248
0.405153 -0.315016 -0.358059
-0.462501 0.406589 -0.374248
-0.142795 0.007965 -0.374248
-0.003502 0.311603 -0.374248
-0.217383 -0.118796 -0.358059
-0.121379 -0.306202 -0.358059
0.247297 0.402398 -0.358059
-0.450161 -0.553254 -0.358059
-0.443576 -0.163334 -0.358059
0.310585 0.185528 -0.374248
0.0448 -0.134221 -0.374248
0.418296 0.205031 -0.374248
0.280159 -0.511573 -0.374248
-0.458584 -0.057155 -0.374248
0.213163 -0.273364 -0.358059
-0.154796 -0.416303 -0.358059
-0.340127 -0.03495 -0.358059
-0.070166 -0.463353 -0.374248
-0.212135 0.374886 -0.358059
0.120725 -0.512386 -0.358059
0.173465 -0.131902 -0.374248
-0.148777 -0.086818 -0.374248
-0.454933 0.492799 -0.374248
0.237392 0.580285 -0.358059
0.128605 0.624409 -0.358059
0.347867 0.571328 -0.358059
0.335073 0.472336 -0.358059
0.439273 -0.069608 -0.358059
-0.222106 0.508087 -0.374248
-0.233267 -0.547126 -0.374248
0.131969 -0.233933 -0.358059
0.284383 -0.023576 -0.358059
0.181858 -0.030322 -0.374248
0.41716 0.022881 -0.374248
-0.093074 0.30039 -0.374248
-0.081625 -0.186209 -0.358059
-0.006873 -0.20841 -0.374248
-0.359655 0.184364 -0.358059
0.44791 0.547833 -0.358059
0.034874 0.249799 -0.374248
0.334094 -0.090206 -0.358059
0.443076 0.301002 -0.358059
-0.143042 0.21937 -0.374248
-0.277077 -0.369342 -0.358059
-0.345378 0.322726 -0.358059
0.302276 0.256427 -0.358059
0.163792 -0.408737 -0.358059
-0.378638 0.083477 -0.374248
0.097723 -0.370392 -0.358059
-0.052453 0.632673 -0.358059
0.20165 0.515293 -0.374248
0.182302 0.180677 -0.358059
0.072701 -0.28492 -0.358059
-0.464053 -0.405559 -0.358059
-0.008862 -0.077998 -0.374248
-0.464003 0.076601 -0.358059
-0.461465 0.299976 -0.358059
0.107007 -0.161882 -0.374248
-0.01259 0.045024 -0.358059
-0.009274 0.182556 -0.358059
-0.426033 0.604964 -0.358059
-0.052154 -0.316685 -0.374248
-0.272837 -0.26027 -0.374248
0.465296 -0.130768 -0.358059
-0.2347 0.312625 -0.374248
-0.027583 -0.376408 -0.374248
-0.290297 0.086957 -0.358059
0.385604 0.4257 -0.374248
0.380202 -0.429749 -0.374248
0.434068 -0.549669 -0.358059
-0.137198 0.48083 -0.358059
0.454585 -0.241369 -0.358059
-0.275851 -0.001034 -0.358059
-0.288243 0.595278 -0.358059
0.024011 0.384521 -0.358059
0.249685 -0.149138 -0.374248
0.220977 0.281117 -0.358059
-0.233402 0.640123 -0.358059
0.233512 -0.437215 -0.374248
0.180396 0.067828 -0.374248
0.055378 -0.07115 -0.358059
-0.004003 -0.267533 -0.358059
-0.05611 0.12435 -0.358059
0.281041 -0.3906 -0.358059
0.049631 -0.490054 -0.358059
-0.097811 -0.119655 -0.374248
0.044212 -0.408977 -0.374248
-0.038582 -0.012333 -0.374248
-0.394709 -0.410688 -0.358059
0.124463 -0.037754 -0.358059
0.376523 -0.36531 -0.374248
-0.119718 0.414267 -0.374248
0.139491 0.322454 -0.374248
-0.466825 0.165157 -0.374248
-0.477369 -0.214495 -0.358059
0.223727 -0.533636 -0.358059
-0.403172 0.286838 -0.358059
0.291932 0.614066 -0.358059
0.351077 0.346648 -0.358059
0.339748 -0.207345 -0.374248
-0.017485 0.45905 -0.374248
-0.388311 -0.291849 -0.374248
-0.348002 -0.126587 -0.358059
0.191877 0.39596 -0.374248
0.391824 0.083587 -0.374248
-0.059651 0.541057 -0.374248
-0.247053 0.452612 -0.358059
-0.337233 0.404647 -0.358059
-0.121469 0.11078 -0.374248
-0.397114 -0.031882 -0.358059
0.29925 0.534092 -0.374248
-0.116542 -0.514272 -0.358059
0.427442 -0.177844 -0.374248
-0.214303 -0.172549 -0.374248
-0.481279 -0.284381 -0.374248
0.13147 0.509923 -0.358059
0.100547 0.465634 -0.374248
-0.335803 0.502027 -0.358059
0.458159 -0.321822 -0.374248
0.065841 0.136696 -0.358059
-0.337245 0.120252 -0.374248
-0.289097 0.208141 -0.358059
0.034884 0.561256 -0.358059
0.423707 0.597658 -0.358059
-0.296312 -0.542386 -0.358059
0.269325 -0.308125 -0.374248
0.2174 0.4517 -0.374248
0.322615 -0.272268 -0.374248
-0.444173 -0.108807 -0.358059
-0.174765 -0.03554 -0.358059
-0.148526 -0.353279 -0.358059
-0.319534 -0.237783 -0.358059
0.185138 -0.33518 -0.358059
-0.301286 0.291217 -0.358059
-0.273033 0.404969 -0.358059
-0.21794 -0.480672 -0.358059
0.433629 0.147463 -0.358059
-0.244725 0.115596 -0.358059
0.12795 0.198593 -0.374248
-0.342466 -0.345967 -0.358059
-0.161036 0.605852 -0.358059
-0.227253 -0.283362 -0.358059
-0.022612 -0.504027 -0.358059
0.439265 0.44262 -0.374248
0.063299 0.345916 -0.358059
-0.211835 -0.379321 -0.358059
0.467342 0.018244 -0.358059
0.368487 0.188234 -0.374248
-0.370635 0.587442 -0.358059
0.275306 0.079955 -0.358059
-0.473587 -0.009618 -0.358059
0.175654 -0.559806 -0.374248
-0.28819 -0.048851 -0.374248
-0.181657 0.046359 -0.374248
-0.398768 -0.138941 -0.374248
0.088169 0.238151 -0.374248
0.334578 -0.389386 -0.358059
0.102114 0.572676 -0.358059
-0.175635 -0.29118 -0.358059
0.378121 -0.541626 -0.358059
0.389095 -0.077395 -0.358059
-0.180389 0.531903 -0.358059
-0.0914 0.371312 -0.358059
0.2754 -0.189396 -0.358059
0.205979 0.111286 -0.374248
-0.404698 0.392597 -0.374248
-0.030926 0.583192 -0.374248
-0.080948 0.588774 -0.358059
-0.308085 0.643275 -0.374248
0.301311 0.126577 -0.358059
-0.267777 -0.147782 -0.358059
-0.490348 -0.169457 -0.374248
-0.218984 0.234843 -0.358059
0.39082 0.546213 -0.374248
0.288095 -0.097705 -0.374248
-0.389465 -0.45965 -0.358059
0.026243 0.075525 -0.374248
-0.00546 0.646653 -0.358059
0.123806 0.084505 -0.374248
0.147689 -0.187866 -0.358059
-0.081188 0.214601 -0.358059
0.417218 0.25065 -0.358059
-0.055537 0.330618 -0.374248
0.424457 -0.448626 -0.374248
-0.274944 -0.417367 -0.358059
0.302131 0.439513 -0.374248
-0.130013 -0.261878 -0.374248
0.38987 0.647546 -0.374248
-0.052232 -0.417415 -0.374248
0.07264 0.389908 -0.374248
0.041631 0.489569 -0.374248
-0.381114 -0.368184 -0.374248
-0.470966 0.536879 -0.358059
-0.288623 -0.313877 -0.374248
-0.438298 0.448521 -0.374248
-0.312551 -0.153353 -0.374248
0.09711 0.011307 -0.374248
0.211938 0.010638 -0.358059
0.328965 0.29474 -0.374248
-0.337971 -0.559643 -0.374248
0.086657 0.648837 -0.360065
-0.397444 0.240384 -0.358059
0.302298 -0.559124 -0.374248
0.454362 0.34691 -0.358059
-0.245789 0.164276 -0.358059
0.145158 -0.358225 -0.374248
0.123703 0.273811 -0.358059
-0.466867 -0.352019 -0.374248
0.243113 0.3504 -0.358059
-0.47898 0.582731 -0.358059
0.389934 0.312259 -0.358059
0.018681 -0.17346 -0.358059
-0.362416 0.001885 -0.374248
-0.026858 0.088899 -0.358059
-0.25599 -0.084057 -0.374248
-0.167372 0.405382 -0.358059
0.035071 0.170171 -0.374248
-0.05136 0.176732 -0.374248
0.140677 -0.474915 -0.374248
-0.409601 0.181129 -0.374248
-0.043172 0.29012 -0.358059
-0.106029 -0.44087 -0.358059
-0.079604 -0.001994 -0.358059
0.175712 -0.075188 -0.374248
0.284217 0.376219 -0.358059
-0.424507 0.091334 -0.374248
-0.0083 0.415018 -0.374248
0.351143 -0.304552 -0.358059
0.295783 0.017439 -0.374248
0.367898 0.036696 -0.358059
-0.432405 -0.298713 -0.374248
-0.282362 0.043098 -0.358059
-0.192523 0.005286 -0.358059
-0.337451 0.078741 -0.358059
0.423025 -0.277634 -0.374248
-0.343053 0.453976 -0.358059
-0.386573 0.496165 -0.374248
-0.290237 0.491547 -0.358059
-0.140863 -0.203014 -0.358059
0.369003 -0.477636 -0.374248
-0.2261 0.413379 -0.374248
-0.12707 0.070233 -0.358059
-0.35201 0.366538 -0.374248
0.180187 0.281271 -0.374248
0.168429 -0.251863 -0.374248
0.14721 0.550614 -0.358059
0.090118 -0.48079 -0.374248
-0.041583 -0.052363 -0.358059
-0.344581 -0.086603 -0.374248
0.251547 0.003761 -0.374248
0.161937 0.369394 -0.358059
-0.331431 0.56941 -0.358059
0.034003 0.297751 -0.358059
-0.319973 -0.502559 -0.358059
-0.479082 -0.445418 -0.374248
0.222684 -0.115688 -0.374248
0.235791 -0.489871 -0.358059
-0.256196 -0.456007 -0.358059
-0.479929 0.367485 -0.374248
0.010266 -0.043295 -0.358059
0.23198 0.183805 -0.374248
-0.060152 0.423838 -0.358059
0.008078 -0.117778 -0.358059
0.263377 0.285425 -0.358059
-0.098411 -0.228371 -0.374248
-0.094207 0.497976 -0.374248
0.114452 -0.274548 -0.374248
-0.391714 -0.186213 -0.358059
-0.477773 0.260714 -0.358059
0.266019 -0.46477 -0.374248
-0.155655 0.139048 -0.374248
0.441122 -0.015063 -0.358059
0.143893 0.418035 -0.374248
-0.158927 0.320539 -0.374248
0.327072 -0.483714 -0.374248
-0.250995 0.541677 -0.374248
0.336452 0.007401 -0.358059
-0.035158 -0.180493 -0.358059
0.056084 -0.365985 -0.358059
0.467084 0.196845 -0.374248
0.307504 -0.054407 -0.374248
-0.143251 0.180899 -0.358059
-0.36179 0.540864 -0.358059
0.348651 -0.134415 -0.374248
-0.479368 0.624413 -0.374248
0.234176 -0.184179 -0.358059
-0.113817 0.244061 -0.358059
0.444496 -0.485002 -0.374248
-0.450653 0.118683 -0.358059
0.378164 0.593979 -0.374248
0.24224 -0.334431 -0.358059
0.003161 0.606521 -0.358059
-0.084451 0.094813 -0.358059
-0.242102 -0.222681 -0.374248
0.383597 -0.20065 -0.358059
-0.457515 0.036483 -0.358059
0.248144 -0.036712 -0.374248
-0.131167 0.295922 -0.358059
0.432033 -0.111759 -0.374248
-0.197822 -0.557782 -0.358059
0.449039 0.510876 -0.374248
-0.324173 0.165031 -0.358059
0.406655 0.1172 -0.358059
0.15635 -0.521311 -0.374248
-0.104543 -0.558486 -0.374248
-0.440938 0.571456 -0.374248
0.328973 0.221124 -0.374248
0.083862 -0.246471 -0.358059
0.45561 -0.363793 -0.374248
-0.116863 0.597766 -0.374248
-0.252156 -0.315124 -0.358059
0.158123 0.648837 -0.368923
0.248872 -0.223576 -0.374248
-0.095614 -0.331837 -0.374248
-0.219785 0.084629 -0.358059
0.11444 -0.402534 -0.374248
0.272306 -0.35426 -0.374248
-0.378741 -0.32653 -0.358059
-0.190702 0.341769 -0.358059
0.102513 0.415574 -0.374248
-0.308874 0.252619 -0.358059
-0.227433 0.277595 -0.358059
0.036837 -0.301631 -0.358059
0.472287 0.628734 -0.358059
0.268561 0.559393 -0.374248
-0.032027 -0.455131 -0.358059
0.190423 0.234248 -0.358059
-0.013524 -0.556364 -0.374248
-0.428676 -0.199343 -0.358059
0.174587 -0.448226 -0.358059
0.33809 0.605373 -0.374248
0.382257 0.147391 -0.374248
0.036111 0.209038 -0.374248
-0.276269 0.316193 -0.374248
0.017489 -0.235204 -0.358059
0.14549 0.589541 -0.358059
0.07217 -0.112276 -0.358059
0.078018 0.04762 -0.358059
0.0126 0.34774 -0.358059
-0.17467 -0.110279 -0.358059
0.237425 0.61937 -0.374248
0.081604 -0.556267 -0.374248
0.305967 0.499982 -0.358059
0.001492 0.240399 -0.358059
-0.066594 -0.500757 -0.358059
0.216812 0.552435 -0.374248
-0.173408 0.492641 -0.358059
-0.041609 -0.279353 -0.358059
-0.173159 -0.191089 -0.374248
-0.114782 -0.016465 -0.358059
0.369268 0.380052 -0.358059
0.101258 0.34761 -0.358059
-0.487598 0.473424 -0.374248
0.422473 0.334213 -0.374248
-0.17314 0.371566 -0.374248
0.084683 -0.02452 -0.374248
0.268054 0.519859 -0.358059
-0.243494 0.607428 -0.374248
0.278252 0.227108 -0.374248
-0.24993 0.38002 -0.374248
-0.471814 -0.47859 -0.358059
0.136625 -0.121662 -0.374248
0.448137 0.267474 -0.374248
0.365728 0.235286 -0.374248
-0.00325 0.55934 -0.358059
-0.089677 -0.279428 -0.374248
0.361049 -0.272229 -0.374248
-0.18045 0.220647 -0.374248
0.106757 0.117666 -0.374248
0.171652 0.014581 -0.374248
0.250349 -0.271172 -0.358059
0.403958 -0.012899 -0.358059
0.187167 0.143308 -0.374248
-0.060959 -0.215625 -0.374248
0.277288 0.185001 -0.358059
-0.238237 0.20332 -0.358059
-0.329271 0.61164 -0.374248
0.00559 -0.521207 -0.374248
0.008785 0.486184 -0.358059
0.064776 -0.160507 -0.358059
0.263165 -0.422726 -0.358059
0.432377 0.401009 -0.358059
0.064153 -0.454795 -0.374248
-0.356335 -0.265328 -0.374248
0.172822 0.321709 -0.358059
-0.32969 0.001138 -0.358059
0.183025 0.543743 -0.358059
-0.248178 -0.500985 -0.358059
0.232173 0.319049 -0.374248
-0.175947 -0.386678 -0.358059
0.040871 0.11575 -0.374248
-0.19485 0.619221 -0.358059
-0.065167 -0.140535 -0.358059
-0.093909 -0.156115 -0.374248
0.124542 0.236586 -0.358059
0.196545 -0.394903 -0.374248
-0.485792 0.134327 -0.374248
-0.303598 -0.189252 -0.358059
-0.298369 0.380234 -0.374248
-0.027248 0.151289 -0.358059
-0.33139 0.199587 -0.374248
0.207687 -0.241735 -0.374248
-0.102299 0.33113 -0.358059
-0.131431 -0.380281 -0.374248
-0.428599 0.306169 -0.374248
0.117633 0.152897 -0.374248
0.278772 -0.136024 -0.358059
0.293594 -0.480817 -0.358059
-0.471793 0.200586 -0.374248
0.462219 -0.169682 -0.374248
-0.241842 -0.398514 -0.358059
-0.446407 0.333466 -0.358059
-0.03222 0.504189 -0.374248
0.247522 0.252773 -0.374248
-0.4447 0.380634 -0.358059
-0.027689 -0.237018 -0.374248
0.228069 0.498223 -0.358059
-0.396134 0.047989 -0.358059
-0.314042 -0.079729 -0.358059
0.017955 0.038417 -0.374248
0.270591 -0.058451 -0.358059
-0.444401 -0.514366 -0.358059
-0.245349 0.005596 -0.374248
0.416179 -0.048619 -0.374248
-0.445005 0.002802 -0.374248
-0.37866 0.333924 -0.358059
0.308728 -0.205061 -0.358059
-0.296303 -0.393728 -0.374248
-0.215309 0.473784 -0.374248
0.168193 0.483495 -0.374248
-0.121472 0.445195 -0.358059
-0.060038 -0.077241 -0.374248
0.114991 0.043086 -0.374248
0.451269 -0.519236 -0.374248
0.246623 0.099665 -0.358059
0.376388 0.480454 -0.374248
-0.103348 -0.473689 -0.374248
0.32427 0.152584 -0.358059
0.010521 0.278025 -0.374248
0.21501 -0.019872 -0.374248
0.382111 -0.511259 -0.374248
0.320744 0.329975 -0.358059
-0.387595 0.421432 -0.358059
-0.186908 0.165108 -0.358059
-0.39348 -0.261755 -0.358059
0.016305 -0.426183 -0.358059
-0.12787 -0.059417 -0.374248
0.333495 -0.034999 -0.358059
0.316022 0.095567 -0.358059
0.214423 0.213281 -0.374248
0.295438 -0.417146 -0.374248
0.201323 -0.143492 -0.358059
-0.021607 0.349047 -0.358059
-0.383183 0.134759 -0.374248
0.42661 -0.230186 -0.374248
-0.441943 0.524405 -0.374248
-0.296074 0.117139 -0.374248
-0.08528 0.253498 -0.374248
-0.153589 -0.317333 -0.358059
-0.381172 -0.214247 -0.374248
0.402585 0.169325 -0.358059
0.071861 -0.510032 -0.374248
-0.369882 0.293573 -0.358059
0.121364 0.444291 -0.358059
-0.134936 0.388632 -0.358059
-0.245903 -0.127323 -0.374248
0.146255 -0.07935 -0.358059
-0.439332 0.182111 -0.358059
-0.360915 -0.451825 -0.374248
-0.303087 -0.339589 -0.358059
0.254903 0.435126 -0.358059
-0.26785 0.623966 -0.358059
0.202092 -0.428992 -0.358059
0.442985 0.629558 -0.374248
-0.220797 0.148961 -0.374248
0.01593 -0.371091 -0.358059
-0.266101 -0.553627 -0.374248
0.16695 -0.160498 -0.358059
0.211799 -0.314998 -0.358059
0.145869 -0.270479 -0.358059
0.071821 -0.399332 -0.358059
0.220834 0.141229 -0.374248
-0.056614 0.085892 -0.374248
-0.324578 0.343193 -0.374248
-0.104516 0.648837 -0.374113
0.353968 0.313419 -0.358059
-0.20854 0.539321 -0.374248
0.414811 0.051881 -0.358059
0.169894 0.611629 -0.374248
0.215062 0.378409 -0.358059
-0.10238 0.016067 -0.374248
-0.306978 -0.266954 -0.374248
-0.397757 -0.531367 -0.358059
-0.291436 0.562269 -0.358059
-0.191738 0.578781 -0.374248
-0.226558 -0.254468 -0.374248
-0.220257 -0.516673 -0.374248
-0.127416 0.513748 -0.374248
-0.486556 -0.322914 -0.374248
0.068857 0.461337 -0.358059
-0.258115 -0.034118 -0.374248
-0.443751 -0.032739 -0.358059
0.296791 0.288771 -0.358059
-0.304317 -0.472228 -0.358059
0.251301 -0.099851 -0.374248
0.305295 -0.299979 -0.374248
-0.358864 -0.157407 -0.358059
0.035936 -0.457681 -0.358059
-0.485767 0.034247 -0.374248
0.057386 0.232623 -0.358059
0.064609 0.013762 -0.374248
0.014781 0.438018 -0.374248
0.333871 0.264289 -0.358059
-0.442261 -0.256774 -0.374248
-0.355886 0.029351 -0.358059
0.448116 0.239276 -0.358059
0.359866 0.536319 -0.374248
0.10328 -0.306292 -0.358059
-0.160907 0.256582 -0.358059
0.208639 -0.086541 -0.374248
0.372805 -0.337578 -0.358059
0.472688 0.449412 -0.374248
-0.057339 0.03313 -0.374248
0.27677 0.108911 -0.374248
-0.137664 0.632362 -0.374248
-0.160614 0.447206 -0.358059
-0.303012 0.183096 -0.374248
-0.378775 -0.490001 -0.358059
-0.36671 -0.394879 -0.358059
-0.356043 -0.300529 -0.358059
-0.161302 -0.228887 -0.374248
-0.112532 0.193682 -0.358059
0.104672 0.314873 -0.374248
-0.406097 -0.318531 -0.374248
0.096438 0.621808 -0.374248
0.310816 -0.367875 -0.358059
0.207967 0.051537 -0.374248
-0.386727 0.014973 -0.358059
-0.186114 0.073553 -0.358059
-0.1083 -0.193055 -0.374248
-0.42762 0.496047 -0.358059
0.333372 -0.514714 -0.358059
0.427619 -0.331066 -0.374248
-0.470392 0.433795 -0.358059
0.35557 -0.413391 -0.358059
-0.417333 0.221472 -0.374248
-0.440682 0.639864 -0.358059
0.34538 -0.161554 -0.358059
-0.095749 0.13206 -0.358059
0.365344 -0.063955 -0.374248
-0.41975 0.415356 -0.358059
0.008538 0.15285 -0.374248
0.185193 -0.27873 -0.374248
-0.049774 0.21842 -0.358059
0.018689 -0.496573 -0.358059
0.058539 0.646909 -0.374248
-0.08148 -0.30875 -0.358059
-0.018844 -0.406699 -0.374248
-0.125074 -0.135482 -0.374248
0.151704 -0.021144 -0.374248
0.298809 0.568201 -0.374248
-0.155081 0.051184 -0.358059
-0.027602 0.538185 -0.358059
0.098814 0.496464 -0.358059
-0.003017 0.015128 -0.358059
0.459068 0.403743 -0.374248
0.474293 0.089774 -0.374248
0.094792 -0.04932 -0.358059
-0.132674 -0.443265 -0.374248
-0.084237 0.43533 -0.374248
-0.022728 -0.327064 -0.374248
0.259744 0.59477 -0.374248
0.354231 0.637657 -0.374248
-0.117743 0.043151 -0.374248
-0.350201 -0.232399 -0.358059
-0.26378 0.08506 -0.374248
-0.190327 -0.36385 -0.374248
0.400373 0.283021 -0.358059
-0.322401 -0.207878 -0.374248
0.392171 0.346694 -0.358059
0.178825 0.118271 -0.358059
0.156605 -0.311333 -0.358059
-0.253056 0.567911 -0.358059
0.1879 -0.52525 -0.374248
0.38829 0.211912 -0.374248
0.344445 0.198608 -0.358059
-0.104421 0.465067 -0.374248
0.147867 0.048953 -0.374248
-0.244515 0.483275 -0.358059
-0.199215 -0.270838 -0.358059
-0.126294 -0.332661 -0.374248
-0.18818 -0.169783 -0.358059
-0.492544 0.400455 -0.374248
-0.46359 -0.146678 -0.374248
0.101766 0.216035 -0.358059
0.265447 0.328732 -0.358059
0.177231 -0.225485 -0.358059
-0.101208 0.0715 -0.374248
-0.205641 -0.20181 -0.374248
-0.292298 -0.28828 -0.358059
-0.337868 0.275393 -0.358059
0.441507 0.578919 -0.374248
0.417812 -0.083884 -0.374248
-0.113223 0.27743 -0.374248
0.011679 -0.14328 -0.374248
-0.092827 -0.533305 -0.358059
-0.199146 -0.136868 -0.374248
-0.221191 -0.088814 -0.358059
-0.072884 0.511939 -0.358059
-0.097593 -0.255212 -0.358059
0.359417 0.060718 -0.374248
0.074027 -0.426278 -0.374248
0.470734 -0.221703 -0.374248
0.458414 0.167967 -0.374248
-0.154227 -0.020542 -0.374248
0.204455 0.255384 -0.374248
-0.395052 0.594324 -0.374248
-0.382175 -0.063868 -0.358059
-0.268001 0.134642 -0.358059
0.327403 -0.242649 -0.374248
-0.366966 0.057207 -0.358059
-0.303716 0.022077 -0.358059
-0.155244 0.543961 -0.374248
0.472887 0.545646 -0.374248
-0.181376 -0.086133 -0.374248
-0.490129 0.553003 -0.374248
-0.38653 0.560433 -0.374248
-0.398206 -0.436245 -0.374248
0.121936 -0.068632 -0.374248
0.47101 0.058336 -0.358059
-0.020667 0.613465 -0.374248
0.078772 -0.079348 -0.374248
-0.360036 0.414347 -0.374248
-0.277806 0.172292 -0.358059
-0.422184 -0.120193 -0.374248
-0.072207 -0.438692 -0.358059
-0.410621 -0.377813 -0.358059
0.15055 0.097084 -0.374248
0.461652 0.138205 -0.358059
0.408084 -0.203555 -0.374248
0.046617 -0.023785 -0.358059
0.41524 0.511718 -0.358059
0.381271 0.010493 -0.358059
0.022124 0.099887 -0.358059
0.274003 -0.54027 -0.374248
0.259093 0.168652 -0.374248
0.446158 0.471127 -0.374248
0.06111 0.262814 -0.374248
0.335366 -0.063397 -0.374248
0.304676 0.222524 -0.358059
0.042736 0.415861 -0.358059
-0.401298 0.620522 -0.358059
-0.379115 0.217633 -0.358059
-0.08081 -0.39893 -0.358059
-0.165662 0.190194 -0.374248
0.055004 -0.250647 -0.358059
-0.325892 -0.106362 -0.358059
0.04859 -0.34295 -0.374248
0.408838 -0.393441 -0.358059
0.387022 -0.452888 -0.358059
-0.228005 0.335759 -0.358059
-0.388912 0.374421 -0.358059
-0.238286 -0.171938 -0.358059
0.100328 -0.123075 -0.374248
0.353858 -0.459076 -0.358059
0.39044 0.044701 -0.374248
0.207151 0.478369 -0.358059
-0.276799 0.234761 -0.358059
0.46849 -0.045619 -0.358059
-0.343716 0.148333 -0.374248
0.24863 0.075944 -0.374248
0.280765 0.399759 -0.374248
-0.28203 -0.167936 -0.374248
-0.438239 0.057774 -0.358059
-0.245963 0.069403 -0.358059
0.352683 0.398608 -0.374248
-0.265631 -0.220053 -0.358059
-0.410243 0.260287 -0.374248
-0.447761 -0.279739 -0.358059
-0.491606 0.307289 -0.358059
-0.434996 -0.324977 -0.358059
0.029595 -0.108099 -0.374248
-0.33069 -0.061593 -0.374248
-0.094952 0.547236 -0.358059
0.349161 0.4912 -0.374248
0.407573 -0.259882 -0.358059
0.147728 0.185889 -0.358059
-0.488514 -0.370599 -0.374248
0.262698 0.618066 -0.358059
-0.418651 -0.272773 -0.374248
0.071378 -0.049736 -0.374248
0.274007 0.253345 -0.358059
0.202794 -0.058717 -0.374248
0.423283 -0.52425 -0.374248
0.210694 0.590023 -0.358059
0.166466 0.423956 -0.358059
0.089869 0.14046 -0.374248
0.361675 0.158301 -0.358059
0.439783 -0.158089 -0.358059
-0.177925 -0.335362 -0.374248
-0.452349 0.615905 -0.374248
-0.121376 -0.103979 -0.374248
-0.300035 0.319482 -0.358059
0.166734 0.15429 -0.358059
-0.159682 -0.47174 -0.358059
-0.329198 0.43538 -0.374248
-0.317044 0.551248 -0.374248
-0.423805 0.473221 -0.374248
-0.213868 -0.407953 -0.358059
-0.083986 -0.074205 -0.358059
-0.258707 0.276211 -0.358059
