0.628015 -0.086713 -0.570543
-0.527654 0.017259 -0.553211
0.369853 -0.215562 -0.570543
0.015625 0.044109 -0.553211
0.469286 0.0474 -0.553211
0.351993 0.051476 -0.570543
-0.199052 0.146414 -0.570543
0.186381 0.069559 -0.553211
-0.185349 -0.080779 -0.553211
-0.031798 0.026895 -0.553211
-0.295481 -0.002795 -0.553211
0.235666 0.229793 -0.553211
0.697363 0.124375 -0.570543
-0.732968 -0.150517 -0.553211
0.572809 -0.005096 -0.553211
0.241058 0.091223 -0.570543
0.114794 -0.080455 -0.553211
-0.64526 -0.18105 -0.570543
-0.2082 0.041951 -0.553211
-0.689227 -0.121457 -0.570543
-0.288698 -0.074233 -0.570543
-0.315409 0.019188 -0.570543
0.284753 -0.167215 -0.553211
-0.618419 0.119222 -0.553211
0.596825 0.192023 -0.570543
0.057353 -0.201378 -0.553211
-0.490468 0.204435 -0.570543
-0.376197 0.020065 -0.553211
-0.6307 0.153946 -0.553211
0.000323 0.020374 -0.553211
-0.595008 0.02078 -0.553211
0.327679 -0.052134 -0.570543
-0.563826 0.2111 -0.570543
0.578194 0.234706 -0.570543
-0.635639 0.215416 -0.553211
-0.70088 0.160786 -0.570543
0.168177 -0.100721 -0.553211
0.355812 -0.130647 -0.570543
0.442256 -0.076976 -0.570543
-0.409475 0.027581 -0.553211
-0.464814 -0.044155 -0.553211
0.561065 0.044162 -0.553211
0.347351 -0.156215 -0.570543
-0.417008 0.007672 -0.570543
0.154384 -0.056632 -0.570543
-0.729876 0.044484 -0.553211
0.486356 -0.203285 -0.553211
0.456875 -0.094179 -0.553211
0.425697 0.076157 -0.553211
-0.569495 -0.133207 -0.553211
0.350794 0.173423 -0.553211
0.24107 0.143329 -0.553211
0.590037 0.094143 -0.570543
0.423055 -0.123971 -0.570543
-0.38845 0.234223 -0.553211
0.160119 0.140012 -0.553211
0.305645 -0.21155 -0.553211
0.02975 -0.066929 -0.553211
0.364161 -0.08027 -0.553211
0.217791 -0.075782 -0.553211
-0.490801 -0.096954 -0.553211
-0.658639 -0.08314 -0.553211
0.601894 0.117908 -0.553211
-0.018118 0.079771 -0.570543
-0.59511 -0.107752 -0.570543
-0.074033 -0.126305 -0.553211
-0.307161 -0.037069 -0.553211
-0.679382 -0.1909 -0.570543
-0.457959 -0.217996 -0.570543
-0.193697 -0.030082 -0.553211
0.504047 0.045392 -0.570543
-0.080729 -0.002873 -0.553211
-0.23275 0.171138 -0.553211
-0.748462 -0.111044 -0.553211
-0.340299 0.059394 -0.570543
0.184543 -0.021522 -0.553211
-0.741123 -0.206813 -0.553211
0.121897 0.238116 -0.570543
0.275395 -0.000404 -0.570543
-0.183184 0.188015 -0.570543
-0.718888 0.109498 -0.570543
-0.125944 -0.203068 -0.553211
-0.270423 -0.208808 -0.570543
-0.034508 -0.01075 -0.570543
-0.258146 -0.157917 -0.570543
-0.61416 0.030648 -0.570543
0.449937 0.092947 -0.570543
0.636848 0.096736 -0.570543
0.180807 0.223877 -0.570543
0.564782 -0.039228 -0.570543
-0.053324 0.105192 -0.570543
0.485447 0.176821 -0.553211
-0.432815 -0.221044 -0.553211
0.675587 -0.031229 -0.553211
0.275141 0.048899 -0.570543
0.458493 -0.119638 -0.570543
-0.096239 0.144721 -0.570543
-0.690982 0.051518 -0.570543
0.387308 0.041258 -0.570543
0.558137 -0.201343 -0.553211
-0.476038 0.182431 -0.570543
-0.073242 -0.220666 -0.570543
0.570975 0.19427 -0.570543
-0.135493 -0.029259 -0.570543
0.017346 0.147795 -0.553211
0.141632 -0.098598 -0.553211
0.18346 -0.046469 -0.553211
-0.572969 0.142273 -0.553211
0.43401 -0.061084 -0.553211
-0.077237 -0.14862 -0.570543
0.459927 -0.186775 -0.553211
0.682714 0.156218 -0.553211
0.59411 -0.079853 -0.570543
0.160518 0.095877 -0.553211
0.534113 -0.161475 -0.553211
0.423609 -0.094449 -0.553211
0.619586 -0.155977 -0.553211
0.654427 -0.186816 -0.570543
-0.194128 0.209731 -0.553211
-0.479248 0.07235 -0.570543
0.021944 -0.183976 -0.570543
0.101107 -0.017712 -0.553211
-0.413445 0.202337 -0.570543
0.087698 0.236245 -0.570543
-0.652419 -0.030695 -0.553211
0.619663 -0.219692 -0.553211
-0.389964 -0.204863 -0.570543
-0.502599 0.009874 -0.553211
-0.634128 0.055584 -0.553211
0.332381 -0.032057 -0.553211
-0.597335 -0.205117 -0.553211
0.672383 -0.082531 -0.553211
-0.254078 0.154275 -0.553211
0.624406 0.07201 -0.570543
-0.283313 0.196865 -0.570543
-0.712221 0.196789 -0.570543
0.341108 0.236776 -0.570543
0.393973 -0.141649 -0.570543
-0.032259 -0.063831 -0.570543
-0.00428 0.185862 -0.570543
0.360903 0.199138 -0.570543
0.493262 0.097858 -0.553211
-0.214866 0.109612 -0.570543
-0.652977 0.062046 -0.570543
0.269794 -0.202062 -0.553211
-0.471435 -0.07894 -0.553211
-0.383467 0.100948 -0.570543
-0.221872 0.025376 -0.570543
0.643386 -0.046759 -0.553211
0.384271 -0.127749 -0.553211
-0.108666 0.016223 -0.553211
-0.426461 0.120241 -0.553211
0.676693 0.136852 -0.570543
0.260373 0.204717 -0.570543
-0.141918 -0.217659 -0.570543
-0.624069 0.078462 -0.553211
-0.595441 0.110662 -0.570543
0.297188 -0.088194 -0.570543
0.590048 -0.19329 -0.553211
-0.424634 -0.066747 -0.553211
-0.707906 -0.181053 -0.553211
-0.302898 0.03046 -0.553211
-0.173811 -0.128854 -0.553211
-0.516316 -0.147756 -0.553211
0.651807 0.205861 -0.553211
0.412183 0.148046 -0.570543
-0.237755 -0.024263 -0.570543
-0.655618 -0.196656 -0.553211
-0.66877 0.13207 -0.570543
-0.745909 0.129374 -0.553211
-0.399882 -0.15751 -0.570543
-0.505483 -0.187103 -0.553211
0.0908 0.143835 -0.570543
0.358325 -0.169352 -0.553211
-0.341855 0.233678 -0.570543
-0.395346 0.059492 -0.553211
-0.160758 -0.206153 -0.553211
-0.17928 0.067789 -0.570543
0.388925 -0.085675 -0.553211
-0.227188 -0.164065 -0.553211
-0.150725 -0.047464 -0.570543
0.630855 0.195124 -0.570543
0.074018 -0.187336 -0.570543
0.368379 0.146922 -0.570543
0.435961 0.024943 -0.570543
0.02961 -0.150861 -0.570543
0.237985 0.010681 -0.570543
0.399154 0.089739 -0.570543
0.256527 0.053829 -0.553211
0.374939 -0.170356 -0.570543
-0.516016 -0.064544 -0.570543
0.65095 0.031949 -0.553211
-0.129631 0.048284 -0.570543
0.536025 0.072271 -0.553211
-0.558435 -0.186581 -0.570543
0.615356 -0.030065 -0.570543
-0.189619 0.011005 -0.553211
0.18381 0.117337 -0.553211
-0.729992 0.000127 -0.553211
0.324094 0.196328 -0.553211
0.134536 -0.223602 -0.553211
-0.568354 0.186366 -0.553211
-0.078938 -0.073435 -0.553211
0.209436 0.056486 -0.553211
0.482461 -0.042986 -0.553211
0.536385 -0.105693 -0.553211
-0.252275 0.108928 -0.553211
-0.45825 -0.142203 -0.553211
-0.273694 0.02276 -0.553211
0.092673 -0.145833 -0.570543
0.519579 0.069974 -0.570543
-0.084705 0.062238 -0.553211
0.62085 0.010522 -0.570543
-0.379059 -0.021254 -0.553211
-0.25894 -0.084489 -0.570543
0.491283 0.055037 -0.553211
-0.064161 0.237606 -0.553211
-0.426813 0.092799 -0.553211
0.210754 0.227466 -0.570543
-0.567743 -0.15998 -0.570543
0.000272 -0.17498 -0.570543
-0.540692 0.148707 -0.570543
-0.364012 0.13219 -0.553211
0.199618 0.174886 -0.570543
0.308676 0.03266 -0.553211
0.663812 0.069644 -0.553211
0.652944 0.125905 -0.570543
-0.07549 0.011697 -0.570543
0.0788 0.044262 -0.570543
-0.502536 0.104253 -0.553211
-0.312314 0.141061 -0.553211
-0.100728 -0.222716 -0.570543
0.345682 0.091028 -0.553211
-0.037162 0.148212 -0.553211
0.236891 -0.109889 -0.553211
0.650504 -0.075883 -0.553211
0.142601 0.117122 -0.570543
-0.670737 0.094401 -0.553211
0.125704 0.010224 -0.570543
-0.351974 0.06853 -0.553211
-0.740073 -0.038969 -0.570543
0.278238 -0.060681 -0.553211
-0.695574 -0.021434 -0.553211
0.035686 -0.043983 -0.553211
-0.755447 -0.214444 -0.570543
0.159922 0.194883 -0.553211
-0.577572 0.066011 -0.570543
0.403474 -0.087481 -0.570543
0.532941 -0.043916 -0.553211
0.372874 0.004529 -0.553211
-0.720823 -0.11252 -0.570543
0.203278 -0.077459 -0.570543
0.296986 -0.01866 -0.570543
-0.736035 0.183285 -0.570543
0.566508 -0.189428 -0.570543
0.385197 -0.19896 -0.570543
-0.471319 0.044171 -0.570543
0.355874 0.103201 -0.570543
0.461615 0.035097 -0.570543
-0.305656 0.057034 -0.570543
0.075437 0.106371 -0.553211
0.656494 0.234902 -0.553211
-0.630634 0.000575 -0.553211
0.310849 -0.169711 -0.553211
-0.128748 0.166723 -0.570543
0.142409 0.161715 -0.570543
-0.426565 0.0742 -0.570543
-0.462289 -0.108758 -0.553211
-0.408494 -0.214292 -0.553211
0.37317 -0.046486 -0.553211
-0.050508 0.233659 -0.570543
-0.261372 0.217598 -0.553211
-0.28994 -0.213777 -0.553211
0.662378 0.005047 -0.570543
0.055913 0.155329 -0.553211
-0.676988 0.172622 -0.570543
-0.020465 0.133338 -0.553211
0.05011 -0.073708 -0.570543
0.455772 0.080202 -0.553211
0.142246 -0.063563 -0.553211
0.054876 0.059126 -0.570543
-0.508238 0.195554 -0.553211
0.00114 -0.018677 -0.570543
-0.578904 0.08991 -0.570543
-0.754094 0.085264 -0.553211
0.630187 -0.147008 -0.570543
-0.246152 0.091319 -0.570543
-0.432385 -0.139906 -0.570543
0.562652 -0.014238 -0.570543
-0.478537 0.0318 -0.553211
-0.709754 -0.098841 -0.553211
-0.098305 0.06046 -0.570543
0.581509 -0.120032 -0.570543
-0.213988 0.146152 -0.553211
-0.242356 0.188131 -0.570543
-0.467742 0.206808 -0.570543
-0.220338 -0.194853 -0.570543
-0.435105 -0.038799 -0.553211
0.222339 0.206729 -0.553211
0.03988 -0.176381 -0.553211
0.22214 0.090959 -0.553211
-0.112065 -0.102478 -0.570543
-0.51265 -0.134836 -0.570543
0.321227 -0.195371 -0.553211
0.132566 0.032879 -0.553211
-0.346563 0.044518 -0.553211
0.685782 -0.067521 -0.570543
-0.374193 -0.148251 -0.553211
-0.077336 0.211181 -0.570543
-0.323044 0.107307 -0.553211
-0.635482 0.085395 -0.570543
0.505277 -0.111732 -0.570543
-0.16533 -0.247006 0.243997
0.3167 -0.247006 -0.09586
-0.337876 -0.247006 -0.258011
-0.032601 -0.223896 -0.085346
-0.441639 -0.247006 0.058849
0.154267 -0.247006 0.196631
0.435253 -0.223896 0.277752
0.504632 -0.247006 -0.335329
0.141382 -0.247006 -0.315379
-0.179982 -0.247006 -0.48802
0.550907 -0.247006 0.03162
-0.601177 -0.247006 -0.391751
0.019986 -0.247006 0.421017
-0.59433 -0.223896 -0.143403
-0.433418 -0.223896 0.301697
-0.222165 -0.223896 0.031074
-0.089942 -0.223896 -0.291808
0.316806 -0.247006 -0.430621
-0.613901 -0.223896 0.197485
0.349688 -0.223896 0.097895
-0.019119 -0.223896 0.113101
0.527966 -0.247006 -0.536107
0.558455 -0.247006 -0.155975
0.14348 -0.247006 -0.025539
-0.365907 -0.247006 -0.436388
-0.199789 -0.247006 -0.150545
0.240882 -0.247006 0.343302
-0.356431 -0.223896 -0.091911
-0.016331 -0.247006 -0.449355
0.58249 -0.247006 0.358498
0.304861 -0.223896 -0.260666
-0.602118 -0.223896 0.030461
-0.323569 -0.247006 0.18292
-0.665829 -0.247006 0.363094
-0.290631 -0.247006 0.361151
-0.489581 -0.223896 -0.269028
0.017622 -0.247006 0.26719
0.093172 -0.247006 -0.170498
0.559725 -0.223896 0.18985
0.372655 -0.223896 0.410885
0.148263 -0.223896 -0.462779
-0.12212 -0.223896 0.400646
-0.229778 -0.223896 -0.346835
0.44463 -0.223896 -0.052462
0.426388 -0.247006 -0.190025
-0.416961 -0.247006 0.448189
0.62961 -0.223896 -0.282581
0.302375 -0.247006 0.222388
0.608778 -0.223896 -0.424869
-0.489087 -0.223896 -0.474604
-0.485795 -0.223896 0.178983
-0.68159 -0.223896 -0.489698
-0.488451 -0.247006 -0.074948
-0.646665 -0.223896 -0.274564
-0.532933 -0.223896 0.379519
0.146828 -0.223896 0.421399
0.225803 -0.223896 0.088731
-0.102477 -0.247006 0.020893
0.433176 -0.223896 -0.456113
0.216578 -0.247006 -0.164095
-0.692908 -0.247006 -0.045353
0.026794 -0.223896 -0.275831
0.099306 -0.223896 0.080335
-0.137761 -0.223896 0.125676
0.442678 -0.247006 0.157673
0.134428 -0.223896 0.305375
0.390417 -0.247006 -0.329791
-0.332878 -0.223896 0.022685
0.243597 -0.247006 -0.351151
0.618029 -0.247006 -0.057686
-0.076817 -0.223896 -0.182697
-0.677407 -0.247006 0.102633
-0.129599 -0.247006 -0.393869
0.472934 -0.247006 0.385765
-0.420184 -0.223896 -0.189027
-0.409844 -0.247006 -0.340062
0.022433 -0.247006 0.012668
0.061468 -0.223896 -0.383266
-0.079035 -0.223896 0.298166
-0.542897 -0.247006 0.280835
0.283119 -0.247006 0.008191
-0.166557 -0.223896 -0.057905
0.446976 -0.223896 0.059959
0.340019 -0.247006 0.318947
-0.193672 -0.223896 -0.247795
0.626152 -0.247006 0.264899
-0.237464 -0.247006 0.133362
-0.694698 -0.223896 -0.147723
-0.582891 -0.223896 -0.50245
0.510538 -0.223896 -0.240547
-0.055151 -0.247006 0.202156
-0.503076 -0.247006 -0.380985
0.594204 -0.223896 0.451623
-0.271815 -0.223896 -0.433456
-0.539921 -0.247006 0.099789
-0.696697 -0.223896 0.245975
0.610881 -0.247006 0.113209
0.050635 -0.247006 0.172709
-0.261383 -0.223896 -0.082797
-0.286631 -0.223896 -0.183518
0.528696 -0.247006 0.274484
0.262587 -0.223896 0.430699
-0.391415 -0.247006 -0.534193
0.05913 -0.223896 -0.081658
0.375149 -0.247006 0.008016
-0.274773 -0.247006 0.259972
0.218413 -0.223896 0.258384
0.640696 -0.223896 0.027046
0.519022 -0.247006 -0.424803
-0.024345 -0.223896 -0.353859
-0.320157 -0.247006 -0.348367
0.251113 -0.223896 -0.487
-0.211277 -0.223896 0.318403
0.211234 -0.223896 -0.264937
0.068834 -0.247006 -0.499064
-0.684781 -0.223896 -0.373785
-0.404424 -0.223896 0.144149
-0.604909 -0.223896 0.430343
0.232767 -0.223896 -0.080715
0.532428 -0.223896 -0.057182
-0.215724 -0.247006 0.406657
-0.089598 -0.223896 -0.489408
0.007956 -0.223896 -0.166411
-0.57378 -0.247006 -0.062204
0.640361 -0.223896 -0.154586
0.356784 -0.223896 -0.501282
-0.260353 -0.223896 -0.522875
-0.355037 -0.223896 0.257416
0.059834 -0.247006 0.338946
0.238772 -0.247006 0.167601
-0.51529 -0.247006 -0.154916
-0.564117 -0.223896 -0.232239
-0.373546 -0.247006 0.360433
0.332559 -0.247006 -0.186928
-0.555297 -0.247006 -0.311689
0.605995 -0.247006 -0.502489
0.132131 -0.223896 -0.238296
0.516586 -0.247006 0.125297
0.653054 -0.247006 0.188659
-0.404034 -0.223896 -0.014782
-0.516563 -0.247006 0.023003
0.483839 -0.247006 -0.126616
-0.6187 -0.223896 0.280299
-0.3381 -0.247006 0.442902
0.579208 -0.223896 -0.347217
0.379656 -0.247006 0.207597
-0.713057 -0.223896 0.030179
-0.019666 -0.223896 0.348679
0.16218 -0.223896 -0.112161
0.655214 -0.223896 0.338654
-0.101719 -0.247006 -0.109893
0.319285 -0.223896 -0.346662
0.662346 -0.223896 -0.355918
0.182327 -0.247006 -0.396299
-0.738219 -0.247006 -0.422002
0.21214 -0.223896 -0.001663
-0.16156 -0.223896 -0.315873
-0.723027 -0.223896 -0.262517
0.382147 -0.223896 -0.245657
-0.4583 -0.223896 0.380014
0.409439 -0.247006 -0.113834
-0.441414 -0.223896 -0.41522
-0.307823 -0.223896 0.092513
-0.196581 -0.223896 -0.41539
0.481857 -0.223896 0.21606
0.444043 -0.247006 -0.386663
0.096444 -0.247006 0.246493
-0.605667 -0.223896 0.122363
-0.268857 -0.223896 -0.262493
0.167454 -0.247006 0.123994
0.408278 -0.247006 0.341606
0.592323 -0.247006 -0.219334
0.18325 -0.223896 -0.524987
-0.713339 -0.223896 0.176603
-0.415338 -0.247006 -0.269176
0.448032 -0.247006 -0.288458
-0.144493 -0.247006 0.313763
-0.025194 -0.247006 -0.224947
-0.185948 -0.223896 0.18071
0.162496 -0.247006 0.042625
-0.40998 -0.247006 0.220543
0.535819 -0.223896 0.405511
-0.273447 -0.223896 0.454809
-0.424808 -0.247006 -0.123513
-0.652543 -0.247006 -0.198075
0.373792 -0.223896 -0.399543
-0.05869 -0.247006 0.414013
-0.322833 -0.223896 -0.494257
-0.526318 -0.247006 -0.533224
-0.553731 -0.247006 -0.440366
-0.141132 -0.247006 -0.211642
-0.471536 -0.223896 0.245193
0.316989 -0.223896 0.160505
0.460901 -0.247006 -0.521093
-0.478367 -0.223896 0.111887
-0.086637 -0.247006 -0.044806
-0.623387 -0.247006 -0.454527
-0.491333 -0.247006 0.432442
0.20553 -0.247006 0.401663
-0.042974 -0.223896 0.037719
0.492325 -0.247006 0.001686
0.307282 -0.247006 0.375914
0.085463 -0.247006 0.424837
-0.655206 -0.223896 -0.09546
0.669154 -0.247006 -0.209525
-0.714796 -0.223896 0.427904
-0.418531 -0.223896 -0.476483
0.646222 -0.247006 0.39915
-0.338575 -0.247006 -0.151286
-0.37122 -0.247006 0.093052
0.248471 -0.223896 -0.422056
0.093116 -0.223896 0.008366
0.036966 -0.247006 0.075627
0.07682 -0.247006 -0.316347
-0.090502 -0.247006 0.084334
-0.555529 -0.247006 0.212189
-0.49479 -0.223896 0.321444
-0.591777 -0.247006 0.368232
0.267395 -0.223896 -0.195839
-0.285262 -0.247006 -0.028018
0.323335 -0.223896 -0.035903
0.283458 -0.223896 0.300212
-0.011922 -0.247006 -0.519612
-0.076117 -0.223896 -0.419893
-0.33106 -0.247006 0.312009
-0.13065 -0.247006 -0.535841
0.159503 -0.223896 -0.179824
0.287601 -0.223896 -0.538895
0.427304 -0.247006 0.437871
0.109085 -0.247006 -0.417923
-0.624468 -0.223896 -0.032383
0.568175 -0.247006 -0.289905
0.002917 -0.223896 0.20762
-0.466378 -0.223896 -0.006349
-0.222363 -0.223896 0.235086
0.160264 -0.247006 0.359188
0.292065 -0.223896 0.075166
0.503597 -0.223896 -0.482951
0.059278 -0.247006 -0.222076
-0.453695 -0.223896 -0.539198
0.669983 -0.247006 0.075937
0.103357 -0.223896 0.1512
0.122261 -0.247006 -0.549475
0.384936 -0.223896 0.147858
0.680874 -0.223896 0.449762
-0.162997 -0.223896 0.015979
-0.109254 -0.223896 0.218471
-0.153359 -0.247006 0.071564
0.680884 -0.223896 0.277385
-0.729403 -0.223896 -0.197531
-0.032495 -0.247006 -0.017808
-0.642819 -0.247006 -0.330185
-0.234302 -0.247006 -0.202432
0.562927 -0.223896 -0.463877
0.493609 -0.247006 -0.185709
0.65804 -0.223896 -0.483934
-0.484051 -0.223896 -0.32815
0.202672 -0.247006 -0.45814
-0.54532 -0.223896 -0.109403
-0.226894 -0.247006 -0.040568
0.04267 -0.223896 -0.45129
0.592774 -0.223896 -0.00944
-0.729278 -0.223896 0.312868
-0.088397 -0.247006 0.153755
-0.734712 -0.223896 0.102818
-0.035216 -0.223896 0.252277
0.576925 -0.223896 -0.095318
-0.358018 -0.223896 -0.208287
-0.132827 -0.223896 -0.447324
0.482023 -0.223896 0.443325
0.370061 -0.223896 0.260072
-0.337058 -0.223896 -0.550447
0.214412 -0.223896 0.466303
0.673003 -0.223896 -0.0254
0.104922 -0.223896 0.375676
0.25534 -0.247006 -0.294074
0.515764 -0.247006 0.347232
0.116307 -0.223896 -0.070689
0.286807 -0.247006 -0.146979
-0.147627 -0.223896 -0.155738
-0.471731 -0.247006 -0.197219
-0.274004 -0.247006 0.036937
-0.387492 -0.223896 0.043486
-0.557079 -0.223896 -0.009595
0.375222 -0.223896 -0.15771
-0.65746 -0.247006 0.419029
-0.258712 -0.247006 0.185763
0.392343 -0.247006 0.069061
-0.667134 -0.247006 0.006952
-0.195642 -0.223896 0.100742
0.369746 -0.247006 -0.450729
0.651275 -0.247006 -0.535654
-0.744187 -0.223896 -0.026024
0.383758 -0.223896 -0.042301
-0.562731 -0.223896 0.15813
-0.168075 -0.223896 0.450007
-0.730487 -0.247006 -0.519788
-0.358462 -0.223896 -0.315471
-0.280616 -0.223896 0.311568
0.337411 -0.247006 -0.299066
-0.080201 -0.223896 0.460416
-0.674823 -0.247006 -0.422816
-0.09368 -0.247006 -0.23944
0.559764 -0.223896 0.100336
0.070053 -0.223896 0.290138
0.654991 -0.247006 -0.405159
-0.731436 -0.223896 -0.106971
-0.182087 -0.247006 -0.361139
-0.338685 -0.247006 -0.040236
-0.101477 -0.247006 0.347706
0.275802 -0.247006 -0.050093
0.204588 -0.223896 -0.320533
-0.648606 -0.247006 0.232872
-0.406615 -0.223896 -0.070224
-0.665235 -0.247006 -0.53644
0.5802 -0.223896 0.309062
-0.024535 -0.223896 0.449639
0.646836 -0.247006 -0.10358
0.444073 -0.223896 -0.337701
0.02374 -0.247006 -0.120086
0.057721 -0.223896 0.11985
-0.172662 -0.223896 0.356191
-0.317852 -0.223896 -0.405226
0.070709 -0.223896 -0.547821
-0.66128 -0.223896 0.313481
-0.61312 -0.247006 -0.239255
-0.241907 -0.247006 -0.394
-0.08329 -0.247006 -0.366381
0.689281 -0.247006 0.22953
-0.279241 -0.247006 -0.313488
-0.375597 -0.223896 -0.388972
0.693239 -0.223896 -0.141405
0.113747 -0.223896 -0.355058
0.463334 -0.247006 -0.231096
-0.196098 -0.247006 -0.095762
0.192961 -0.223896 0.324021
-0.390625 -0.223896 0.408125
-0.042871 -0.223896 -0.141712
0.612217 -0.223896 0.160811
-0.741247 -0.247006 0.26271
-0.641576 -0.223896 0.071441
-0.71419 -0.247006 -0.32087
0.20692 -0.223896 0.206965
0.343018 -0.247006 0.050692
-0.240646 -0.247006 0.080943
-0.587193 -0.247006 0.075033
0.591463 -0.223896 -0.54719
0.497411 -0.247006 0.076678
-0.241582 -0.223896 0.367606
-0.310633 -0.247006 -0.101198
-0.035982 -0.223896 -0.270396
0.530744 -0.223896 -0.374012
0.364569 -0.223896 0.359474
-0.22351 -0.223896 -0.459889
-0.733287 -0.223896 0.476369
0.664507 -0.247006 0.12795
-0.596934 -0.223896 -0.335913
0.433255 -0.223896 0.01012
0.413666 -0.247006 -0.542073
-0.548798 -0.223896 -0.374535
0.62374 -0.247006 -0.330679
0.050512 -0.223896 0.227421
0.025258 -0.223896 0.375354
-0.032775 -0.247006 -0.400621
-0.29741 -0.247006 0.137192
0.458413 -0.223896 0.342369
0.593894 -0.247006 0.225122
0.279409 -0.223896 -0.38128
0.279106 -0.223896 0.124566
0.218979 -0.223896 -0.211956
-0.125857 -0.223896 -0.018943
0.60614 -0.247006 0.056001
0.141449 -0.223896 0.248806
0.049765 -0.223896 -0.023129
-0.294075 -0.223896 0.2193
0.424837 -0.247006 0.11054
0.006423 -0.247006 -0.321473
0.312746 -0.223896 0.434252
-0.577821 -0.223896 0.251058
0.686882 -0.223896 -0.298343
0.29528 -0.247006 -0.491911
0.014481 -0.223896 0.312051
-0.230539 -0.223896 -0.294703
0.343573 -0.247006 -0.543667
-0.183988 -0.247006 -0.537894
0.23204 -0.247006 0.044823
-0.642746 -0.247006 -0.13801
0.482899 -0.247006 -0.074692
-0.028851 -0.247006 0.159775
0.016517 -0.223896 -0.404716
0.380106 -0.223896 0.473756
0.3188 -0.247006 0.269393
-0.564956 -0.247006 0.412364
-0.571523 -0.223896 0.313832
0.567084 -0.247006 -0.411873
0.52455 -0.223896 -0.290075
0.092793 -0.247006 -0.109274
-0.606415 -0.247006 -0.545113
0.014885 -0.247006 0.476671
0.359958 -0.223896 -0.096692
-0.242633 -0.223896 -0.155345
-0.440286 -0.223896 -0.306319
-0.383285 -0.223896 0.31857
-0.498785 -0.223896 0.067585
-0.507786 -0.247006 -0.030179
0.331451 -0.223896 -0.13629
-0.473511 -0.223896 -0.145599
-0.345276 -0.223896 0.126999
-0.143902 -0.223896 -0.103705
-0.376774 -0.247006 -0.484962
-0.717657 -0.247006 0.370951
-0.583201 -0.247006 -0.194386
-0.496741 -0.247006 -0.428823
-0.189997 -0.223896 -0.199824
-0.129275 -0.223896 -0.351521
0.090598 -0.247006 -0.270278
0.459095 -0.223896 -0.161563
0.502326 -0.223896 -0.569499
0.53926 -0.247006 -0.209767
-0.264103 -0.247006 0.413787
-0.387531 -0.247006 -0.153585
0.634179 -0.223896 -0.235044
0.168353 -0.223896 -0.059086
0.482622 -0.223896 0.263764
0.000116 -0.223896 -0.050637
-0.232061 -0.247006 -0.553505
0.518075 -0.247006 0.190964
-0.380828 -0.223896 0.472037
-0.547462 -0.223896 0.050837
-0.128815 -0.223896 0.275329
-0.162856 -0.247006 0.408551
0.18307 -0.247006 -0.232438
-0.614039 -0.247006 -0.093761
-0.65648 -0.223896 0.177078
0.001624 -0.223896 0.052746
-0.152071 -0.223896 -0.269751
-0.458493 -0.247006 0.147714
-0.400136 -0.247006 0.266498
-0.221208 -0.247006 0.278726
-0.042926 -0.223896 -0.484246
-0.620418 -0.247006 0.331088
0.442215 -0.247006 0.206365
-0.517108 -0.223896 0.225858
0.478274 -0.223896 -0.424124
0.243703 -0.247006 0.290323
0.585977 -0.223896 0.405582
-0.073221 -0.247006 -0.537543
0.218951 -0.247006 -0.042546
0.522405 -0.247006 0.447423
-0.179135 -0.223896 0.284535
-0.691936 -0.247006 -0.22303
0.108184 -0.247006 -0.474044
-0.5426 -0.223896 -0.184814
0.233973 -0.247006 -0.523627
0.131106 -0.247006 -0.137994
-0.362849 -0.223896 0.173602
-0.422456 -0.223896 0.094077
-0.447902 -0.247006 -0.041885
-0.534226 -0.247006 0.328234
-0.307907 -0.223896 -0.224486
0.693996 -0.247006 0.008584
0.256567 -0.223896 0.232441
-0.450819 -0.223896 0.427117
0.182353 -0.247006 0.442602
0.418412 -0.247006 -0.493125
-0.526507 -0.223896 0.450913
-0.446264 -0.223896 0.204678
0.17914 -0.247006 0.263294
0.356038 -0.247006 -0.36121
0.096685 -0.247006 0.190146
0.626401 -0.247006 0.311683
-0.418949 -0.223896 0.356728
0.393582 -0.223896 -0.29047
-0.454059 -0.223896 -0.094161
0.252676 -0.223896 0.386163
-0.326503 -0.223896 0.377288
-0.64229 -0.247006 -0.497015
0.139054 -0.223896 -0.513819
-0.355097 -0.247006 0.218132
0.179034 -0.223896 0.086503
0.200077 -0.223896 0.145779
0.05251 -0.223896 -0.157331
-0.042301 -0.247006 0.076868
0.338471 -0.223896 -0.230121
0.421242 -0.247006 0.392881
-0.63366 -0.223896 -0.368168
-0.283542 -0.223896 -0.129285
-0.523815 -0.247006 0.170626
0.032933 -0.223896 -0.518582
0.27234 -0.247006 -0.239786
-0.040346 -0.247006 -0.318747
-0.707192 -0.223896 -0.45272
0.205315 -0.223896 -0.124835
-0.269783 -0.247006 -0.357302
0.40932 -0.223896 0.231917
0.193352 -0.247006 -0.088066
-0.625975 -0.223896 0.385334
0.252323 -0.247006 -0.118636
0.559774 -0.223896 -0.514994
-0.067696 -0.223896 -0.003058
0.022073 -0.223896 -0.21376
-0.692626 -0.247006 0.14462
0.690684 -0.223896 0.177802
0.14134 -0.223896 -0.397771
-0.320317 -0.223896 -0.449658
-0.650911 -0.223896 0.469783
-0.714527 -0.247006 0.068039
0.597796 -0.223896 -0.167118
-0.526709 -0.247006 -0.477881
0.626421 -0.247006 -0.458228
-0.039105 -0.247006 -0.18143
-0.41881 -0.223896 -0.377188
-0.23344 -0.247006 -0.249493
0.449299 -0.223896 -0.096441
-0.218731 -0.223896 0.444239
-0.536387 -0.223896 -0.279121
-0.517292 -0.247006 -0.243536
0.11214 -0.247006 0.040753
-0.451509 -0.247006 -0.236279
-0.694307 -0.247006 -0.102774
-0.395906 -0.223896 -0.230383
-0.494659 -0.247006 0.371862
0.682638 -0.247006 -0.068344
0.690785 -0.223896 -0.2398
0.538432 -0.223896 -0.115912
0.329306 -0.223896 -0.395817
0.063494 -0.247006 0.030329
-0.2944 -0.247006 -0.539486
-0.08576 -0.223896 0.255055
-0.150218 -0.247006 0.189114
-0.457777 -0.247006 -0.493746
0.172012 -0.247006 -0.274367
0.600999 -0.247006 -0.384868
0.67787 -0.247006 -0.453093
0.684308 -0.247006 0.369756
-0.608042 -0.247006 -0.301037
0.399049 -0.247006 -0.373153
-0.241071 -0.247006 -0.113093
-0.498067 -0.247006 0.270134
-0.0626 -0.223896 0.337942
0.508026 -0.223896 0.034412
-0.64676 -0.247006 0.132758
-0.276323 -0.247006 -0.469341
0.266562 -0.223896 0.19063
-0.320702 -0.247006 0.268424
-0.735211 -0.247006 0.220374
0.475325 -0.223896 -0.368917
0.170484 -0.223896 -0.34627
0.628636 -0.247006 0.441498
0.583265 -0.223896 -0.254043
0.085017 -0.247006 -0.053203
0.111049 -0.247006 -0.209216
-0.678522 -0.223896 -0.317756
0.546327 -0.247006 -0.326629
-0.460083 -0.247006 -0.451221
0.454949 -0.247006 0.47947
0.491391 -0.223896 0.150441
-0.20749 -0.223896 -0.510483
0.565476 -0.247006 -0.04429
0.007944 -0.247006 -0.370298
-0.306507 -0.223896 0.42678
0.284093 -0.223896 0.342465
-0.401038 -0.223896 -0.433862
0.517696 -0.247006 0.233968
-0.694367 -0.247006 0.210721
-0.447906 -0.223896 0.471969
0.214419 -0.223896 -0.37048
-0.312867 -0.223896 -0.30379
-0.246217 -0.247006 0.317813
0.067849 -0.247006 -0.425266
-0.127428 -0.247006 -0.308529
0.535483 -0.223896 0.000447
0.577601 -0.247006 0.157673
0.0054 -0.223896 -0.487229
0.552384 -0.223896 0.341301
0.422393 -0.223896 -0.235364
-0.52702 -0.223896 -0.339216
-0.653467 -0.223896 -0.232498
-0.263932 -0.223896 0.106246
-0.749556 -0.247006 -0.059988
0.484078 -0.223896 -0.031616
-0.695885 -0.223896 0.287287
-0.441471 -0.247006 0.26158
-0.398798 -0.223896 -0.306559
0.335092 -0.223896 0.00368
0.112059 -0.223896 0.446325
-0.117258 -0.223896 0.172013
0.288609 -0.223896 -0.319192
-0.457915 -0.247006 -0.350024
0.635737 -0.223896 0.072865
0.472174 -0.223896 0.303564
0.145105 -0.247006 0.084768
-0.52498 -0.223896 -0.059438
-0.583858 -0.247006 -0.468259
-0.750426 -0.247006 0.019512
-0.101512 -0.247006 0.434175
-0.061806 -0.247006 0.122623
-0.504412 -0.223896 -0.109645
-0.714662 -0.247006 -0.009702
-0.167741 -0.223896 -0.567422
0.356651 -0.247006 0.173865
-0.015123 -0.247006 0.400251
0.657519 -0.223896 0.240389
-0.560966 -0.247006 -0.147027
-0.619324 -0.223896 -0.193692
0.389876 -0.223896 0.10431
-0.695803 -0.247006 -0.284576
-0.570193 -0.223896 -0.411261
-0.670557 -0.223896 0.042955
0.172917 -0.223896 -0.430534
0.009099 -0.247006 0.174837
-0.167523 -0.247006 -0.431733
0.62809 -0.247006 0.362938
0.306248 -0.223896 0.037273
0.632241 -0.247006 -0.186739
-0.570291 -0.223896 0.452636
0.24983 -0.223896 -0.151658
0.682614 -0.223896 0.044175
0.336303 -0.247006 0.40396
-0.074431 -0.247006 -0.46001
-0.418903 -0.247006 0.391182
-0.117643 -0.247006 -0.178981
0.180266 -0.247006 0.006382
-0.185117 -0.247006 -0.279516
-0.511846 -0.247006 -0.198848
-0.617955 -0.247006 -0.000229
-0.690467 -0.223896 -0.187628
0.355588 -0.247006 -0.058984
-0.738399 -0.223896 -0.353918
0.278749 -0.247006 0.16031
0.014898 -0.247006 -0.549284
0.250329 -0.223896 0.010212
0.538504 -0.247006 0.069615
0.406773 -0.247006 -0.435698
0.484658 -0.223896 -0.292255
0.102347 -0.247006 0.294447
-0.463404 -0.247006 -0.391259
0.607253 -0.247006 -0.108518
-0.445999 -0.247006 0.338724
-0.488145 -0.247006 -0.544284
0.518861 -0.223896 0.315099
-0.565465 -0.247006 -0.265121
0.39601 -0.223896 0.037015
0.484459 -0.247006 -0.455765
-0.70685 -0.223896 -0.413061
0.525937 -0.223896 -0.153426
0.331373 -0.223896 -0.471008
0.27151 -0.247006 0.046764
-0.328435 -0.223896 -0.182147
-0.055439 -0.223896 0.382204
0.34366 -0.247006 0.442718
0.31741 -0.247006 0.128562
-0.480964 -0.247006 0.041081
-0.351195 -0.247006 -0.521838
0.052218 -0.247006 0.449128
0.12581 -0.223896 0.110069
-0.624069 -0.247006 0.167361
-0.39255 -0.223896 -0.107386
0.179786 -0.247006 -0.143679
0.051115 -0.223896 0.415626
-0.197216 -0.223896 -0.002934
-0.216504 -0.247006 0.188445
-0.388193 -0.247006 -0.042002
-0.270261 -0.223896 0.00574
-0.122535 -0.223896 0.045028
0.246732 -0.247006 -0.390757
-0.575945 -0.247006 -0.101697
0.261811 -0.247006 -0.457625
0.615969 -0.223896 0.199495
-0.389329 -0.247006 -0.193704
0.683174 -0.223896 -0.181661
0.518356 -0.247006 -0.090487
0.150994 -0.247006 -0.209814
0.111512 -0.223896 -0.30648
0.055565 -0.247006 -0.352675
-0.185805 -0.247006 0.037189
0.430047 -0.247006 -0.020855
0.037275 -0.247006 -0.184458
-0.376706 -0.223896 -0.350268
-0.478915 -0.223896 -0.043164
-0.110771 -0.223896 -0.064299
-0.354351 -0.247006 0.407811
-0.432751 -0.223896 0.012726
-0.605532 -0.223896 -0.429211
-0.165571 -0.247006 0.112128
-0.037178 -0.247006 -0.55133
0.177349 -0.223896 0.231718
-0.19848 -0.247006 0.47821
-0.587876 -0.247006 -0.02635
0.193161 -0.247006 -0.495442
0.544576 -0.247006 -0.247838
0.059712 -0.223896 -0.256056
-0.512762 -0.223896 0.128933
0.020091 -0.223896 0.112318
0.123457 -0.247006 0.33397
0.427339 -0.247006 -0.147721
-0.602664 -0.223896 -0.270956
-0.571755 -0.247006 0.02704
0.694598 -0.247006 -0.397882
-0.270678 -0.223896 0.157753
-0.410636 -0.247006 0.182386
0.356641 -0.223896 -0.322502
0.395648 -0.223896 -0.208212
-0.570413 -0.223896 0.107898
0.567958 -0.223896 0.062543
0.249715 -0.223896 -0.259864
-0.307888 -0.247006 -0.063265
-0.648775 -0.247006 -0.065998
-0.294381 -0.223896 -0.374631
0.692386 -0.247006 -0.357356
-0.071633 -0.247006 0.046595
-0.494724 -0.247006 -0.300126
-0.064067 -0.247006 -0.106301
0.173361 -0.223896 0.172463
-0.558998 -0.223896 0.352232
-0.648819 -0.223896 -0.408206
-0.137755 -0.247006 -0.476727
-0.471242 -0.247006 0.296652
0.211325 -0.223896 -0.550176
-0.517241 -0.247006 0.405065
-0.555749 -0.223896 -0.528801
0.136237 -0.247006 0.01134
0.242675 -0.247006 0.113095
-0.136725 -0.247006 0.360598
-0.280665 -0.247006 -0.405269
-0.297864 -0.247006 -0.156195
-0.019093 -0.247006 0.020383
-0.580261 -0.247006 0.184029
-0.147171 -0.223896 0.218449
-0.022389 -0.223896 0.305467
-0.088624 -0.247006 -0.144961
-0.600788 -0.223896 0.474342
-0.307701 -0.223896 -0.261908
0.449255 -0.247006 0.25188
0.511378 -0.247006 0.389187
-0.615441 -0.247006 0.250079
0.42571 -0.247006 0.038488
-0.743099 -0.223896 0.139196
0.405204 -0.247006 0.180391
-0.108244 -0.247006 0.122247
-0.687427 -0.223896 0.339993
-0.14031 -0.247006 -0.070674
-0.726608 -0.247006 -0.135747
0.007581 -0.223896 -0.014204
0.687352 -0.223896 -0.100488
0.5837 -0.223896 -0.132791
0.441093 -0.223896 -0.41989
0.126864 -0.247006 -0.277499
0.349868 -0.223896 0.134872
-0.660236 -0.223896 0.259274
0.540974 -0.223896 0.140705
0.201742 -0.223896 0.373084
0.27318 -0.223896 -0.021393
-0.696989 -0.223896 -0.52667
0.658384 -0.247006 -0.301656
-0.371117 -0.247006 0.146173
-0.238155 -0.247006 0.007397
-0.744851 -0.247006 0.418252
0.293355 -0.223896 0.256514
0.036455 -0.247006 -0.064374
-0.68182 -0.223896 0.404225
-0.279844 -0.247006 -0.229422
-0.449593 -0.247006 -0.167969
-0.11058 -0.247006 0.297217
0.366819 -0.223896 0.309314
-0.637541 -0.223896 0.021068
-0.423744 -0.247006 0.123387
0.001461 -0.223896 -0.102563
0.463929 -0.223896 -0.259409
0.142131 -0.223896 0.380808
0.634138 -0.223896 0.129167
-0.053647 -0.247006 0.45093
0.695874 -0.247006 0.10737
-0.063256 -0.247006 -0.282956
-0.31627 -0.223896 0.057127
0.598837 -0.223896 0.252771
-0.197858 -0.247006 0.368569
0.13149 -0.223896 0.213921
-0.251361 -0.223896 -0.027125
-0.666801 -0.223896 -0.035574
-0.368832 -0.223896 -0.254345
-0.374194 -0.223896 -0.556021
-0.346754 -0.247006 -0.405808
0.074474 -0.247006 0.092584
-0.734982 -0.223896 -0.389818
-0.171666 -0.247006 -0.030703
0.219037 -0.247006 0.439066
0.165522 -0.223896 -0.302011
-0.052471 -0.223896 -0.376317
-0.500759 -0.247006 0.095099
0.500666 -0.223896 -0.396009
-0.552142 -0.247006 0.473326
-0.212778 -0.223896 -0.117608
0.344946 -0.247006 0.216594
0.620853 -0.247006 -0.555063
-0.065805 -0.223896 -0.250538
-0.154792 -0.223896 -0.522985
-0.482877 -0.223896 0.406043
-0.09023 -0.247006 0.19514
0.408044 -0.247006 -0.054776
0.597256 -0.223896 -0.29783
0.564437 -0.247006 0.274
0.491809 -0.223896 0.36018
0.281921 -0.247006 -0.40837
0.638864 -0.247006 -9.3e-05
-0.723414 -0.247006 -0.484842
0.280637 -0.247006 -0.345144
0.559716 -0.247006 0.38593
0.096709 -0.223896 -0.234446
-0.111208 -0.223896 -0.413675
0.083724 -0.223896 -0.134705
-0.744386 -0.223896 -0.234146
-0.684209 -0.247006 0.44238
0.691455 -0.247006 0.476955
0.688661 -0.247006 0.305604
0.205234 -0.247006 0.067962
-0.381926 -0.223896 0.218348
-0.01023 -0.247006 -0.263229
-0.167717 -0.247006 -0.396411
0.536594 -0.247006 -0.467978
-0.208606 -0.223896 -0.059934
0.552947 -0.247006 0.23351
0.471409 -0.247006 0.030038
0.450946 -0.223896 0.13243
0.567318 -0.223896 -0.380347
0.160236 -0.247006 0.299157
-0.695259 -0.247006 0.313824
-0.550334 -0.247006 0.134747
0.409339 -0.247006 -0.269223
0.675984 -0.223896 -0.519243
-0.688931 -0.223896 -0.254283
0.186732 -0.223896 0.288552
0.202792 -0.247006 0.119552
0.298174 -0.247006 -0.216169
0.426011 -0.223896 0.322306
0.508577 -0.223896 -0.518522
0.310035 -0.247006 -0.061612
0.029001 -0.247006 0.205961
0.585084 -0.223896 0.02456
0.65775 -0.223896 0.16302
-0.658062 -0.247006 -0.457846
-0.306371 -0.247006 -0.000316
0.548799 -0.247006 -0.563996
0.372428 -0.247006 -0.269772
0.091599 -0.223896 -0.028067
0.306674 -0.223896 -0.189161
0.305323 -0.247006 -0.379516
0.477681 -0.223896 0.093561
-0.508858 -0.223896 -0.514044
-0.329809 -0.223896 0.233583
-0.745059 -0.223896 0.045081
-0.324064 -0.247006 0.345996
-0.295723 -0.223896 -0.333958
0.227401 -0.223896 0.320011
0.47243 -0.247006 -0.322541
0.606525 -0.223896 0.377052
0.054817 -0.247006 -0.289636
-0.104997 -0.223896 -0.322964
0.377549 -0.247006 -0.127241
-0.022294 -0.247006 0.230014
-0.104883 -0.223896 -0.216265
0.047282 -0.247006 0.302026
0.582526 -0.247006 0.088434
-0.752111 -0.247006 0.301142
-0.062179 -0.247006 -0.069189
-0.609424 -0.247006 -0.059567
-0.28619 -0.223896 0.386383
0.06281 -0.247006 0.26565
-0.148645 -0.223896 -0.414575
-0.138453 -0.247006 -0.248212
0.000633 -0.247006 -0.077155
0.518528 -0.247006 -0.020526
-0.000737 -0.223896 0.151412
0.408357 -0.247006 0.471318
-0.367775 -0.223896 -0.056998
-0.286331 -0.247006 -0.506161
0.47947 -0.223896 -0.211609
0.332523 -0.223896 0.374321
0.252479 -0.223896 0.063392
-0.283858 -0.247006 0.084516
0.102573 -0.223896 0.319706
0.137485 -0.223896 0.060704
-0.219717 -0.247006 0.34214
-0.652183 -0.223896 0.108161
-0.371633 -0.247006 -0.12139
-0.692532 -0.223896 0.466083
-0.123107 -0.223896 0.446964
-0.421469 -0.247006 -0.501374
-0.136033 -0.223896 0.091629
0.119147 -0.223896 -0.115976
0.187273 -0.247006 -0.558457
0.610537 -0.223896 0.331012
0.393568 -0.223896 -0.008894
0.114559 -0.223896 -0.183403
-0.186613 -0.223896 0.067931
0.128167 -0.247006 0.153315
-0.516505 -0.223896 -0.413688
0.447939 -0.247006 0.310527
-0.047799 -0.223896 -0.214526
0.318397 -0.223896 -0.524643
-0.273907 -0.247006 -0.104606
-0.342413 -0.223896 0.093216
-0.040909 -0.223896 -0.446276
-0.354341 -0.247006 0.010329
-0.198359 -0.223896 -0.334177
-0.721129 -0.223896 -0.050818
0.107615 -0.247006 -0.507899
-0.586506 -0.223896 0.392409
0.018064 -0.247006 -0.449083
0.140999 -0.247006 -0.071224
-0.237655 -0.223896 0.172861
0.451301 -0.223896 -0.484659
-0.579174 -0.223896 -0.305429
0.100437 -0.247006 0.126696
-0.297783 -0.247006 -0.439788
-0.396846 -0.247006 -0.401292
0.313581 -0.223896 0.326101
-0.463616 -0.247006 0.084426
-0.228507 -0.223896 -0.426222
-0.128427 -0.247006 0.150236
-0.668242 -0.247006 -0.16831
0.65975 -0.223896 -0.267647
0.374962 -0.247006 0.33704
-0.365973 -0.223896 0.383656
0.403748 -0.223896 -0.519757
-0.155489 -0.223896 0.385078
-0.676504 -0.247006 -0.131262
0.561591 -0.247006 0.124604
-0.13984 -0.247006 -0.127691
0.468685 -0.247006 0.42302
-0.19332 -0.223896 0.218349
-0.698834 -0.247006 -0.350652
-0.575371 -0.247006 -0.34701
-0.706089 -0.223896 0.1202
0.213019 -0.223896 -0.481551
-0.113517 -0.223896 -0.131041
0.068581 -0.223896 0.387075
0.319428 -0.247006 0.19361
-0.14073 -0.247006 0.000112
-0.522901 -0.247006 0.068604
0.614233 -0.247006 -0.149453
0.379738 -0.247006 -0.082905
0.408858 -0.223896 0.422347
0.500821 -0.247006 0.474372
0.568155 -0.247006 -0.193096
0.621758 -0.223896 -0.484333
0.328215 -0.247006 -0.266261
-0.705796 -0.247006 -0.385397
-0.743044 -0.247006 0.165542
-0.530702 -0.223896 -0.215905
0.444426 -0.223896 0.094613
0.436904 -0.223896 -0.522451
-0.560123 -0.223896 -0.465271
0.627128 -0.247006 0.224275
-0.44905 -0.247006 0.180963
-0.195952 -0.247006 -0.458892
0.078501 -0.223896 0.209541
-0.504331 -0.247006 -0.346573
-0.415807 -0.223896 0.248534
0.074688 -0.223896 -0.459979
-0.534833 -0.223896 0.258459
0.41165 -0.223896 0.371123
-0.077299 -0.223896 -0.343393
0.171733 -0.247006 -0.469995
0.332897 -0.247006 -0.494684
-0.036789 -0.223896 -0.527613
-0.109449 -0.247006 -0.459539
0.063025 -0.223896 0.071819
0.304334 -0.247006 -0.017206
0.663087 -0.223896 -0.122989
-0.262957 -0.247006 -0.182811
-0.640766 -0.223896 -0.520629
-0.43896 -0.223896 -0.270543
0.59633 -0.223896 -0.06709
0.406846 -0.223896 -0.400094
-0.597725 -0.223896 0.168119
-0.080638 -0.247006 -0.206001
-0.599341 -0.247006 0.216014
0.617662 -0.223896 0.414808
-0.250161 -0.247006 -0.442628
0.330884 -0.247006 0.350872
0.683441 -0.247006 0.155448
-0.401143 -0.247006 0.024425
0.321443 -0.223896 0.239394
-0.415658 -0.223896 -0.156448
-0.30008 -0.223896 0.279448
-0.288988 -0.247006 0.172991
-0.466628 -0.247006 0.22236
-0.673907 -0.223896 0.077247
0.659501 -0.223896 -0.083074
0.409203 -0.223896 -0.174235
0.096186 -0.247006 0.354079
-0.427742 -0.247006 -0.445768
0.665809 -0.223896 0.208118
-0.132845 -0.223896 0.333899
0.558039 -0.247006 0.316111
0.090163 -0.223896 0.048332
-0.540632 -0.223896 0.421371
-0.688818 -0.223896 -0.001234
-0.014748 -0.223896 -0.386057
-0.081301 -0.223896 0.105557
-0.541343 -0.223896 0.193931
0.244616 -0.223896 -0.328064
-0.149392 -0.223896 -0.381934
-0.323588 -0.223896 -0.082134
0.275702 -0.247006 0.385156
-0.100947 -0.247006 -0.271584
0.181392 -0.247006 -0.040139
0.371818 -0.247006 -0.527387
-0.256415 -0.223896 -0.315761
-0.167303 -0.247006 -0.167512
0.544353 -0.247006 0.171769
-0.218875 -0.223896 -0.177575
-0.571326 -0.223896 -0.16961
-0.259199 -0.223896 0.336595
-0.609442 -0.223896 0.066725
-0.101021 -0.223896 0.324967
-0.346283 -0.223896 -0.018813
0.537139 -0.223896 -0.438528
0.270111 -0.247006 0.456061
0.028781 -0.247006 -0.47966
-0.717693 -0.247006 0.459788
0.562035 -0.223896 0.448029
0.115881 -0.247006 -0.377617
0.426511 -0.223896 -0.295325
0.228355 -0.247006 0.199919
0.457586 -0.247006 -0.198378
0.461902 -0.223896 0.190679
0.122383 -0.223896 0.177285
-0.483328 -0.223896 0.352377
0.359872 -0.247006 -0.02699
0.441376 -0.247006 -0.118658
-0.474033 -0.223896 -0.235979
0.278888 -0.223896 -0.507289
-0.635321 -0.247006 0.442412
0.672881 -0.223896 0.10715
0.477659 -0.223896 -0.50624
0.613255 -0.223896 -0.198596
-0.563831 -0.223896 -0.082881
-0.634976 -0.223896 -0.158976
0.303843 -0.247006 0.099413
-0.599166 -0.223896 -0.111625
0.047026 -0.223896 0.150666
-0.007402 -0.223896 -0.303932
0.671267 -0.223896 -0.420402
-0.751803 -0.247006 -0.371736
0.295304 -0.223896 -0.436487
-0.206722 -0.223896 -0.369169
-0.710528 -0.223896 -0.081111
-0.493206 -0.247006 0.139537
0.023397 -0.247006 0.353194
0.554309 -0.247006 -0.074325
-0.082584 -0.247006 -0.312735
-0.344766 -0.247006 -0.486085
-0.438228 -0.223896 -0.02195
-0.719436 -0.223896 0.396227
0.37789 -0.223896 -0.348064
0.444722 -0.223896 0.459837
0.063379 -0.223896 0.469057
0.166148 -0.223896 -0.253047
-0.531816 -0.247006 -0.564712
0.37991 -0.247006 0.375341
-0.00297 -0.223896 0.275097
0.625856 -0.223896 -0.079282
0.659893 -0.247006 0.270657
-0.352005 -0.223896 -0.453623
0.507698 -0.223896 0.424401
-0.026633 -0.223896 0.195627
0.433551 -0.247006 -0.081131
-0.031083 -0.223896 0.415322
-0.122261 -0.247006 -0.505095
-0.694419 -0.247006 0.041752
-0.035479 -0.247006 0.373106
-0.042293 -0.247006 0.273027
-0.247719 -0.247006 -0.065726
-0.017237 -0.223896 -0.425029
-0.256479 -0.223896 -0.49131
0.262764 -0.247006 -0.079098
0.234185 -0.247006 0.231133
-0.574649 -0.247006 0.281107
-0.320546 -0.247006 -0.380113
0.650444 -0.223896 0.440744
-0.162925 -0.223896 -0.216295
-0.594478 -0.223896 0.335625
0.135981 -0.247006 -0.180446
-0.603375 -0.247006 -0.495599
-0.22886 -0.247006 0.051618
-0.410122 -0.247006 0.337065
-0.710589 -0.247006 -0.179939
-0.51324 -0.247006 0.30465
-0.38826 -0.223896 0.117076
-0.639638 -0.247006 0.275873
0.225697 -0.247006 -0.317014
0.116829 -0.223896 0.411829
-0.339609 -0.223896 0.464221
0.255419 -0.247006 -0.556502
-0.335093 -0.223896 -0.363607
-0.210705 -0.247006 -0.397654
0.470635 -0.247006 0.143396
0.31525 -0.223896 0.294765
0.105648 -0.223896 -0.396162
-0.310807 -0.223896 0.153594
-0.388329 -0.247006 -0.080867
0.529721 -0.223896 0.09158
-0.626566 -0.223896 -0.311092
-0.62613 -0.223896 0.351362
-0.005816 -0.223896 -0.233189
0.109983 -0.247006 -0.33435
0.651588 -0.247006 -0.504404
-0.378635 -0.247006 -0.321332
0.176239 -0.247006 -0.326069
-0.317484 -0.247006 -0.281657
-0.540978 -0.247006 -0.045887
0.501704 -0.223896 -0.103219
-0.293262 -0.223896 -0.089391
0.623689 -0.223896 0.290933
0.112508 -0.223896 0.260351
0.59077 -0.223896 0.107617
-0.243196 -0.247006 0.236372
-0.528098 -0.223896 -0.025432
-0.742723 -0.223896 -0.492732
-0.588041 -0.247006 0.1335
-0.264371 -0.223896 -0.392285
-0.377085 -0.247006 0.188814
-0.607208 -0.223896 -0.524301
0.523953 -0.223896 0.210935
-0.629475 -0.223896 -0.07799
0.55108 -0.223896 -0.306232
-0.192935 -0.247006 0.265863
0.562228 -0.247006 -0.359112
0.667976 -0.223896 0.30697
0.384492 -0.247006 0.245219
0.617508 -0.223896 -0.129018
-0.307746 -0.247006 0.387015
0.04283 -0.223896 0.029451
0.516497 -0.247006 -0.121439
-0.085669 -0.223896 0.174985
-0.320484 -0.247006 -0.201204
0.53196 -0.223896 -0.495384
-0.446373 -0.247006 0.406996
-0.253253 -0.223896 0.396275
-0.368105 -0.223896 0.429344
-0.63569 -0.247006 -0.392366
-0.622524 -0.223896 0.230816
-0.137266 -0.223896 -0.047668
0.504072 -0.223896 -0.449859
-0.438382 -0.223896 0.151591
0.208031 -0.247006 0.170512
-0.576119 -0.223896 0.204024
0.39005 -0.223896 -0.452606
-0.370503 -0.223896 -0.164785
-0.534245 -0.223896 -0.147467
-0.379496 -0.223896 0.013742
-0.349657 -0.247006 -0.339513
-0.669036 -0.247006 -0.386665
0.20646 -0.223896 -0.181734
0.652483 -0.223896 -0.185021
0.141573 -0.223896 0.461988
0.669624 -0.247006 -0.331051
0.156497 -0.223896 0.012111
-0.097508 -0.223896 -0.380834
-0.226355 -0.223896 0.102007
0.477065 -0.247006 0.238793
0.364311 -0.223896 0.222552
-0.266489 -0.223896 0.205778
-0.411486 -0.223896 -0.531756
0.347094 -0.247006 0.257484
0.510855 -0.247006 0.155727
0.641561 -0.247006 -0.253814
-0.17091 -0.223896 -0.470047
-0.653701 -0.247006 -0.255745
0.25426 -0.247006 0.083383
0.389008 -0.247006 0.425082
-0.569279 -0.247006 -0.391245
0.46049 -0.247006 -0.355459
-0.480649 -0.247006 -0.104506
0.681588 -0.223896 0.390832
0.047467 -0.247006 -0.402555
0.613747 -0.247006 -0.270562
-0.184188 -0.247006 0.438359
-0.013956 -0.247006 0.323451
-0.562554 -0.247006 -0.570454
-0.051185 -0.247006 -0.356505
-0.609824 -0.247006 0.411113
-0.609749 -0.247006 -0.130933
-0.514242 -0.247006 -0.092458
0.524162 -0.247006 -0.392683
0.129713 -0.247006 0.281155
0.44198 -0.223896 0.369099
-0.410133 -0.247006 0.053415
-0.613527 -0.247006 0.104329
-0.743453 -0.223896 -0.284964
-0.520277 -0.223896 0.098747
-0.665916 -0.223896 0.137152
0.571962 -0.223896 0.228585
-0.662974 -0.247006 0.195604
-0.336266 -0.223896 0.415446
-0.182573 -0.223896 -0.141163
0.148093 -0.247006 -0.416171
-0.105572 -0.223896 0.47692
-0.714317 -0.223896 0.206851
0.23823 -0.247006 -0.208619
0.076585 -0.247006 -0.528307
-0.164489 -0.247006 0.162439
-0.083954 -0.223896 -0.124647
0.201077 -0.247006 0.242479
-0.555937 -0.247006 0.068404
0.65405 -0.223896 -0.384995
-0.143437 -0.223896 -0.185682
0.267811 -0.247006 -0.170499
0.285609 -0.247006 0.194606
-0.093474 -0.247006 -0.080841
-0.666784 -0.223896 0.226047
0.230369 -0.247006 -0.261204
-0.591348 -0.247006 0.444194
-0.012334 -0.223896 0.083714
0.262142 -0.223896 0.262075
0.494867 -0.223896 -0.166395
0.176655 -0.247006 0.393026
-0.067911 -0.223896 0.140982
0.013392 -0.247006 -0.29215
0.411551 -0.223896 0.066825
-0.583449 -0.247006 -0.231907
0.381972 -0.247006 -0.221846
-0.473255 -0.223896 -0.437116
0.584204 -0.247006 -0.523245
-0.672929 -0.223896 -0.445629
-0.062323 -0.247006 0.359548
0.363566 -0.223896 -0.291994
0.490286 -0.247006 -0.244395
-0.725312 -0.223896 -0.541974
0.317372 -0.247006 0.066356
-0.655073 -0.223896 -0.344976
0.597607 -0.247006 0.193933
0.138463 -0.247006 0.404161
-0.32737 -0.247006 0.120216
-0.35749 -0.223896 0.043153
-0.18257 -0.247006 -0.232251
-0.378266 -0.247006 -0.237773
-0.398139 -0.223896 0.437112
0.378897 -0.247006 0.119844
-0.465607 -0.247006 -0.522628
0.319498 -0.247006 0.014549
-0.725164 -0.247006 -0.216055
-0.203555 -0.223896 0.38669
0.573785 -0.247006 -0.009544
0.07018 -0.247006 -0.027235
0.520867 -0.247006 -0.310224
0.064774 -0.247006 -0.142916
0.306696 -0.247006 -0.313712
0.293199 -0.247006 0.437179
0.364084 -0.223896 -0.21485
-0.059166 -0.247006 -0.493781
-0.434617 -0.223896 -0.33558
-0.492428 -0.247006 0.237259
0.671252 -0.247006 -0.251343
-0.312808 -0.223896 -0.12373
0.652932 -0.247006 -0.436804
-0.463579 -0.223896 0.273884
-0.617712 -0.247006 0.299022
0.029693 -0.223896 -0.56823
-0.133969 -0.223896 0.246025
0.336268 -0.223896 -0.168564
0.107945 -0.247006 0.39415
-0.024316 -0.247006 -0.482323
0.543344 -0.223896 0.286122
-0.09227 -0.247006 -0.410467
0.426427 -0.223896 -0.377734
-0.223284 -0.247006 -0.31192
-0.747947 -0.223896 0.183563
0.613585 -0.223896 0.011758
-0.276155 -0.247006 0.224463
-0.394881 -0.223896 0.172417
0.1965 -0.223896 -0.069704
-0.651993 -0.247006 0.389345
-0.497748 -0.247006 0.193229
-0.069472 -0.223896 -0.032654
0.180373 -0.247006 0.210663
0.637072 -0.223896 -0.523715
-0.386038 -0.247006 -0.010317
0.445991 -0.223896 0.430265
-0.042358 -0.223896 0.223554
-0.480937 -0.247006 0.333636
0.214928 -0.247006 0.020712
0.531778 -0.223896 0.052455
-0.294949 -0.247006 0.300049
-0.10481 -0.223896 -0.529707
0.01172 -0.247006 -0.03639
0.001306 -0.247006 0.372777
-0.281081 -0.247006 -0.075672
0.682173 -0.247006 -0.156035
0.501076 -0.223896 0.111527
0.262008 -0.223896 0.099993
0.225818 -0.247006 -0.097674
-0.558703 -0.247006 0.383541
-0.28984 -0.247006 0.331668
0.2484 -0.247006 0.403973
0.349219 -0.247006 -0.140691
-0.725212 -0.247006 -0.286528
0.009778 -0.247006 -0.200219
0.03549 -0.223896 0.332718
0.045528 -0.223896 0.273799
-0.587214 -0.247006 -0.522783
-0.343502 -0.223896 -0.233893
-0.156368 -0.247006 -0.287436
-0.646283 -0.223896 -0.47167
-0.727563 -0.223896 0.250797
-0.121889 -0.223896 0.015682
-0.474612 -0.247006 0.009765
0.148462 -0.223896 0.2773
-0.738862 -0.223896 0.07377
0.521725 -0.223896 -0.20539
0.58508 -0.223896 -0.483098
0.467974 -0.223896 0.012316
-0.115776 -0.247006 0.38382
0.20238 -0.247006 0.339302
0.09106 -0.247006 -0.443078
-0.300883 -0.247006 0.202724
-0.127144 -0.247006 0.219476
-0.621013 -0.247006 -0.420233
0.113464 -0.223896 -0.144633
0.542825 -0.223896 -0.230085
-0.589072 -0.247006 -0.436045
0.54866 -0.247006 0.203812
0.067979 -0.247006 0.14925
-0.086198 -0.247006 0.28121
0.293056 -0.247006 0.283101
0.08287 -0.247006 -0.197779
0.197509 -0.247006 -0.30422
-0.490814 -0.247006 -0.230098
0.540726 -0.223896 0.246413
-0.542131 -0.223896 0.312321
0.133427 -0.247006 -0.453036
-0.35951 -0.247006 -0.072687
-0.061719 -0.223896 0.271502
-0.183965 -0.247006 -0.06121
0.466323 -0.247006 -0.050749
0.420258 -0.223896 -0.035613
-0.419709 -0.247006 0.290558
-0.115249 -0.247006 -0.430851
0.251686 -0.223896 0.45764
0.037534 -0.247006 0.114771
-0.742958 -0.247006 0.118376
-0.034406 -0.223896 -0.568699
0.496601 -0.247006 -0.215546
-0.487653 -0.223896 -0.410516
-0.325759 -0.223896 -0.052117
0.601229 -0.247006 -0.184299
-0.226722 -0.223896 -0.233318
0.501355 -0.247006 -0.14968
-0.101255 -0.223896 -0.035328
-0.409352 -0.223896 0.467285
-0.600035 -0.223896 -0.226717
