0.297444 -0.331217 -0.164449
-0.162116 0.686338 -0.164449
0.295845 -0.791771 -0.174168
-0.425427 -0.599617 -0.164449
0.137945 -0.362042 -0.174168
0.020494 -0.483243 -0.174168
0.117484 -0.788451 -0.174168
-0.135607 0.708832 -0.174168
-0.427018 -0.76972 -0.164449
0.466475 -0.776946 -0.164449
-0.188958 -0.494501 -0.164449
0.192308 0.711931 -0.174168
0.356301 0.11221 -0.174168
-0.470295 -0.566312 -0.164449
-0.30724 0.424173 -0.174168
0.048282 -0.150811 -0.164449
-0.103239 0.02595 -0.164449
0.322215 -0.140305 -0.164449
-0.117203 -0.742413 -0.164449
0.199107 0.222694 -0.164449
0.372077 0.211074 -0.164449
-0.443639 0.386422 -0.174168
0.479661 0.111858 -0.174168
0.284138 -0.82822 0.037714
-0.120627 -0.769909 0.009613
-0.365485 -0.82822 0.05792
-0.205105 -0.82822 0.173626
0.099326 -0.769909 -0.002329
0.377647 -0.780776 0.184055
0.427847 -0.769909 -0.040828
-0.26652 -0.769909 -0.047349
-0.005597 -0.769909 -0.100094
0.1861 -0.82822 -0.078453
0.301962 -0.769909 -0.079112
-0.391508 -0.769909 -0.053875
0.150911 -0.82822 0.095101
0.407401 -0.82822 0.063874
-0.000832 -0.82822 0.030756
-0.229117 -0.82822 0.064208
-0.425626 -0.82822 0.181267
-0.182311 -0.82822 -0.083291
0.282444 -0.817273 0.184055
0.201173 -0.769909 -0.000298
-0.069414 -0.82822 -0.05118
-0.136197 -0.82822 0.096254
0.085243 -0.769909 -0.135417
-0.357029 -0.769909 -0.151205
-0.488904 -0.769909 -0.111423
-0.454298 -0.82822 0.088522
0.453434 -0.769909 0.121578
0.459642 -0.769909 -0.130162
0.354758 -0.82822 -0.021896
0.167862 -0.818884 0.184055
0.365903 -0.82822 -0.122284
0.336064 -0.769909 0.082207
0.078185 -0.769909 0.083305
-0.293672 -0.769909 0.076417
-0.119377 -0.769909 -0.098238
-0.000959 -0.82822 0.117032
-0.323283 -0.82822 -0.020493
0.234328 -0.82822 0.108899
-0.428436 -0.769909 0.033202
-0.406049 -0.769909 0.121797
-0.206552 -0.769909 0.010218
0.046306 -0.82822 -0.036863
-0.283976 -0.82822 0.153819
-0.326504 -0.82822 -0.104583
-0.056245 -0.769909 0.057992
-0.203456 -0.769909 0.11207
-0.438147 -0.82822 -0.078524
0.340329 -0.82822 0.133521
0.479559 -0.807334 0.184055
0.479905 -0.82822 -0.085716
0.258976 -0.82822 -0.09026
0.004396 -0.769909 -0.022338
0.11921 -0.82822 -0.042681
-0.159255 -0.82822 -0.011736
0.234056 -0.769909 0.065663
-0.354434 -0.82822 0.137906
0.289686 -0.769909 -0.008387
0.387116 -0.769909 0.027738
-0.253295 -0.82822 -0.09113
-0.428844 -0.82822 -0.007724
0.107625 -0.82822 0.038775
-0.045921 -0.82822 0.182379
-0.246741 -0.771231 0.184055
0.136132 -0.769909 -0.087482
0.147361 -0.769909 0.057122
-0.113429 -0.82822 0.163879
0.422524 -0.82822 -0.00418
0.074086 -0.82822 -0.1007
0.225845 -0.769909 -0.105516
0.087511 -0.82822 0.127662
0.373684 -0.769909 -0.08267
0.184425 -0.82822 0.030249
-0.292368 -0.769909 -0.123499
-0.328918 -0.769909 0.013639
-0.458957 -0.769909 -0.051348
-0.065713 -0.82822 0.089177
-0.217053 -0.769909 -0.117615
-0.264248 -0.82822 0.008356
-0.091466 -0.82822 0.014085
0.179752 -0.769909 0.113693
0.018353 -0.769909 0.050755
-0.040546 -0.82822 -0.109619
0.415074 -0.82822 0.127332
0.288196 -0.82822 -0.033775
0.479279 -0.82822 0.062608
0.05988 -0.769909 -0.05195
-0.128878 -0.82822 -0.115493
-0.407797 -0.769909 -0.117178
0.342638 -0.82822 0.055288
-0.299947 -0.82822 0.057405
0.233952 -0.82822 -0.006859
-0.10311 -0.769909 0.096165
-0.331609 -0.769909 -0.047215
-0.438891 -0.769909 0.181327
0.318352 -0.82822 -0.085905
-0.478916 -0.82822 0.034331
0.437022 -0.769909 0.064401
0.055406 -0.82822 0.066885
0.140508 -0.82822 -0.115667
-0.347394 -0.769909 0.11752
-0.066465 -0.769909 -0.056732
0.251037 -0.769909 0.126779
0.297782 -0.82822 0.093884
0.116098 -0.781996 0.184055
0.010721 -0.82822 -0.083738
-0.149138 -0.769909 -0.039852
-0.237052 -0.82822 0.120633
0.394252 -0.82822 -0.062959
0.39246 -0.769909 0.098783
0.429317 -0.82822 -0.110003
-0.382157 -0.82822 -0.075403
-0.214659 -0.82822 -0.03752
0.370244 -0.769909 -0.025509
0.33863 -0.769909 -0.12529
0.246898 -0.769909 -0.05461
-0.243966 -0.769909 0.053208
-0.159901 -0.769909 -0.133886
0.232727 -0.82822 0.054229
-0.213279 -0.769909 -0.055306
0.246768 -0.777003 0.184055
0.007055 -0.82822 0.174125
-0.378509 -0.803012 0.184055
-0.122232 -0.82822 -0.059031
-0.020315 -0.769909 0.106235
0.166243 -0.769909 -0.039843
-0.162396 -0.769909 0.041787
-0.065082 -0.769909 -0.126749
0.284369 -0.769909 0.051148
-0.179064 -0.82822 -0.138676
-0.230717 -0.82822 -0.144294
0.338118 -0.820391 0.184055
0.217623 -0.82822 0.178123
-0.336972 -0.769909 -0.099197
-0.4585 -0.769909 0.083585
-0.169257 -0.82822 0.138096
0.172501 -0.82822 -0.018768
0.037919 -0.769909 0.118947
0.434097 -0.82822 0.181001
-0.499066 -0.769909 0.183149
0.45766 -0.82822 -0.040562
-0.059315 -0.769909 0.008249
0.168408 -0.769909 -0.12407
0.34381 -0.769909 0.130118
-0.04699 -0.82822 0.133748
0.410309 -0.769909 -0.113966
-0.383165 -0.769909 0.017862
-0.413967 -0.82822 0.037605
-0.420163 -0.769909 -0.015796
-0.438843 -0.82822 -0.125947
0.384717 -0.82822 0.183209
-0.035043 -0.82822 -0.001577
-0.047206 -0.82822 0.045937
-0.391271 -0.82822 0.09716
0.133426 -0.769909 0.110344
0.065548 -0.769909 0.028953
0.171858 -0.82822 0.136095
0.333656 -0.769909 0.17838
0.245007 -0.769909 0.011829
0.057097 -0.82822 0.007319
0.18526 -0.769909 -0.081901
-0.107379 -0.82822 0.061263
0.370059 -0.82822 0.091128
0.443285 -0.82822 0.092207
-0.43161 -0.82822 0.127437
-0.385379 -0.82822 -0.019105
0.121366 -0.769909 -0.04148
-0.315186 -0.82822 0.099586
0.015236 -0.82822 -0.133225
0.294419 -0.769909 0.112557
-0.152148 -0.823123 0.184055
0.378234 -0.82822 0.015193
0.241656 -0.82822 -0.133127
-0.320131 -0.82822 -0.151339
0.29983 -0.82822 -0.125248
0.093606 -0.82822 0.179604
0.343691 -0.769909 0.02718
0.456852 -0.769909 0.006167
-0.335884 -0.769909 0.074498
-0.360451 -0.82822 0.014823
-0.482762 -0.82822 -0.01384
-0.255255 -0.825923 0.184055
-0.454169 -0.769909 -0.137838
-0.27141 -0.82822 -0.128342
0.054633 -0.769909 -0.010743
-0.303374 -0.79921 0.184055
0.111877 -0.82822 -0.146738
-0.078433 -0.82822 -0.094287
0.083206 -0.769909 -0.085499
-0.283689 -0.82822 -0.029593
0.288565 -0.769909 -0.165216
-0.143582 -0.769909 0.095205
-0.267091 -0.769909 -0.091881
0.102501 -0.82822 -0.001341
0.178488 -0.82822 -0.129036
0.220531 -0.82822 -0.057679
-0.323335 -0.82822 0.163066
-0.401144 -0.769909 0.168089
-0.203179 -0.82822 0.000797
0.036678 -0.82822 0.104965
0.332383 -0.769909 -0.036685
0.301416 -0.82822 0.140103
0.446404 -0.769909 -0.075505
0.142523 -0.82822 -0.076749
-0.320949 -0.82822 0.018357
-0.395944 -0.82822 -0.111629
-0.158737 -0.769909 -0.077403
0.189594 -0.82822 0.101652
-0.170071 -0.769909 -0.007259
0.162467 -0.769909 0.001049
-0.133018 -0.82822 0.016504
0.027016 -0.769909 -0.072041
0.039141 -0.82822 0.152821
0.14103 -0.769909 0.154754
0.020927 -0.769909 0.012243
-0.366427 -0.769909 0.152379
-0.10126 -0.780757 0.184055
-0.341411 -0.82822 -0.053928
0.130531 -0.769909 -0.126139
0.04783 -0.769909 -0.141538
-0.364933 -0.82822 -0.142403
0.210035 -0.786266 0.184055
-0.209051 -0.82822 -0.109887
-0.101209 -0.769909 -0.145535
-0.47505 -0.82822 0.176154
-0.012733 -0.769909 -0.151798
-0.481148 -0.82822 -0.084562
0.184025 -0.769909 0.063321
0.123339 -0.82822 0.137553
0.230432 -0.769909 -0.142957
-0.045179 -0.769909 -0.026821
-0.197034 -0.769909 0.053867
-0.455351 -0.769909 -0.00573
0.31848 -0.82822 0.025183
-0.269223 -0.82822 0.103291
-0.114293 -0.82822 -0.014879
-0.402871 -0.82822 0.152713
0.258444 -0.82822 0.13618
0.469952 -0.82822 0.013347
-0.149781 -0.82822 0.06276
-0.211159 -0.82822 0.095172
0.308216 -0.769909 0.022085
0.421978 -0.769909 0.020873
-0.352123 -0.82822 0.090777
-0.291599 -0.82822 -0.098309
0.278355 -0.769909 0.171392
-0.251555 -0.769909 -0.122684
0.153472 -0.82822 0.060752
-0.450609 -0.82822 -0.046444
0.07168 -0.82822 -0.142058
-0.367142 -0.769909 0.089732
-0.250884 -0.82822 -0.0572
-0.058611 -0.78006 0.184055
0.444709 -0.82822 0.143795
-0.135854 -0.82822 0.132403
0.254444 -0.82822 0.080225
0.321817 -0.82822 -0.037695
0.302795 -0.790225 0.184055
-0.169301 -0.82822 0.102875
-0.453418 -0.803563 0.184055
0.41978 -0.769909 0.121621
0.021916 -0.82822 0.064053
0.384418 -0.82822 0.141052
0.446311 -0.769909 0.1746
0.218726 -0.769909 0.156089
-0.375176 -0.769909 -0.083172
-0.093398 -0.769909 0.064064
0.253285 -0.82822 -0.050544
0.205376 -0.82822 0.146937
0.046813 -0.769909 0.072098
0.224004 -0.82822 -0.090787
-0.10386 -0.82822 0.103689
0.413593 -0.802441 0.184055
-0.46841 -0.769909 0.052267
-0.360175 -0.82822 0.174228
-0.413901 -0.82822 0.073618
-0.430741 -0.769909 0.066392
0.210323 -0.769909 0.102332
0.013369 -0.797844 0.184055
-0.435338 -0.769909 -0.09978
-0.331514 -0.82822 0.065164
-0.013186 -0.769909 0.058282
-0.02534 -0.82822 -0.139242
-0.503013 -0.82822 -0.060681
0.101129 -0.769909 0.118283
0.200194 -0.82822 0.07109
0.202018 -0.82822 -0.002187
-0.447919 -0.82822 0.025408
-0.223095 -0.769909 0.077768
-0.408049 -0.82822 -0.05637
0.431575 -0.82822 0.026494
-0.258246 -0.769909 0.102148
-0.207269 -0.82822 0.132064
-0.369645 -0.771583 0.184055
0.43012 -0.82822 -0.056483
0.307326 -0.769909 -0.129326
-0.329066 -0.769909 -0.129694
0.067918 -0.82822 0.101015
0.459297 -0.769909 0.042151
0.330143 -0.82822 -0.116782
0.073851 -0.82822 -0.021867
0.150895 -0.774633 0.184055
0.397266 -0.82822 -0.136292
-0.219542 -0.769909 -0.024839
-0.092519 -0.769909 -0.039784
-0.087055 -0.769909 -0.005725
-0.304289 -0.769909 -0.032474
0.286812 -0.82822 -0.0029
-0.318213 -0.82822 -0.074276
0.016476 -0.769909 0.096784
-0.192809 -0.769909 -0.098557
-0.317548 -0.769909 -0.075358
-0.160276 -0.82822 -0.042458
0.029004 -0.82822 0.023746
-0.12111 -0.806568 0.184055
-0.216545 -0.769909 0.17949
-0.403279 -0.769909 0.05304
-0.045433 -0.82822 -0.06958
0.477653 -0.82822 -0.017948
-0.097897 -0.769909 -0.077041
-0.287472 -0.769909 0.112855
-0.347293 -0.769909 0.04697
0.09761 -0.82822 0.098522
-0.494687 -0.769909 -0.025925
-0.096243 -0.82822 0.139788
-0.056348 -0.769909 0.092136
0.32567 -0.82822 0.079445
0.222404 -0.769909 0.030816
0.309377 -0.769909 0.161601
-0.352661 -0.82822 -0.019307
-0.360444 -0.769909 -0.04178
0.474541 -0.77087 0.184055
0.010036 -0.769909 -0.124834
-0.019184 -0.82822 -0.082397
0.353868 -0.82822 0.160776
0.34532 -0.769909 -0.075848
0.146703 -0.82822 0.166388
0.432545 -0.769909 -0.012127
0.399974 -0.769909 0.070744
0.283452 -0.769909 -0.056831
-0.439247 -0.82822 0.052876
0.370773 -0.769909 0.079876
0.414646 -0.82822 0.094268
-0.471627 -0.82822 0.111384
-0.307206 -0.82822 0.136988
0.39993 -0.769909 -0.03427
-0.410767 -0.769909 -0.085032
0.120879 -0.820666 0.184055
0.465389 -0.82822 -0.115733
-0.239622 -0.769909 0.024927
-0.160073 -0.82822 -0.11746
-0.271894 -0.82822 0.062204
0.037037 -0.769909 -0.0353
0.163543 -0.769909 0.082782
0.317783 -0.82822 0.116577
0.27787 -0.769909 0.089748
0.065573 -0.82822 0.182323
-0.158501 -0.769909 -0.105799
0.163613 -0.82822 0.011392
-0.253321 -0.82822 -0.029248
-0.189415 -0.769909 0.080822
-0.285189 -0.82822 0.181714
0.028127 -0.769909 -0.16129
-0.22992 -0.82822 -0.007112
-0.009174 -0.769909 -0.072496
0.378332 -0.82822 0.064597
-0.13512 -0.769909 0.036743
0.21921 -0.769909 -0.055015
0.336538 -0.82822 -0.061119
0.373935 -0.769909 -0.11031
-0.490475 -0.769909 0.019467
0.34668 -0.82822 0.105559
-0.501677 -0.82822 0.049688
0.259961 -0.82822 -0.015517
0.164294 -0.82822 -0.060172
0.44758 -0.82822 -0.14136
-0.064201 -0.82822 0.015463
0.088315 -0.769909 -0.0273
0.126066 -0.769909 0.003098
-0.242821 -0.82822 -0.119871
0.195008 -0.769909 -0.118128
-0.41725 -0.82822 -0.147009
-0.231001 -0.813787 0.184055
-0.349603 -0.82822 -0.118615
-0.399196 -0.823341 0.184055
-0.150507 -0.82822 -0.067616
-0.374927 -0.769909 0.126797
0.40378 -0.82822 -0.088159
-0.299076 -0.82822 -0.051664
0.426614 -0.769909 -0.13535
0.277279 -0.82822 -0.109931
0.260166 -0.802407 0.184055
0.359827 -0.769909 0.005869
0.093017 -0.82822 -0.047979
0.191694 -0.82822 0.169866
-0.483737 -0.791673 0.184055
0.061078 -0.769909 0.105861
0.313094 -0.769909 0.068924
0.39948 -0.769909 -0.076532
-0.429996 -0.82822 0.153788
0.059457 -0.82822 0.04087
-0.252051 -0.769909 -0.15479
-0.179653 -0.82822 0.17993
-0.494671 -0.769909 0.156926
-0.104154 -0.82822 -0.098938
0.355649 -0.769909 0.10111
-0.346 -0.791901 0.184055
0.132067 -0.769909 0.078096
-0.170508 -0.769909 0.098586
0.237254 -0.82822 0.018834
0.241823 -0.82822 0.168918
0.195711 -0.82822 -0.109829
0.311934 -0.769909 -0.104021
0.216557 -0.769909 -0.08177
0.144702 -0.82822 -0.140738
0.35447 -0.769909 -0.049227
-0.274336 -0.82822 -0.07694
-0.394487 -0.82822 0.021378
0.315201 -0.82822 0.176842
0.103327 -0.82822 0.152967
0.030257 -0.827454 0.184055
-0.064026 -0.769909 -0.101598
-0.0652 -0.82822 0.116484
-0.195575 -0.82822 0.075541
0.087415 -0.804376 0.184055
-0.181167 -0.769909 -0.147075
0.270352 -0.82822 0.060928
-0.227253 -0.82822 0.147046
-0.181836 -0.769909 -0.122181
0.254749 -0.82822 -0.154875
-0.133323 -0.82822 -0.03077
0.281345 -0.769909 0.01494
-0.025579 -0.769909 -0.041968
0.385822 -0.82822 -0.008371
0.333397 -0.82822 0.005429
0.188682 -0.769909 -0.029697
0.116787 -0.769909 -0.102697
-0.226429 -0.82822 -0.059589
0.423428 -0.769909 0.084818
-0.138794 -0.82822 0.156687
-0.415463 -0.82822 0.100543
0.431003 -0.769909 -0.101044
-0.24183 -0.82822 0.043433
0.029517 -0.769909 -0.096213
0.467674 -0.769909 -0.058078
0.05283 -0.82822 0.132843
-0.453653 -0.769909 0.159761
-0.011949 -0.82822 0.095504
0.187226 -0.769909 0.087563
-0.267556 -0.769909 0.058371
0.229035 -0.82822 0.085372
0.455393 -0.82822 0.065683
-0.220994 -0.769909 0.046196
-0.297611 -0.82822 0.083237
0.208538 -0.769909 0.050403
0.090983 -0.82822 0.019701
-0.180702 -0.82822 -0.054932
-0.482682 -0.769909 -0.048463
-0.10146 -0.820155 0.184055
-0.039197 -0.82822 0.021945
0.074325 -0.769909 0.0027
-0.120652 -0.82822 -0.147303
0.144183 -0.812551 0.184055
-0.017152 -0.82822 -0.116957
-0.341705 -0.82822 -0.077599
-0.030271 -0.769909 0.084782
0.153122 -0.769909 -0.059501
0.324141 -0.769909 -0.145904
-0.360027 -0.769909 -0.104258
-0.019928 -0.769909 -0.129341
-0.305368 -0.769909 0.014746
-0.081865 -0.82822 0.072052
0.356674 -0.82822 0.002502
-0.087716 -0.82822 -0.036508
0.121812 -0.82822 0.011953
-0.38563 -0.82822 0.069867
-0.231866 -0.769909 -0.004926
-0.368775 -0.82822 0.119639
-0.299447 -0.82822 0.027066
0.246626 -0.769909 -0.011302
-0.442498 -0.82822 -0.101287
-0.260686 -0.789723 0.184055
0.420176 -0.82822 -0.134095
-0.461239 -0.82822 -0.12071
-0.123754 -0.769909 -0.141018
-0.047562 -0.805349 0.184055
0.033933 -0.82822 -0.155268
0.184328 -0.82822 0.054452
0.066635 -0.82822 -0.047577
-0.130069 -0.769909 0.182589
0.452824 -0.769909 0.080946
-0.174253 -0.769909 0.015211
-0.196963 -0.769909 -0.021457
-0.024498 -0.82822 0.137595
0.432119 -0.82822 0.072405
-0.441058 -0.82822 -0.153083
0.379484 -0.82822 0.04194
0.062088 -0.769909 0.133346
0.005377 -0.82822 0.138784
-0.192864 -0.82822 -0.019343
0.097391 -0.769909 0.180134
-0.211772 -0.769909 -0.156728
-0.331906 -0.769909 -0.024705
-0.112865 -0.82822 0.026522
0.123212 -0.82822 -0.101421
-0.254991 -0.769909 -0.073205
0.267662 -0.82822 0.098029
0.010927 -0.769909 0.118246
0.341701 -0.789708 0.184055
0.175208 -0.769909 -0.103037
-0.451757 -0.769909 0.10811
-0.148245 -0.769909 -0.010236
-0.415768 -0.82822 -0.125103
-0.449824 -0.82822 -0.001292
-0.114075 -0.769909 -0.119508
0.458311 -0.801998 0.184055
-0.457748 -0.82822 0.128263
0.130862 -0.82822 0.086514
-0.100709 -0.82822 -0.055714
-0.364667 -0.769909 0.029321
-0.279369 -0.769909 -0.029854
0.170168 -0.769909 0.133151
-0.028432 -0.82822 0.056712
-0.416238 -0.82822 -0.076402
-0.318551 -0.769909 -0.163858
0.27699 -0.82822 0.125118
0.048313 -0.769909 -0.075573
-0.306357 -0.82822 -0.134799
-0.407106 -0.769909 0.001192
0.210625 -0.82822 -0.021773
-0.16514 -0.82822 0.159051
0.275082 -0.82822 -0.144287
-0.483482 -0.769909 -0.14688
-0.08897 -0.82822 -0.113906
-0.298261 -0.769909 -0.143969
0.20198 -0.805973 0.184055
0.140129 -0.82822 0.124497
-0.40181 -0.769909 0.031847
-0.403436 -0.82822 -0.030162
-0.44763 -0.769909 0.048231
0.045916 -0.769909 0.021227
0.164861 -0.82822 0.078413
0.140112 -0.769909 -0.032064
0.458212 -0.82822 -0.061526
-0.064291 -0.769909 -0.157583
0.409131 -0.82822 -0.115302
0.466954 -0.82822 -0.150807
-0.403646 -0.769909 -0.028499
0.169486 -0.82822 0.115419
0.119137 -0.82822 -0.013809
-0.158573 -0.769909 0.160077
-0.07972 -0.769909 0.079689
0.104103 -0.82822 -0.028492
0.261177 -0.82822 -0.126385
0.24264 -0.769909 0.03491
-0.149596 -0.769909 0.114865
-0.209118 -0.82822 -0.156369
0.032629 -0.82822 0.003539
-0.456953 -0.769909 0.014733
-0.440174 -0.769909 -0.0203
-0.267274 -0.769909 -0.135802
-0.415167 -0.769909 0.182948
-0.350722 -0.811766 0.184055
0.461148 0.342926 0.129054
-0.494682 0.344998 0.129054
-0.564678 0.733612 0.172967
0.078065 0.736451 0.178639
-0.241179 0.715488 -0.181746
0.515241 0.736451 0.161496
0.2084 0.727698 -0.181746
-0.237478 0.735726 0.187555
-0.026312 0.610111 -0.044972
0.484812 0.736451 -0.103654
-0.398555 0.610111 0.022461
0.311885 0.610111 0.021096
-0.475045 0.736451 -0.165895
0.311548 0.724563 0.187555
-0.200827 0.610111 0.039251
0.016327 0.734295 -0.181746
0.110023 0.736451 -0.006732
-0.095571 0.635611 0.184567
-0.391414 0.661046 0.184567
0.189681 0.610111 0.159564
-0.056256 0.736451 0.053072
-0.297712 0.736451 0.009426
0.404426 0.736451 0.053298
-0.121574 0.736451 -0.086768
0.315893 0.736451 -0.075077
0.177917 0.610111 -0.035777
0.243037 0.736451 0.048188
-0.506308 0.612703 0.114327
0.046325 0.610111 0.087717
-0.364683 0.678141 -0.099378
-0.443918 0.736451 0.057472
0.537914 0.736451 0.017758
-0.258826 0.610111 -0.072107
0.388918 0.736451 -0.181727
-0.183634 0.736451 0.076284
-0.462083 0.610111 -0.090752
0.118941 0.678141 -0.124506
0.406852 0.668422 -0.048787
0.006301 0.736451 -0.057792
-0.556736 0.736451 0.051591
0.239663 0.62092 -0.165297
-0.047133 0.736451 0.165105
-0.064679 0.610111 0.070247
0.150215 0.668422 0.071556
0.200842 0.731646 0.187555
-0.207463 0.629598 0.184567
-0.283072 0.668422 0.09438
0.419412 0.610111 0.040893
-0.49147 0.736451 -0.038624
0.438351 0.668422 0.128487
0.206972 0.736451 -0.076503
0.089502 0.623126 0.184567
-0.154254 0.610111 -0.052936
0.076295 0.610111 -0.042927
0.279706 0.668422 0.111249
-0.207001 0.736451 -0.031734
-0.343323 0.736451 -0.17514
-0.301129 0.634075 -0.165297
0.276623 0.610111 -0.075628
-0.329184 0.736451 0.160358
-0.295036 0.610111 0.019552
-0.564678 0.724205 -0.103716
-0.109979 0.678141 -0.003164
-0.470774 0.732191 0.187555
-0.143109 0.736451 -0.178501
0.294019 0.697578 -0.158256
0.034021 0.736451 0.096534
0.36031 0.644606 0.184567
-0.00578 0.65706 0.184567
0.008779 0.678141 0.026227
-0.206686 0.678141 -0.106003
-0.149183 0.736451 0.167939
0.002126 0.668422 -0.118197
-0.284317 0.736451 -0.078512
-0.409114 0.697578 -0.013973
0.422789 0.736451 0.182589
0.329535 0.697578 0.02852
-0.355181 0.610111 0.100976
-0.128503 0.668422 0.083343
-0.372373 0.697578 0.088634
0.227567 0.678141 -0.014901
0.471383 0.678141 0.026913
-0.506308 0.666391 0.043575
0.529427 0.717402 -0.181746
0.212513 0.610111 0.070533
0.143461 0.736451 0.124177
0.434973 0.610111 -0.103779
0.370969 0.610111 0.107498
-0.075511 0.668422 -0.082721
-0.305291 0.668422 -0.037313
0.26619 0.620296 0.184567
-0.448531 0.668422 0.103921
-0.387901 0.610111 -0.057426
0.356169 0.736451 0.121698
0.366583 0.668422 -0.118824
-0.28005 0.668422 0.181133
-0.441654 0.697578 -0.104828
-0.058892 0.736451 -0.135499
-0.470195 0.652097 0.184567
0.494021 0.736451 0.085378
0.089825 0.678141 0.120981
0.063943 0.736451 -0.119536
-0.562005 0.722652 -0.181746
-0.239146 0.668422 0.003866
-0.03717 0.668422 0.113196
0.436284 0.736451 -0.016847
-0.151543 0.661556 -0.165297
-0.494895 0.736451 0.114218
0.203011 0.668422 -0.118356
0.326721 0.668422 -0.041394
0.142584 0.67715 0.175339
0.067741 0.678141 -0.179709
-0.407735 0.736451 0.142449
-0.259755 0.736451 0.116055
0.123024 0.668422 -0.046605
0.136611 0.610111 0.02619
0.205946 0.697578 0.112801
0.359005 0.610111 -0.073843
0.116836 0.610111 0.108418
-0.071341 0.736451 -0.025061
0.084236 0.697578 0.049696
0.129508 0.736455 -0.167429
-0.328156 0.610111 -0.098945
-0.503548 0.668422 -0.067935
-0.564678 0.733195 -0.032155
-0.200394 0.668422 0.122822
-0.341575 0.610111 0.174539
0.148634 0.610111 -0.103796
0.035513 0.610111 0.016951
-0.230343 0.645808 -0.165297
-0.334471 0.668422 0.032299
0.371851 0.678141 0.082639
0.519164 0.668424 0.122421
-0.089225 0.610111 -0.006781
-0.494834 0.668422 -0.152364
0.239428 0.610111 0.000526
0.137107 0.736451 -0.087367
-0.456422 0.610111 -0.017993
-0.130814 0.736451 0.027801
0.262722 0.736451 -0.027228
-0.108886 0.610111 -0.130552
0.166122 0.736451 0.033545
0.009323 0.668422 -0.049767
0.362011 0.736451 -0.024544
0.242709 0.668422 0.052357
-0.358866 0.668422 -0.173596
-0.28951 0.678141 -0.11603
-0.175301 0.678141 -0.040393
-0.405541 0.736451 -0.150737
0.096027 0.610111 -0.144719
0.302197 0.610111 0.086696
-0.320735 0.736451 0.073853
-0.153984 0.668422 0.180486
-0.367429 0.736451 -0.047523
0.543225 0.707006 -0.117916
-0.111087 0.736451 0.090835
0.427895 0.736451 0.114771
0.162459 0.668422 0.005777
0.409457 0.736451 -0.076353
-0.425358 0.668422 0.042015
-0.025434 0.610111 -0.112307
-0.471685 0.610111 0.058883
-0.209311 0.610111 -0.115954
0.384847 0.610111 -0.013434
0.29472 0.736451 0.102697
0.225432 0.669154 0.175339
0.493089 0.697578 -0.052347
0.046393 0.736451 -0.000218
0.388269 0.668422 0.021634
-0.166026 0.668422 0.025543
0.068664 0.668422 -0.013474
-0.523326 0.678141 0.141811
-0.052218 0.668422 0.041483
-0.236119 0.736451 0.024826
0.483817 0.668422 0.177709
0.066005 0.668422 -0.091231
-0.210307 0.736451 -0.128201
0.421084 0.697578 -0.128036
0.258115 0.678141 -0.09149
0.031566 0.610111 -0.085679
0.023654 0.678141 0.118421
0.010234 0.734922 0.187555
-0.214408 0.610111 -0.029498
-0.467262 0.678141 -0.012901
-0.392623 0.610111 -0.144448
-0.14295 0.610111 0.073082
0.166866 0.736451 -0.028609
-0.371976 0.736451 0.014443
-0.136002 0.668422 -0.088833
-0.351172 0.736451 -0.109934
-0.497984 0.736451 0.021347
-0.09293 0.697578 0.162113
-0.249686 0.668422 -0.06022
-0.223354 0.678141 0.068238
-0.330817 0.668422 0.149256
0.244404 0.610111 0.12118
0.543225 0.695894 0.075074
-0.500441 0.736451 -0.111789
-0.0242 0.610111 0.015826
0.300858 0.668422 0.170256
-0.293005 0.610111 0.093628
0.389045 0.697578 0.151363
0.003687 0.736451 0.040177
0.048708 0.685741 0.175339
-0.342237 0.610111 -0.021408
0.428682 0.610111 0.100691
0.170147 0.678141 -0.179886
-0.553957 0.736451 0.109462
0.179928 0.678141 -0.051144
-0.037576 0.668422 -0.015912
0.238573 0.678141 -0.171579
0.336161 0.736451 -0.154775
0.135394 0.736451 0.181064
-0.526108 0.697578 -0.009403
0.20501 0.610111 -0.111882
0.344119 0.668422 0.132482
-0.376901 0.721441 0.187555
-0.548705 0.668422 -0.109792
0.446685 0.697578 0.073962
-0.209981 0.686629 0.175339
-0.141844 0.610111 0.012137
0.489086 0.697578 -0.145061
-0.07249 0.610111 -0.07641
-0.277859 0.736451 -0.145611
0.312887 0.610111 -0.117733
0.266492 0.736451 -0.13002
0.284261 0.668422 0.015936
-0.100201 0.697578 -0.135435
-0.408571 0.610111 0.076422
0.542308 0.696574 0.187555
0.311073 0.678141 -0.105321
0.175432 0.736451 -0.137672
0.543225 0.703399 -0.025339
-0.05203 0.708764 -0.181746
-0.425372 0.736451 -0.070591
-0.029965 0.697578 -0.084773
-0.207564 0.736451 0.14309
0.216361 0.736451 -0.000818
0.051831 0.610111 0.145642
-0.364627 0.668422 -0.013793
-0.155981 0.697578 0.122873
-0.437446 0.668422 -0.055675
-0.30741 0.697578 -0.166086
-0.395912 0.678141 0.134675
0.289214 0.697578 0.067222
0.182637 0.736451 0.085552
0.46113 0.736451 0.029771
0.059366 0.736451 -0.050992
0.351092 0.697578 -0.077332
-0.440916 0.697578 0.152919
-0.39746 0.610111 0.175757
-0.282561 0.668422 0.032678
-0.00096 0.736451 -0.133008
-0.079028 0.697578 0.079139
-0.510331 0.698148 0.187555
-0.015727 0.697578 0.067931
-0.174048 0.736451 -0.091635
0.429735 0.617422 0.184567
0.140213 0.668422 0.1242
-0.016093 0.736451 0.124466
-0.052467 0.679436 0.187555
0.196687 0.697578 0.045843
0.085589 0.610111 0.055314
0.362717 0.610111 0.057375
-0.402345 0.668422 -0.13187
0.297608 0.736451 0.022484
0.444925 0.697578 -0.083421
0.447767 0.610111 -0.008174
0.055033 0.668422 0.080351
0.135799 0.610111 0.169977
0.231283 0.610111 -0.05435
-0.434863 0.697578 -0.166265
0.277245 0.678141 -0.045527
0.117057 0.668422 0.026199
-0.547216 0.697578 -0.065573
-0.287062 0.697578 0.141586
-0.34058 0.610111 0.039238
-0.102272 0.697578 -0.053115
-0.072634 0.736451 -0.082247
0.296088 0.610111 -0.030569
0.471302 0.610111 -0.069113
0.432529 0.668422 -0.001433
0.497516 0.678141 0.075302
-0.273929 0.736451 0.05941
0.218274 0.736451 0.142084
0.248199 0.697578 0.142732
-0.429304 0.736451 0.007518
-0.444574 0.736451 0.110491
0.028577 0.697578 -0.152462
0.496037 0.736451 -0.006731
-0.508665 0.668424 0.096717
0.185018 0.668422 0.144881
-0.393827 0.736451 0.057333
-0.163487 0.736451 -0.007479
0.421313 0.610111 -0.057869
-0.254678 0.736451 -0.034585
-0.045453 0.668422 -0.1206
-0.023279 0.697578 0.150907
-0.564678 0.686205 0.170101
-0.455404 0.610111 0.168309
-0.248039 0.610111 0.037061
0.103473 0.736451 0.067872
0.386838 0.610111 0.163466
0.53419 0.678141 -0.15642
-0.28402 0.736451 0.182399
0.327286 0.668422 0.072161
-0.103514 0.702567 -0.181746
-0.306609 0.736451 0.119485
0.359557 0.736451 -0.101711
-0.068271 0.736451 0.109318
0.469691 0.736451 0.170952
-0.289111 0.610111 -0.123995
-0.329427 0.668422 0.096008
-0.087742 0.668422 0.126471
0.250729 0.709011 0.187555
-0.010059 0.610111 -0.160533
0.519366 0.668422 -0.006711
-0.241433 0.668422 0.146727
-0.467883 0.697578 0.051552
0.187054 0.610111 0.009258
0.162921 0.678141 -0.093795
0.225605 0.697578 -0.056277
-0.178645 0.619742 -0.165297
-0.564678 0.717661 0.010794
0.326938 0.610111 0.125015
0.367668 0.668422 -0.01905
0.387449 0.610111 -0.109483
-0.352568 0.697578 -0.139114
-0.036936 0.736451 0.01181
-0.379729 0.697578 0.036781
-0.269625 0.668422 -0.161826
-0.387778 0.668422 -0.052908
0.108472 0.610111 -0.009483
0.252922 0.736451 -0.18032
-0.09269 0.736451 0.185547
0.254851 0.610111 0.043157
-0.513989 0.736451 0.066656
0.126007 0.659753 -0.165297
-0.437788 0.610111 -0.143471
-0.541162 0.683257 -0.174525
0.059645 0.736455 -0.169213
-0.113013 0.668422 0.040794
0.081649 0.697578 -0.140754
-0.17242 0.678141 0.080585
-0.02377 0.697578 -0.148683
-0.256684 0.610111 -0.014651
0.400128 0.736451 -0.120366
-0.315498 0.678141 -0.07968
-0.057884 0.610111 -0.142927
-0.210973 0.697578 0.030045
-0.300583 0.610111 -0.036975
0.543225 0.726656 0.107181
0.471082 0.736451 -0.044293
-0.217086 0.736451 -0.081154
0.250227 0.736451 -0.085828
-0.231546 0.697578 0.111188
0.0633 0.63392 -0.165297
-0.520114 0.736451 -0.179408
0.484974 0.640869 0.126699
-0.104389 0.736451 0.143021
-0.478438 0.697578 0.126901
0.349866 0.697578 0.171509
-0.115363 0.610111 0.10736
0.112483 0.697578 -0.085566
-0.468348 0.697578 -0.069931
-0.404432 0.668422 0.080606
0.404788 0.697578 0.104045
0.430789 0.678141 0.170544
0.428631 0.668422 0.042203
0.311494 0.697578 0.132444
0.057876 0.610111 -0.123511
0.406872 0.668422 -0.098941
0.248026 0.610111 -0.118324
-0.318684 0.687305 0.187555
0.251658 0.736451 0.108584
0.020333 0.697578 -0.08001
0.034395 0.618153 0.184567
0.104618 0.736451 0.144443
-0.19324 0.610111 -0.07171
0.030034 0.610111 -0.025927
0.076822 0.697578 -0.058061
0.484974 0.631136 -0.138182
0.146508 0.697578 0.038076
-0.394766 0.736451 -0.100884
0.11499 0.697578 0.092099
-0.506308 0.622108 -0.07483
0.482411 0.736451 0.12996
0.53575 0.736451 0.063456
-0.129969 0.668422 0.14034
-0.526718 0.736451 -0.078207
-0.16471 0.697578 -0.076812
0.363392 0.736451 0.064775
-0.475172 0.668422 -0.114646
0.528329 0.680361 -0.088339
-0.542422 0.697578 0.078176
-0.251392 0.610111 0.108376
-0.50489 0.736451 0.15544
0.309613 0.736451 -0.018173
-0.461937 0.736451 -0.091896
-0.132048 0.668422 -0.045832
0.108484 0.697578 0.160588
-0.247706 0.678141 -0.122087
-0.167485 0.697578 -0.140878
0.060012 0.668422 0.02785
-0.279918 0.697578 -0.05682
-0.399813 0.697578 -0.080807
-0.197324 0.668422 -0.002545
0.344025 0.610111 -0.023177
-0.076015 0.668422 -0.032696
-0.107129 0.736451 -0.15697
-0.478966 0.697969 -0.181746
-0.322361 0.645833 0.184567
-0.296031 0.697578 -0.009064
0.149867 0.697578 -0.021122
0.211209 0.668422 0.083595
0.465737 0.697578 -0.009419
-0.506308 0.634908 0.070528
0.484974 0.6385 0.02728
0.380615 0.638995 -0.165297
0.303142 0.736451 -0.179473
0.185647 0.697578 -0.146848
0.158834 0.697578 0.09937
0.251489 0.697578 0.024694
-0.438847 0.610111 0.030451
-0.358388 0.736451 0.090166
0.111459 0.736451 -0.055388
0.320817 0.697578 -0.011797
-0.432097 0.668422 0.180211
-0.327416 0.697578 0.059948
-0.259033 0.697578 0.07939
0.280647 0.650541 -0.165297
-0.218412 0.697578 -0.034553
-0.252259 0.736451 -0.103361
0.448567 0.668422 -0.122035
-0.061026 0.697578 -0.058698
-0.466055 0.610111 0.113562
-0.159451 0.736451 0.113139
0.439973 0.736451 -0.10255
-0.001141 0.697578 -0.024257
0.252349 0.697578 0.098679
-0.079786 0.697578 0.014727
0.229988 0.697578 -0.123099
0.385029 0.697578 0.048782
0.506223 0.697578 0.024983
0.035592 0.736451 0.156899
-0.175137 0.736451 -0.146577
-0.121261 0.708598 0.187555
0.33213 0.736451 0.153138
-0.039588 0.736451 -0.060479
-0.399094 0.610111 -0.019527
-0.197354 0.736451 0.012868
0.418606 0.697578 -0.024116
0.261659 0.678141 -0.139616
0.041853 0.697578 0.004181
0.196474 0.697578 -0.000555
0.448231 0.678141 -0.049343
0.442246 0.736451 0.069631
-0.36299 0.697578 -0.062006
0.509543 0.697578 0.160576
0.347746 0.697578 -0.14716
0.333833 0.736451 0.038972
0.080927 0.668422 0.161403
-0.172391 0.697578 0.158408
-0.461292 0.736451 0.145851
-0.227606 0.697578 -0.07406
-0.329648 0.668422 -0.126746
0.01144 0.610111 -0.125214
0.007349 0.69599 0.187555
-0.23767 0.736451 0.083892
-0.161237 0.697578 -0.00555
0.415431 0.668422 0.078815
0.216039 0.624023 0.184567
0.087864 0.697578 0.010998
-0.314839 0.736451 -0.054478
0.202793 0.736451 0.046251
-0.339071 0.610111 -0.061718
-0.113616 0.668422 -0.160971
0.387798 0.736451 0.165921
0.226442 0.668422 0.129394
-0.138468 0.697578 0.041104
-0.246831 0.648977 0.184567
0.468303 0.668422 0.098639
0.38501 0.678141 0.184422
0.463352 0.697578 0.131869
0.123869 0.610111 -0.074265
-0.397392 0.610111 -0.094718
0.364737 0.697578 0.012983
0.070677 0.736451 0.108122
-0.472686 0.695931 0.175339
-0.008179 0.697578 0.105477
0.193914 0.610111 0.104002
-0.256406 0.697578 0.041194
-0.46674 0.736451 -0.000674
-0.55042 0.693899 -0.138216
-0.500492 0.668422 0.003259
-0.407039 0.736451 0.103418
-0.343335 0.697578 -0.001475
-0.034784 0.736451 0.091214
-0.257526 0.697578 -0.012295
0.497768 0.697578 0.108025
0.4056 0.697578 -0.073214
-0.107301 0.697578 -0.098111
-0.032628 0.697578 0.007917
0.49826 0.694135 -0.181746
0.110463 0.668422 0.063573
0.399081 0.736451 0.015928
0.543225 0.682088 0.026516
0.05444 0.697578 -0.112191
0.543225 0.727729 -0.086402
-0.353825 0.668422 0.064627
0.074775 0.610111 0.007302
0.209338 0.668422 0.025671
0.021988 0.668422 -0.008914
0.155002 0.697578 0.142794
-0.209415 0.668422 -0.143918
0.437809 0.610111 0.140951
-0.564678 0.709484 0.133146
0.144896 0.610111 0.083614
0.35112 0.610111 -0.11856
0.321324 0.640529 0.184567
0.042402 0.697578 -0.04352
-0.427413 0.697578 0.084813
-0.306113 0.697578 0.097855
0.074983 0.736451 0.04381
0.474642 0.697578 -0.105941
-0.02792 0.736451 -0.025135
-0.315199 0.736451 -0.119286
0.151029 0.697578 -0.063979
-0.514903 0.697578 -0.047313
-0.214338 0.610111 -0.152711
-0.353662 0.688911 0.175339
-0.446729 0.678141 -0.136347
0.526698 0.736451 -0.027459
0.182638 0.668422 0.107034
0.357474 0.697578 -0.04094
0.096049 0.736451 -0.137774
-0.470378 0.736451 0.083189
-0.440487 0.697578 0.005405
0.418367 0.640641 -0.165297
-0.32684 0.697578 -0.043692
-0.506308 0.642882 0.135314
-0.106148 0.610111 0.146075
-0.306135 0.610111 0.18423
-0.207435 0.736451 0.104452
-0.327811 0.736451 -0.011314
0.275213 0.73611 0.187555
-0.445252 0.697578 -0.035121
0.12746 0.645227 0.184567
-0.058843 0.697578 0.110036
-0.254595 0.610111 -0.135756
-0.178277 0.697578 0.046166
-0.212237 0.668422 -0.058622
-0.02932 0.668422 -0.051328
0.060982 0.697578 0.110443
0.352277 0.610111 0.022597
-0.30586 0.668422 0.060517
0.218334 0.736451 0.09431
-0.301011 0.610111 -0.07494
-0.479582 0.610111 -0.045848
-0.044638 0.668422 0.151699
0.162468 0.668422 -0.146029
-0.506308 0.634252 -0.151857
0.353989 0.668422 0.047993
0.39293 0.668422 0.121498
0.181125 0.736451 0.157875
0.088178 0.610111 -0.078251
-0.134263 0.610111 -0.105167
0.498171 0.736451 -0.136931
-0.143701 0.736451 -0.11495
-0.52951 0.668422 -0.029856
-0.080646 0.668422 -0.128601
0.138927 0.736451 0.056759
0.14731 0.610111 -0.00791
-0.305324 0.736455 -0.168442
-0.342137 0.736451 0.123002
0.308296 0.668422 -0.143444
0.092696 0.731595 -0.181746
-0.529916 0.697578 -0.101444
-0.350412 0.610111 -0.138529
-0.534382 0.668422 0.01652
-0.4926 0.697578 -0.125328
-0.403566 0.69792 0.187555
-0.313602 0.668422 0.001145
0.035118 0.668422 -0.131281
-0.390979 0.668422 0.009908
0.534129 0.668424 -0.121649
-0.174128 0.610111 -0.002333
-0.173377 0.668422 -0.099128
0.130582 0.668422 -0.009471
0.08232 0.610111 0.115796
-0.459827 0.668422 0.070488
0.148323 0.697578 -0.125905
0.484974 0.622636 -0.104107
0.003517 0.668422 0.145482
-0.388308 0.697578 -0.118341
0.188566 0.697578 -0.079015
0.437472 0.736451 -0.144474
-0.248222 0.668422 0.101214
0.189495 0.736451 0.122195
-0.468105 0.736451 -0.126302
0.452726 0.610111 0.051462
0.363669 0.712292 -0.181746
0.205462 0.697578 0.171569
0.442604 0.736451 0.148924
0.121302 0.697578 0.12747
0.328701 0.668422 0.005609
-0.353776 0.703891 -0.181746
-0.017974 0.736451 -0.08779
-0.035428 0.610111 -0.078945
-0.251013 0.697578 -0.150791
0.3059 0.697578 0.098079
-0.489623 0.697578 0.024368
-0.002245 0.688642 -0.174525
-0.506308 0.639993 -0.117249
0.131296 0.610111 -0.133904
0.501092 0.697578 -0.011194
0.033327 0.736451 -0.138159
0.192603 0.663121 0.184567
0.105002 0.697578 -0.169133
0.457035 0.647611 0.184567
0.26516 0.668422 0.079877
0.328934 0.610111 0.064821
0.217569 0.668422 -0.072958
0.116948 0.736451 0.102056
-0.454388 0.668422 0.023322
0.189752 0.610111 0.044622
-0.363045 0.641481 0.184567
-0.167833 0.668422 0.136742
-0.269578 0.700466 0.187555
0.35778 0.736451 -0.067447
0.283668 0.697578 -0.112147
0.12618 0.736451 0.024953
-0.485309 0.668422 0.144246
0.543225 0.680748 0.143432
0.268357 0.668422 0.180541
0.434916 0.610111 -0.13785
-0.198993 0.668422 0.046493
-0.542016 0.736451 0.141351
0.482078 0.700944 0.187555
-0.375051 0.610111 0.047038
0.17929 0.668422 0.046616
-0.402874 0.668422 -0.097951
0.00566 0.610111 0.033038
-0.328667 0.653837 -0.165297
-0.341674 0.720645 0.187555
-0.062573 0.697578 -0.120302
-0.058859 0.697578 -0.01339
0.374162 0.668422 -0.057241
-0.418892 0.697578 0.117483
-0.427749 0.668422 0.142255
0.543225 0.703971 -0.062493
0.262746 0.610111 -0.025636
-0.151929 0.690963 -0.181746
-0.041026 0.668422 -0.159555
0.086513 0.736451 -0.094582
-0.057302 0.610111 -0.017343
0.095476 0.668422 -0.065861
-0.525222 0.736451 -0.134452
0.278836 0.610111 -0.131644
0.298164 0.668422 -0.075944
-0.144138 0.697578 -0.116826
-0.204188 0.736451 -0.16327
-0.048191 0.610111 0.041097
0.471064 0.678141 -0.073781
0.184349 0.610111 -0.085596
-0.060358 0.697578 0.147309
0.264497 0.668422 0.14255
-0.08394 0.610111 -0.045049
-0.259639 0.736451 -0.001587
-0.176104 0.734994 0.187555
0.319934 0.610111 -0.085151
-0.130894 0.697578 0.100956
0.335569 0.736451 0.005761
0.035923 0.610111 0.050176
-0.121243 0.610111 -0.049213
-0.533875 0.736451 0.184972
-0.371351 0.668422 0.156157
0.03416 0.673442 -0.174525
-0.361533 0.610111 -0.107282
-0.236479 0.682685 -0.181746
0.309197 0.736451 -0.135526
0.39156 0.678141 -0.138296
0.209571 0.610111 -0.015017
-0.27439 0.668422 0.132444
-0.562537 0.668424 -0.062493
-0.040865 0.642642 0.184567
-0.41086 0.697578 0.025752
-0.519983 0.697578 -0.153662
-0.120674 0.668422 -0.117977
0.235676 0.736451 0.170014
-0.482375 0.668422 -0.042749
-0.401928 0.697578 -0.047228
-0.088258 0.736451 0.067159
0.174434 0.736451 -0.071742
-0.500531 0.697578 -0.086793
-0.372214 0.736451 -0.135126
-0.120955 0.610111 0.037455
-0.116891 0.678141 0.17299
-0.352654 0.668422 -0.051382
0.146754 0.610111 -0.045615
0.231917 0.697578 0.062348
0.507783 0.668424 -0.051999
-0.075593 0.668422 0.093412
0.033938 0.668422 -0.097299
-0.141349 0.736451 0.078662
-0.340301 0.736451 0.047881
0.246919 0.668422 -0.051928
0.378184 0.709729 0.187555
0.189109 0.668422 -0.012798
0.126557 0.668422 -0.083222
-0.079391 0.668422 0.166499
0.290753 0.697578 0.000345
-0.066632 0.697578 0.049208
-0.533017 0.668422 -0.081461
0.247633 0.736451 0.007507
-0.157097 0.668422 -0.131481
0.220224 0.736451 -0.152982
0.256649 0.697578 -0.03001
0.281183 0.698287 0.187555
0.039427 0.668422 0.149754
0.420897 0.668422 -0.14754
-0.023209 0.668422 0.056345
-0.079103 0.668422 -0.000605
-0.192626 0.697578 0.096456
0.439467 0.736451 -0.050466
0.387441 0.697578 -0.009825
-0.164405 0.736451 0.050499
0.458512 0.610111 -0.038459
0.040189 0.736451 -0.076649
-0.367678 0.736451 0.160845
-0.283564 0.668422 -0.069433
0.50092 0.668424 0.036981
0.154452 0.668422 -0.034471
-0.376348 0.668422 0.101101
-0.149137 0.668422 -0.018881
0.486769 0.697578 0.050269
-0.136792 0.697578 -0.061426
0.210636 0.668422 -0.041897
0.207229 0.697578 -0.170225
-0.031276 0.72048 0.187555
-0.292304 0.736451 0.091098
0.243815 0.668422 0.01463
0.310243 0.678141 0.044652
-0.468971 0.697578 -0.151596
-0.55042 0.68831 0.114277
-0.126076 0.697578 -0.159863
-0.00501 0.678141 -0.082982
-0.275877 0.668422 -0.025564
0.47304 0.668422 0.147937
0.240485 0.736451 -0.049729
0.363324 0.6117 0.184567
0.092213 0.697578 -0.110939
0.271687 0.736451 0.081056
-0.15406 0.668422 0.104391
0.397207 0.610111 0.133682
-0.005064 0.610111 -0.087399
-0.372449 0.697578 -0.031944
-0.320021 0.610111 -0.157464
-0.340853 0.697578 -0.10621
-0.229621 0.697578 0.146736
-0.22811 0.610111 0.086125
0.335039 0.697578 0.063434
0.117438 0.610111 0.068407
0.41508 0.697578 0.06722
-0.308044 0.668422 0.11896
-0.524344 0.736451 0.00438
0.018574 0.736451 -0.028961
-0.108845 0.736451 0.005529
-0.123644 0.610111 -0.013264
0.062541 0.697578 0.072143
-0.349866 0.668422 0.119571
-0.309135 0.697578 -0.130516
0.058295 0.668422 0.121187
-0.436741 0.697578 0.05125
-0.098368 0.697578 0.124055
-0.338697 0.697578 0.141754
0.366765 0.736451 -0.14935
0.144506 0.736451 -0.134938
0.118079 0.610111 0.144491
-0.383304 0.697578 0.155316
-0.175455 0.610111 -0.097129
0.543225 0.729088 0.150333
-0.365331 0.668422 0.035007
-0.443268 0.717973 0.187555
-0.441374 0.668422 -0.094435
0.282688 0.668422 -0.014959
-0.428293 0.610111 -0.093467
0.354457 0.697578 -0.108071
0.427526 0.697578 0.14673
0.427971 0.736451 0.026867
0.350361 0.610111 0.145116
0.436501 0.668422 -0.07786
-0.388019 0.610111 0.09943
0.004917 0.697578 0.135529
0.508558 0.736451 0.027193
-0.142777 0.697578 0.166882
0.482844 0.736451 0.05669
-0.36277 0.668422 -0.128529
0.341513 0.668422 0.166552
0.119593 0.697578 0.01685
0.52564 0.668422 0.06785
-0.039253 0.668422 -0.082622
0.170581 0.697578 0.071044
-0.40161 0.668422 -0.019587
-0.223187 0.736451 -0.005745
0.454426 0.697578 0.169968
0.459847 0.697578 -0.154092
-0.112499 0.610111 0.07605
-0.277233 0.610111 0.124745
-0.533415 0.678141 0.051321
-0.156953 0.736451 -0.066336
-0.477217 0.668422 0.114252
0.377581 0.678141 -0.092114
-0.16767 0.668422 -0.068528
-0.472806 0.668422 -0.077451
0.406987 0.610111 0.079382
-0.025397 0.668422 0.012559
0.136505 0.736451 -0.029484
0.026214 0.668422 0.049108
0.013862 0.736451 0.135716
0.063866 0.697578 0.151873
-0.540659 0.69851 0.187555
0.389098 0.610111 0.040382
0.399165 0.697578 -0.107102
-0.431283 0.610111 -0.034881
0.086874 0.668422 -0.146774
0.26936 0.610111 0.004468
-0.521556 0.678141 -0.122911
-0.400882 0.736451 -0.002411
-0.081358 0.668422 0.029415
-0.232379 0.736451 -0.148646
0.231438 0.668422 -0.130271
0.188845 0.697578 0.137502
0.192201 0.736451 0.016916
0.193494 0.610111 -0.145568
-0.138477 0.668422 0.013895
-0.039913 0.697578 -0.037517
-0.526055 0.697578 0.0205
0.44004 0.678141 0.098577
-0.488924 0.697578 -0.006133
0.384663 0.668422 0.156161
-0.189314 0.697578 -0.059877
-0.315296 0.734617 0.187555
0.533129 0.736451 -0.159078
-0.004168 0.610111 -0.024995
-0.548693 0.678141 -0.008892
-0.164091 0.699539 0.187555
0.28521 0.668422 -0.117816
0.498537 0.736451 -0.077307
0.23309 0.711189 -0.181746
-0.258264 0.668422 0.049699
0.4616 0.610111 -0.117376
0.294621 0.610111 0.045186
-0.195947 0.668422 0.15211
0.467264 0.668422 -0.028853
0.484974 0.616126 0.142901
0.025054 0.700634 -0.181746
-0.373484 0.736451 -0.076458
0.516261 0.736451 0.131952
0.160206 0.610111 0.044277
0.155251 0.715575 0.187555
-0.456704 0.668422 0.151571
-0.07859 0.697578 -0.08597
0.214468 0.610111 0.028586
-0.098114 0.668422 -0.053304
-0.188562 0.610111 -0.136824
0.206127 0.736451 -0.105856
-0.420419 0.736451 0.039866
0.081014 0.736451 -0.011167
0.094303 0.668422 0.007679
-0.502418 0.697578 0.148568
0.081367 0.668422 0.050924
0.32033 0.736451 -0.045465
0.287275 0.697578 0.038014
-0.558165 0.736451 -0.129491
-0.257016 0.697578 0.136463
0.371038 0.736451 0.007702
-0.341869 0.736451 -0.065542
0.326494 0.697578 -0.043013
0.005852 0.678141 0.0709
-0.127423 0.697578 -0.016202
-0.387385 0.668422 0.056934
0.325146 0.717462 -0.181746
-0.426899 0.610111 0.162402
0.048632 0.736451 0.031444
-0.412123 0.678141 -0.177899
0.067005 0.736451 0.071709
-0.075383 0.736451 0.158511
-0.467596 0.610111 0.027227
-0.294238 0.678141 -0.145894
0.484974 0.612994 0.050986
0.201202 0.697578 -0.120598
-0.564678 0.691933 0.025601
0.086158 0.697578 0.093814
-0.397487 0.697578 -0.147245
-0.114291 0.736451 -0.129007
0.023456 0.610111 -0.057999
0.326733 0.668422 -0.079642
0.277554 0.736451 -0.076724
-0.245473 0.668422 -0.08869
-0.432892 0.697578 -0.061085
0.175708 0.684466 0.175339
0.301129 0.610111 -0.058858
0.313615 0.610111 -0.007834
-0.336304 0.736451 0.01609
-0.021943 0.736451 0.06559
-0.436738 0.721599 -0.181746
0.006553 0.736451 0.088446
-0.232094 0.736451 0.055839
-0.298291 0.697578 -0.091681
-0.302173 0.668422 0.163018
0.103431 0.668422 0.091277
0.063837 0.736451 0.152578
-0.564678 0.707152 -0.043902
-0.395165 0.697578 0.071414
-0.286788 0.736451 -0.116506
-0.095618 0.668422 -0.104299
-0.057754 0.668422 0.07113
0.141925 0.697578 -0.098099
0.266286 0.610111 0.139443
-0.318362 0.610111 -0.129053
-0.233541 0.668422 -0.023998
-0.248022 0.678141 0.172563
-0.308844 0.697578 0.016257
0.543225 0.710396 0.028506
-0.474029 0.697578 -0.097713
-0.240096 0.610111 -0.041504
0.225918 0.678141 -0.1029
-0.044069 0.610111 0.127694
0.144282 0.668422 0.033964
-0.160716 0.668422 0.053332
0.112017 0.697578 -0.057309
0.474588 0.668422 0.053248
0.086959 0.653536 0.184567
0.316404 0.668422 0.127349
-0.370815 0.736451 -0.16902
-0.254677 0.736455 -0.16866
0.123001 0.668422 0.14647
0.300857 0.610111 -0.149101
-0.089681 0.668422 0.069103
0.388243 0.641814 0.184567
-0.242209 0.706706 0.187555
0.045493 0.678141 -0.073651
0.331632 0.736451 -0.099084
0.272167 0.736451 0.03429
0.413558 0.668422 0.141593
-0.193974 0.736451 0.040704
0.007785 0.697578 -0.105082
-0.124978 0.736378 0.187555
-0.012079 0.668422 -0.149665
0.272258 0.610111 -0.104306
0.229587 0.610111 -0.141537
-0.29697 0.697578 0.071428
0.232643 0.668422 0.101547
0.149651 0.668422 -0.062009
0.156786 0.736451 -0.161408
0.073751 0.697578 -0.089983
-0.180535 0.697578 -0.099822
0.541791 0.686983 -0.181746
0.384278 0.697578 -0.048583
-0.045084 0.736451 -0.094257
0.34616 0.678141 0.093363
0.196091 0.697578 -0.028389
-0.254627 0.697578 -0.080722
-0.078893 0.697578 -0.037366
-0.501286 0.736451 -0.156681
-0.160868 0.736451 0.022954
0.021387 0.675381 0.175339
-0.252918 0.736451 0.142944
-0.518803 0.678141 0.170324
0.395367 0.668422 -0.018467
0.384759 0.697578 0.123158
-0.512622 0.678141 0.0711
0.265216 0.678141 0.038792
-0.409869 0.678141 0.160878
0.497205 0.668424 0.101098
0.073507 0.610111 0.083163
0.194569 0.610111 -0.060013
-0.216491 0.66151 0.184567
-0.214995 0.736451 0.169607
0.09265 0.610111 0.028708
-0.448505 0.697578 0.126494
-0.035723 0.697578 0.095167
0.503209 0.678141 -0.077461
-0.361082 0.736451 -0.010757
-0.060872 0.610111 -0.115637
-0.17341 0.610111 0.040413
-0.085806 0.610111 -0.145361
-0.140717 0.736451 0.133155
0.13124 0.668422 0.091312
-0.021818 0.668422 -0.10373
0.1888 0.621736 0.184567
-0.546935 0.668422 -0.147457
0.018728 0.610111 0.120947
-0.221608 0.668422 0.095042
-0.362753 0.610111 -0.039434
-0.056442 0.736451 0.138842
0.181295 0.668422 0.073841
-0.22519 0.697578 -0.110945
0.06151 0.668422 -0.039788
0.344427 0.736451 0.084336
-0.453868 0.678141 -0.164694
0.221874 0.714367 0.187555
-0.486186 0.736451 0.04585
0.314649 0.684214 0.187555
0.170838 0.678141 -0.122067
-0.444176 0.736451 -0.113433
-0.287937 0.736451 -0.050853
0.524725 0.697578 0.104849
-0.564678 0.72159 0.072831
-0.2933 0.610111 -0.152902
0.240313 0.636051 0.184567
0.32159 0.668422 0.099189
-0.075706 0.736451 -0.051753
0.497408 0.678141 0.141405
-0.414088 0.668422 0.117192
-0.483669 0.668422 0.083195
0.353332 0.668422 -0.074406
-0.251363 0.736451 -0.061369
-0.008376 0.736451 0.150909
0.001624 0.668422 0.106422
-0.267834 0.610111 -0.039118
0.369244 0.668422 0.107555
-0.551109 0.736451 0.025323
0.308296 0.652799 -0.165297
0.340779 0.610111 -0.054123
-0.017356 0.610111 0.046825
0.280468 0.697578 0.106604
-0.540945 0.697578 -0.035873
0.412644 0.678141 0.016217
-0.450789 0.610111 -0.120047
0.07438 0.678141 -0.115605
-0.076247 0.610111 0.106144
-0.269394 0.668422 -0.100701
0.289713 0.736451 0.128977
-0.180291 0.678141 0.175
-0.424214 0.610111 0.052789
-0.523651 0.710098 -0.181746
-0.375563 0.610111 0.160497
-0.05242 0.610111 -0.050367
-0.424761 0.668422 -0.147881
0.060928 0.663956 0.184567
0.461691 0.688301 -0.181746
-0.486281 0.668422 0.025739
0.444535 0.668422 0.063518
-0.424945 0.678141 -0.003914
-0.26202 0.736451 0.03053
0.257833 0.697578 0.067953
-0.330693 0.610111 0.090836
0.507434 0.678141 0.1847
-0.181003 0.736451 -0.036703
-0.564678 0.702715 -0.164551
-0.564678 0.705447 -0.012652
0.349292 0.610111 0.081681
0.499791 0.697578 -0.114036
0.528329 0.670473 -0.03553
-0.287357 0.62864 0.184567
0.057053 0.697578 -0.150292
-0.061078 0.736451 0.027177
-0.556749 0.736451 -0.005868
-0.418594 0.62308 0.184567
-0.017175 0.68995 0.175339
0.464443 0.610111 0.013089
0.392296 0.668422 0.066337
-0.423966 0.668422 -0.114122
-0.444505 0.736451 0.02893
0.056218 0.725017 0.187555
-0.045258 0.697578 0.170051
0.2357 0.697578 0.003762
0.002744 0.697578 -0.050185
-0.558808 0.678141 0.071804
-0.192912 0.697578 -0.028509
0.183938 0.678141 0.017201
-0.333415 0.668422 0.177021
0.264645 0.678141 -0.169418
0.185532 0.736451 -0.04806
0.322162 0.678141 0.151892
-0.365731 0.612715 0.184567
-0.561192 0.678141 -0.088999
0.082491 0.610111 -0.103723
0.294646 0.736451 -0.057046
0.031131 0.697578 -0.126532
-0.345177 0.668422 0.008553
0.345971 0.717717 0.187555
-0.264054 0.697578 0.161535
0.524394 0.697578 0.006332
-0.052475 0.610111 0.093202
-0.339086 0.668422 -0.084607
0.367561 0.610111 -0.034144
0.526452 0.697578 0.043619
-0.236478 0.668422 -0.154122
-0.562445 0.668424 -0.175449
-0.130271 0.610111 -0.14526
0.122389 0.697578 -0.008932
-0.185952 0.678141 -0.149084
0.48046 0.697578 0.012378
-0.436132 0.610111 0.108413
0.435812 0.682918 -0.181746
0.398995 0.704238 -0.181746
-0.252239 0.697578 -0.054951
-0.08504 0.736451 -0.1435
-0.044368 0.697578 0.036035
0.098862 0.610111 0.088272
-0.121475 0.736451 -0.060909
-0.483851 0.668422 0.056183
-0.414366 0.678141 -0.072017
-0.308978 0.610111 0.073387
0.263771 0.697578 0.168477
-0.48756 0.610111 0.131816
-0.027312 0.697578 0.122729
0.138295 0.697578 0.081186
-0.423578 0.668422 -0.032954
-0.144249 0.636938 -0.165297
-0.378672 0.691652 0.187555
0.192667 0.668422 -0.14185
-0.196359 0.668422 -0.029479
0.325641 0.610111 -0.142568
-0.373557 0.697578 -0.006354
-0.216163 0.668422 -0.083928
0.484974 0.620104 0.110855
-0.368794 0.697578 0.113951
-0.273335 0.697578 -0.119543
-0.251052 0.697578 0.012393
0.08919 0.668422 -0.028572
0.095854 0.736451 -0.035283
0.029426 0.736451 0.048126
-0.085395 0.697578 -0.010074
-0.307874 0.668422 0.034753
0.320889 0.615163 0.184567
0.101447 0.673052 -0.174525
0.027496 0.668422 0.07985
0.225161 0.697578 0.132159
