-0.366025 -0.68529 0.2095487472173862
-0.383824 -0.464827 0.7218857472173862
-0.383824 -0.640591 0.33121374721738617
-0.366025 -0.619239 0.15422074721738618
-0.383824 -0.413298 0.6777717472173862
-0.383824 -0.378929 0.6475137472173862
-0.366025 -0.688054 0.4935227472173862
-0.383824 -0.573223 0.4098267472173862
-0.366025 -0.551724 0.4778837472173862
-0.366025 -0.416026 0.7203027472173862
-0.383824 -0.641326 0.7092737472173862
-0.383824 -0.592317 0.45241074721738617
-0.366025 -0.701798 0.2544567472173862
-0.383824 -0.428321 0.4591947472173862
-0.383824 -0.439528 0.4973677472173862
-0.366025 -0.52407 0.2889647472173862
-0.383824 -0.45246 0.6014927472173862
-0.383824 -0.532575 0.6756387472173861
-0.369369 -0.753647 0.5625487472173862
-0.383824 -0.694403 0.46617874721738617
-0.366025 -0.677012 0.3639897472173862
-0.383824 -0.373615 0.7500147472173861
-0.366025 -0.702487 0.7553707472173862
-0.366025 -0.626237 0.5385597472173862
-0.383824 -0.621467 0.3999377472173862
-0.366025 -0.570899 0.5626227472173861
-0.366025 -0.704563 0.7092837472173862
-0.366025 -0.579465 0.1716057472173862
-0.366025 -0.490388 0.5612317472173862
-0.366025 -0.66693 0.6017507472173862
-0.377504 -0.362076 0.6708407472173862
-0.383824 -0.729709 0.2643097472173862
-0.366025 -0.679847 0.1566807472173862
-0.383824 -0.512718 0.7660547472173862
-0.366025 -0.658202 0.7496177472173862
-0.366025 -0.575511 0.6810817472173862
-0.366025 -0.689565 0.3956647472173862
-0.383824 -0.500617 0.5014957472173862
-0.366025 -0.430962 0.5588687472173862
-0.366025 -0.681806 0.09732574721738618
-0.37486 -0.753647 0.4803357472173862
-0.366025 -0.53197 0.6059837472173861
-0.366025 -0.654413 0.6614637472173862
-0.383824 -0.683682 0.3166907472173862
-0.366025 -0.509591 0.2242477472173862
-0.374463 -0.362076 0.7204397472173862
-0.366025 -0.451881 0.6508907472173862
-0.366025 -0.598994 0.7383377472173862
-0.366025 -0.649315 0.5746477472173862
-0.366025 -0.66549 0.1310837472173862
-0.366025 -0.561765 0.2389557472173862
-0.366025 -0.636209 0.6814857472173862
-0.366025 -0.738566 0.5008597472173862
-0.366025 -0.625141 0.7204887472173862
-0.383824 -0.579248 0.5333227472173863
-0.366025 -0.704211 0.37143274721738617
-0.366025 -0.589388 0.6505517472173862
-0.383824 -0.535137 0.7069197472173863
-0.366025 -0.577529 0.4733297472173862
-0.366025 -0.72037 0.2905357472173862
-0.366025 -0.578993 0.1994917472173862
-0.383824 -0.41393 0.6087267472173862
0.363721 -0.445875 0.6397047472173862
0.381519 -0.643745 0.3503977472173862
0.363721 -0.511772 0.5352457472173862
0.381519 -0.525122 0.7244087472173861
0.363721 -0.707327 0.4812617472173862
0.363721 -0.718691 0.1814347472173862
0.363721 -0.625779 0.6088577472173862
0.363721 -0.586822 0.5071927472173862
0.381519 -0.613343 0.7522567472173862
0.375266 -0.362076 0.6623307472173863
0.363721 -0.523326 0.4517167472173862
0.363721 -0.460613 0.7646997472173862
0.363721 -0.451706 0.4798177472173862
0.363721 -0.394362 0.5793307472173862
0.363721 -0.675369 0.4109987472173862
0.363721 -0.701676 0.3221577472173862
0.363721 -0.43768 0.7041977472173861
0.363721 -0.599724 0.4377117472173862
0.363721 -0.596302 0.6948767472173862
0.381519 -0.669068 0.5316827472173862
0.381519 -0.439995 0.5418737472173862
0.373872 -0.362076 0.7234487472173862
0.363721 -0.510953 0.6030487472173862
0.363721 -0.695295 0.1269107472173862
0.363721 -0.563571 0.5790047472173863
0.363721 -0.511577 0.6718597472173862
0.363721 -0.502096 0.06724174721738618
0.363721 -0.688784 0.7044147472173862
0.363721 -0.661384 0.7649387472173862
0.363721 -0.664782 0.5804387472173862
0.381519 -0.597489 0.6501227472173863
0.363721 -0.624828 0.5378937472173861
0.363721 -0.464911 0.5892587472173862
0.363721 -0.620115 0.3874477472173862
0.381519 -0.723366 0.2773127472173862
0.381519 -0.690421 0.6479247472173861
0.363721 -0.366496 0.6174697472173862
0.381519 -0.554182 0.4225167472173862
0.363721 -0.726755 0.5638967472173861
0.381519 -0.744712 0.4602627472173862
0.381519 -0.64423 0.4639407472173862
0.363721 -0.682131 0.3658157472173862
0.363721 -0.688823 0.0765237472173862
0.363721 -0.651166 0.7230517472173862
0.363721 -0.397561 0.6923697472173862
0.363721 -0.702721 0.2189157472173862
0.363721 -0.407346 0.6268317472173862
0.363721 -0.414441 0.5164327472173862
0.381519 -0.68948 0.4455897472173862
0.363721 -0.49809 0.4206207472173862
0.363721 -0.729055 0.5229707472173862
0.364382 -0.753647 0.33052274721738617
0.363721 -0.484877 0.6347677472173862
0.363721 -0.648419 0.06741474721738622
0.363721 -0.488836 0.4898887472173862
0.381519 -0.642158 0.4177947472173862
0.363721 -0.557808 0.7321847472173861
0.363721 -0.583688 0.5474297472173861
0.363721 -0.473671 0.6941087472173861
0.363721 -0.557942 0.6348257472173862
0.381519 -0.571813 0.4551217472173862
0.363721 -0.658798 0.3113867472173862
0.381519 -0.488752 0.7285017472173863
0.363721 -0.545966 0.47977674721738617
0.363721 -0.611016 0.4718467472173862
0.381519 -0.530161 0.5791567472173862
0.363721 -0.561878 0.6874537472173862
0.381519 -0.630353 0.6626257472173862
0.363721 -0.412718 0.7620967472173862
0.381519 -0.53839 0.7580257472173861
0.363721 -0.664053 0.6349897472173862
0.381519 -0.629636 0.7023207472173862
0.381519 -0.62691 0.5655017472173862
0.363721 -0.535079 0.0456657472173862
0.367812 -0.753647 0.5818397472173862
0.381519 -0.408044 0.5468657472173862
0.381519 -0.710998 0.7276817472173862
0.363721 -0.572635 0.4032967472173862
0.381519 -0.694358 0.7608437472173861
0.363721 -0.597963 0.6236897472173861
0.381519 -0.434629 0.4417147472173862
0.363721 -0.69887 0.5141727472173862
0.363721 -0.684428 0.29152774721738617
0.363721 -0.491462 0.5589167472173862
0.363721 -0.70181 0.6249917472173863
0.363721 -0.715311 0.3989827472173862
0.372393 -0.362076 0.5878897472173862
0.363721 -0.738505 0.7055287472173861
0.381519 -0.462299 0.5640937472173861
0.363721 -0.740924 0.6622047472173862
0.368176 -0.753647 0.5051097472173862
0.363721 -0.72677 0.44300574721738617
0.381519 -0.406859 0.7189107472173861
0.363721 -0.482997 0.5272727472173862
0.363721 -0.528599 0.6312407472173862
0.363721 -0.734127 0.30870074721738616
0.381519 -0.678555 0.5988247472173862
0.363721 -0.670023 0.5087397472173862
0.381519 -0.504964 0.7038707472173862
0.381519 -0.389814 0.6008767472173862
0.381519 -0.684573 0.3911897472173862
0.381519 -0.389434 0.6608107472173862
0.381519 -0.640052 0.3777357472173862
0.366089 -0.362076 0.6970647472173862
0.381519 -0.58261 0.6791827472173861
0.381519 -0.48047 0.4399807472173862
0.363721 -0.490524 0.4627807472173862
0.363721 -0.603727 0.5930507472173862
0.363721 -0.401118 0.4785997472173862
0.381519 -0.645957 0.6107037472173862
0.363721 -0.534192 0.4206437472173862
0.381519 -0.568812 0.5237557472173862
0.381519 -0.430409 0.7447487472173862
0.381519 -0.602626 0.5221247472173862
0.381519 -0.457157 0.0373417472173862
0.381519 -0.739942 0.5396707472173862
0.381519 -0.549835 0.7018297472173862
0.363721 -0.618763 0.6773567472173863
0.363721 -0.453881 0.6642217472173861
0.363721 -0.712965 0.06266774721738622
-0.071258 -0.609402 0.03706274721738617
0.155333 -0.591439 0.03706274721738617
0.305119 -0.712502 0.03706274721738617
0.194997 -0.466682 0.03706274721738617
-0.18159 -0.61944 0.03706274721738617
-0.016179 -0.708924 0.03706274721738617
-0.047279 -0.46886 0.03706274721738617
-0.244086 -0.696091 0.03706274721738617
0.123511 -0.680238 0.03706274721738617
0.211357 -0.71288 0.03706274721738617
-0.127097 -0.409956 0.019263747217386218
0.268068 -0.616131 0.03706274721738617
-0.215076 -0.466746 0.019263747217386218
0.229451 -0.539542 0.019263747217386218
-0.10153 -0.684381 0.03706274721738617
0.017336 -0.639297 0.03706274721738617
0.373256 -0.649665 0.019263747217386218
0.086449 -0.386981 0.03706274721738617
-0.285451 -0.612097 0.03706274721738617
0.189215 -0.647774 0.03706274721738617
0.150749 -0.524249 0.03706274721738617
0.055061 -0.51717 0.03706274721738617
0.015065 -0.400808 0.03706274721738617
0.324861 -0.483497 0.03706274721738617
0.339262 -0.588118 0.03706274721738617
0.107341 -0.458596 0.03706274721738617
-0.04266 -0.373485 0.03706274721738617
-0.235138 -0.637804 0.019263747217386218
-0.333512 -0.689716 0.019263747217386218
-0.085064 -0.514626 0.03706274721738617
0.013037 -0.458371 0.03706274721738617
-0.127345 -0.633549 0.03706274721738617
0.244782 -0.668334 0.03706274721738617
-0.180593 -0.369233 0.03706274721738617
-0.156629 -0.682156 0.03706274721738617
-0.040079 -0.549653 0.03706274721738617
0.102775 -0.548719 0.03706274721738617
0.04093 -0.686868 0.03706274721738617
-0.123519 -0.474573 0.03706274721738617
-0.196267 -0.515303 0.03706274721738617
-0.008188 -0.597973 0.019263747217386218
-0.195075 -0.710643 0.019263747217386218
0.118472 -0.626744 0.03706274721738617
-0.091189 -0.738065 0.019263747217386218
0.052368 -0.575134 0.03706274721738617
-0.170901 -0.455556 0.03706274721738617
0.2027 -0.584639 0.03706274721738617
-0.143221 -0.546966 0.03706274721738617
-0.058874 -0.664275 0.03706274721738617
-0.225446 -0.424363 0.03706274721738617
0.255683 -0.493644 0.03706274721738617
-0.086592 -0.440134 0.03706274721738617
0.294449 -0.559099 0.03706274721738617
-0.294862 -0.656726 0.03706274721738617
0.076989 -0.713803 0.03706274721738617
0.08095 -0.428075 0.019263747217386218
-0.201778 -0.580238 0.03706274721738617
0.253962 -0.575573 0.019263747217386218
-0.082963 -0.389256 0.03706274721738617
-0.255561 -0.454663 0.03706274721738617
0.157284 -0.447466 0.03706274721738617
0.042814 -0.367534 0.019263747217386218
-0.047328 -0.414551 0.03706274721738617
-0.036841 -0.63435 0.019263747217386218
0.344386 -0.700896 0.03706274721738617
-0.254917 -0.748181 0.03706274721738617
-0.124522 -0.720841 0.03706274721738617
-0.165339 -0.415884 0.03706274721738617
-0.049348 -0.504225 0.019263747217386218
-0.141562 -0.590338 0.03706274721738617
0.28923 -0.677132 0.03706274721738617
0.181613 -0.688195 0.03706274721738617
0.335906 -0.549679 0.03706274721738617
0.000854 -0.545285 0.03706274721738617
0.293859 -0.640293 0.019263747217386218
0.301188 -0.513508 0.019263747217386218
0.111619 -0.729298 0.03706274721738617
0.066943 -0.458343 0.03706274721738617
0.371336 -0.608361 0.019263747217386218
0.143995 -0.410285 0.03706274721738617
0.18359 -0.548952 0.03706274721738617
0.014461 -0.506242 0.019263747217386218
0.336902 -0.643285 0.019263747217386218
0.113797 -0.586391 0.019263747217386218
0.005438 -0.67401 0.03706274721738617
0.051986 -0.650774 0.03706274721738617
0.209576 -0.673068 0.019263747217386218
0.038429 -0.428682 0.03706274721738617
-0.072859 -0.712336 0.03706274721738617
-0.100644 -0.570231 0.019263747217386218
-0.098434 -0.362076 0.01963074721738617
-0.114023 -0.525255 0.019263747217386218
0.100376 -0.491116 0.019263747217386218
0.270158 -0.719123 0.03706274721738617
0.185547 -0.42086 0.019263747217386218
0.232371 -0.741327 0.03706274721738617
-0.141109 -0.365792 0.019263747217386218
-0.017205 -0.430444 0.03706274721738617
0.024502 -0.606061 0.03706274721738617
-0.050541 -0.581057 0.019263747217386218
-0.001991 -0.377675 0.019263747217386218
0.00352 -0.753647 0.020704747217386188
-0.211054 -0.734039 0.03706274721738617
0.234851 -0.613754 0.03706274721738617
0.142433 -0.492188 0.03706274721738617
-0.203633 -0.40761 0.019263747217386218
0.175991 -0.616704 0.03706274721738617
-0.233403 -0.486857 0.03706274721738617
0.36287 -0.485808 0.019263747217386218
-0.218161 -0.539907 0.03706274721738617
-0.171593 -0.562126 0.03706274721738617
-0.051882 -0.440733 0.019263747217386218
-0.102788 -0.596594 0.03706274721738617
-0.223228 -0.603623 0.03706274721738617
-0.140748 -0.435196 0.03706274721738617
0.119697 -0.522079 0.03706274721738617
-0.35884 -0.574282 0.03706274721738617
-0.157234 -0.625285 0.019263747217386218
-0.032972 -0.729107 0.019263747217386218
0.043067 -0.465168 0.019263747217386218
-0.015125 -0.520334 0.019263747217386218
0.070708 -0.553585 0.019263747217386218
0.089269 -0.528108 0.019263747217386218
-0.276044 -0.71119 0.03706274721738617
-0.097802 -0.417123 0.019263747217386218
0.143697 -0.559484 0.019263747217386218
-0.172779 -0.509842 0.019263747217386218
-0.238826 -0.667478 0.019263747217386218
0.092811 -0.680214 0.019263747217386218
-0.121945 -0.449816 0.019263747217386218
0.053871 -0.601669 0.019263747217386218
-0.256592 -0.478216 0.019263747217386218
0.186062 -0.720322 0.019263747217386218
-0.068024 -0.565484 0.03706274721738617
0.047329 -0.390459 0.03706274721738617
-0.324295 -0.613334 0.019263747217386218
0.205918 -0.493528 0.03706274721738617
-0.147544 -0.491608 0.019263747217386218
-0.058637 -0.53164 0.019263747217386218
0.308475 -0.665215 0.019263747217386218
0.351569 -0.736909 0.019263747217386218
0.103266 -0.43013 0.03706274721738617
0.13783 -0.466337 0.019263747217386218
0.343233 -0.672369 0.03706274721738617
-0.33994 -0.717506 0.019263747217386218
0.353688 -0.531257 0.019263747217386218
0.277812 -0.492069 0.019263747217386218
0.254772 -0.641909 0.019263747217386218
-0.165629 -0.6549 0.019263747217386218
0.04357 -0.721859 0.019263747217386218
-0.359056 -0.694081 0.03706274721738617
0.260809 -0.541711 0.019263747217386218
0.23966 -0.559354 0.03706274721738617
-0.068384 -0.463334 0.019263747217386218
-0.072121 -0.690764 0.019263747217386218
0.011906 -0.578636 0.019263747217386218
-0.085702 -0.493412 0.019263747217386218
-0.012266 -0.469606 0.03706274721738617
-0.20326 -0.55942 0.019263747217386218
0.050582 -0.495006 0.019263747217386218
-0.083228 -0.549344 0.019263747217386218
0.086387 -0.570376 0.03706274721738617
0.036898 -0.408466 0.019263747217386218
-0.116238 -0.493412 0.019263747217386218
-0.124678 -0.70079 0.019263747217386218
-0.105441 -0.657892 0.03706274721738617
-0.140412 -0.395134 0.03706274721738617
-0.196403 -0.60324 0.019263747217386218
-0.023366 -0.391952 0.03706274721738617
0.093831 -0.362076 0.03225574721738622
-0.136523 -0.736152 0.019263747217386218
0.121118 -0.444884 0.019263747217386218
-0.16214 -0.700529 0.019263747217386218
0.163157 -0.646936 0.03706274721738617
0.015896 -0.43691 0.019263747217386218
0.182852 -0.577536 0.019263747217386218
-0.159578 -0.437114 0.019263747217386218
0.287824 -0.599558 0.03706274721738617
-0.031535 -0.608678 0.019263747217386218
0.24653 -0.46966 0.03706274721738617
-0.011834 -0.628589 0.019263747217386218
-0.111011 -0.735848 0.4586457472173862
0.157937 -0.744747 0.4280577472173862
-0.183922 -0.735848 0.2492707472173862
-0.108973 -0.735848 0.6376277472173861
0.206601 -0.735848 0.5906807472173862
0.135798 -0.735848 0.13291674721738622
0.042133 -0.735848 0.5285797472173862
0.155083 -0.735848 0.2768617472173862
-0.304582 -0.735848 0.1672967472173862
-0.28223 -0.735848 0.7273187472173862
-0.302994 -0.735848 0.3004107472173862
-0.192581 -0.735848 0.12953874721738617
0.013961 -0.735848 0.3070587472173862
-0.300451 -0.735848 0.4959467472173862
0.273885 -0.735848 0.4133507472173862
-0.06538 -0.735848 0.2352477472173862
0.327732 -0.735848 0.2732667472173862
-0.205935 -0.735848 0.43989774721738617
0.138924 -0.735848 0.6666137472173862
0.298953 -0.735848 0.5697897472173862
-0.259062 -0.744747 0.6152557472173862
0.210875 -0.735848 0.1878707472173862
0.220435 -0.735848 0.49632274721738623
-0.025686 -0.735848 0.5985637472173861
-0.064722 -0.735848 0.3653387472173862
-0.33811 -0.744747 0.3957317472173862
0.013631 -0.735848 0.7111307472173862
-0.225249 -0.744747 0.3477317472173862
0.354411 -0.735848 0.3765617472173862
-0.184784 -0.735848 0.7305577472173862
0.068542 -0.735848 0.3748267472173862
0.359345 -0.735848 0.7477047472173861
-0.125107 -0.735848 0.5538347472173861
-0.161289 -0.744747 0.03834674721738618
0.077256 -0.735848 0.6090187472173862
0.075845 -0.735848 0.21050174721738618
-0.142019 -0.735848 0.3348227472173862
0.269056 -0.735848 0.12918174721738618
-0.351218 -0.744747 0.6774207472173862
0.29782 -0.735848 0.6532627472173862
-0.029337 -0.735848 0.4463177472173862
0.096154 -0.744747 0.06886874721738617
-0.239988 -0.735848 0.5414527472173862
-0.061139 -0.735848 0.7450547472173862
0.148103 -0.735848 0.5065677472173862
-0.181353 -0.735848 0.6321647472173861
-0.277253 -0.744747 0.10131974721738618
0.005648 -0.735848 0.2282857472173862
-0.244983 -0.735848 0.2049187472173862
0.293309 -0.735848 0.2121297472173862
0.051489 -0.735848 0.4418907472173862
-0.131361 -0.735848 0.2010917472173862
-0.054998 -0.744747 0.5161117472173862
0.203058 -0.744747 0.11764774721738619
-0.175034 -0.735848 0.4993777472173862
0.126796 -0.744747 0.5679537472173862
0.112906 -0.735848 0.3275027472173862
-0.152597 -0.744747 0.4045867472173862
0.282664 -0.735848 0.3428837472173862
-0.042085 -0.735848 0.6606277472173863
0.306555 -0.735848 0.4841887472173862
-0.278367 -0.735848 0.41522474721738617
-0.239743 -0.744747 0.6813427472173862
0.020471 -0.735848 0.6489487472173862
-0.31907 -0.744747 0.5552137472173861
-0.185812 -0.744747 0.5691087472173861
0.079764 -0.744747 0.6806737472173863
0.083721 -0.735848 0.2737007472173862
0.174365 -0.744747 0.7206667472173862
0.033555 -0.744747 0.04470574721738618
-0.293796 -0.735848 0.03764574721738617
0.001006 -0.744747 0.3831647472173862
-0.08191 -0.735848 0.30712174721738617
0.090848 -0.735848 0.4875017472173862
0.13628 -0.744747 0.1996567472173862
0.240648 -0.744747 0.6393397472173862
-0.128058 -0.744747 0.2707107472173862
-0.246439 -0.735848 0.2841597472173862
0.075075 -0.744747 0.14018474721738622
-0.354898 -0.744747 0.3229157472173862
-0.013868 -0.744747 0.08392774721738622
0.220865 -0.735848 0.4396127472173862
0.302696 -0.744747 0.0830197472173862
0.160862 -0.735848 0.040230747217386176
-0.316377 -0.735848 0.6104107472173862
-0.079095 -0.744747 0.5821777472173861
0.326376 -0.735848 0.4333837472173862
0.029618 -0.735848 0.5832717472173862
-0.227651 -0.744747 0.08025974721738621
-0.252992 -0.744747 0.4643777472173862
0.107575 -0.735848 0.4380047472173862
0.261948 -0.744747 0.7640727472173863
0.17325 -0.744747 0.6295087472173861
0.267175 -0.735848 0.6938507472173863
-0.199013 -0.735848 0.1847297472173862
-0.363064 -0.744747 0.5310257472173862
0.241192 -0.744747 0.08641074721738617
-0.20138 -0.735848 0.3899037472173862
0.116801 -0.744747 0.3907647472173862
0.333393 -0.735848 0.6990317472173861
0.05743 -0.735848 0.09626174721738617
-0.155097 -0.735848 0.1584467472173862
-0.077543 -0.735848 0.07102174721738619
0.128231 -0.735848 0.6188287472173862
-0.08561 -0.744747 0.7060697472173862
-0.190801 -0.735848 0.3174347472173862
0.179583 -0.735848 0.2360737472173862
0.158741 -0.735848 0.7632887472173862
-0.136588 -0.735848 0.7332617472173861
0.167545 -0.735848 0.1651097472173862
0.070834 -0.735848 0.5626867472173862
0.249546 -0.744747 0.5777037472173862
-0.025206 -0.744747 0.34689874721738617
0.114462 -0.735848 0.7271087472173863
-0.262612 -0.735848 0.14393374721738622
0.28589 -0.735848 0.5232037472173862
-0.262885 -0.744747 0.3258757472173862
0.059577 -0.735848 0.7286607472173863
-0.138341 -0.735848 0.6063067472173862
0.285609 -0.744747 0.1715507472173862
-0.14835 -0.735848 0.6585237472173862
0.338325 -0.744747 0.5922697472173862
0.233551 -0.744747 0.7333347472173861
-0.312266 -0.735848 0.3522627472173862
0.351615 -0.735848 0.1195247472173862
0.347221 -0.735848 0.6346977472173863
-0.329036 -0.744747 0.7179037472173861
0.020858 -0.744747 0.7622327472173862
0.034043 -0.735848 0.3538997472173862
-0.015583 -0.735848 0.5257887472173862
-0.219447 -0.744747 0.6247017472173861
0.320297 -0.735848 0.7553537472173861
-0.20241 -0.735848 0.6917657472173862
-0.315439 -0.744747 0.6600207472173862
0.20917 -0.735848 0.6615937472173862
0.164115 -0.744747 0.5875777472173862
-0.238908 -0.735848 0.5001027472173862
0.185733 -0.735848 0.4781697472173862
0.236674 -0.735848 0.5318587472173861
0.099878 -0.735848 0.11137274721738621
-0.136034 -0.735848 0.4997457472173862
-0.256719 -0.735848 0.5766077472173862
-0.352046 -0.744747 0.4368357472173862
-0.08041 -0.735848 0.4007287472173862
0.184322 -0.735848 0.5373507472173862
-0.235548 -0.744747 0.7498297472173863
-0.023311 -0.735848 0.7387717472173863
0.344643 -0.735848 0.2097127472173862
-0.276283 -0.735848 0.6874337472173861
0.138513 -0.744747 0.4604767472173862
-0.000707 -0.735848 0.26542774721738616
0.226839 -0.744747 0.3989797472173862
0.153435 -0.744747 0.3824557472173862
-0.085305 -0.744747 0.4845427472173862
0.305459 -0.744747 0.1268857472173862
0.131342 -0.735848 0.2357737472173862
0.263447 -0.735848 0.2387657472173862
0.243979 -0.735848 0.1705197472173862
0.057362 -0.735848 0.6469137472173863
-0.24259 -0.735848 0.4300627472173862
-0.110209 -0.735848 0.3535157472173862
-0.221566 -0.735848 0.2571467472173862
-0.263649 -0.735848 0.3613177472173862
0.043361 -0.735848 0.2860507472173862
-0.157473 -0.735848 0.3023637472173862
-0.316245 -0.744747 0.4241427472173862
-0.091039 -0.735848 0.2065587472173862
-0.02641 -0.744747 0.48760674721738617
0.287639 -0.735848 0.4523937472173862
-0.001213 -0.735848 0.4227767472173862
-0.067254 -0.735848 0.6346407472173862
0.037956 -0.735848 0.21419574721738618
0.044951 -0.735848 0.4892777472173862
0.200094 -0.735848 0.060851747217386176
-0.176331 -0.744747 0.4560927472173862
0.148096 -0.735848 0.5411697472173862
0.340431 -0.735848 0.4912157472173862
-0.228185 -0.735848 0.14481274721738618
0.334769 -0.735848 0.1554267472173862
-0.298007 -0.735848 0.3831917472173862
-0.284287 -0.744747 0.6417887472173862
-0.045532 -0.735848 0.3974447472173862
-0.197915 -0.735848 0.6002737472173862
0.082988 -0.735848 0.1717247472173862
-0.333421 -0.735848 0.4791017472173862
0.316313 -0.744747 0.38177974721738617
-0.350606 -0.744747 0.7512107472173861
0.009501 -0.735848 0.5479537472173862
0.214798 -0.735848 0.7071497472173862
-0.100297 -0.735848 0.2385937472173862
0.187536 -0.735848 0.4449057472173862
-0.122501 -0.735848 0.6957947472173862
0.06221 -0.735848 0.2406777472173862
0.09613 -0.735848 0.5201117472173862
-0.329407 -0.735848 0.12881474721738617
0.045961 -0.735848 0.6910427472173861
-0.212971 -0.735848 0.6587527472173862
0.120712 -0.735848 0.27456674721738616
-0.091061 -0.735848 0.5449507472173862
0.251694 -0.735848 0.3723227472173862
-0.155502 -0.735848 0.2299537472173862
-0.362708 -0.735848 0.3760777472173862
0.317961 -0.735848 0.5167747472173863
-0.303503 -0.735848 0.0771607472173862
-0.271044 -0.735848 0.5304467472173862
-0.222678 -0.744747 0.11398874721738622
-0.201842 -0.735848 0.7586447472173862
-0.045041 -0.735848 0.08554074721738619
0.032686 -0.744747 0.4003387472173862
-0.063309 -0.735848 0.4497767472173862
-0.033678 -0.744747 0.5516177472173862
0.281904 -0.744747 0.0583197472173862
-0.357054 -0.735848 0.6424687472173862
0.270554 -0.744747 0.7245957472173862
-0.105723 -0.735848 0.1090577472173862
0.333519 -0.735848 0.5596977472173862
-0.279506 -0.735848 0.1866457472173862
0.070882 -0.744747 0.03931174721738617
0.245171 -0.735848 0.2129797472173862
0.288512 -0.744747 0.6233427472173863
0.142773 -0.735848 0.6978937472173862
0.122188 -0.744747 0.09116374721738618
-0.287707 -0.735848 0.4673107472173862
0.019289 -0.744747 0.09904974721738619
0.081701 -0.735848 0.33015574721738616
0.028873 -0.735848 0.2552627472173862
-0.090902 -0.735848 0.7541577472173862
-0.181884 -0.735848 0.2834427472173862
0.134368 -0.744747 0.05331974721738619
-0.0944 -0.744747 0.4267537472173862
-0.047698 -0.744747 0.2818317472173862
-0.081046 -0.735848 0.2762957472173862
0.201023 -0.735848 0.7347367472173862
-0.133646 -0.735848 0.4377237472173862
-0.049174 -0.735848 0.5787007472173862
0.33849 -0.735848 0.4028357472173862
-0.250478 -0.735848 0.4005577472173862
-0.2046 -0.735848 0.4922217472173862
-0.215582 -0.735848 0.2117657472173862
-0.060973 -0.735848 0.20456374721738618
-0.028267 -0.735848 0.6284947472173862
-0.157555 -0.744747 0.5592007472173862
-0.167398 -0.744747 0.18419474721738618
0.20494 -0.735848 0.6321707472173862
-0.032997 -0.744747 0.3152547472173862
-0.252772 -0.735848 0.06730474721738622
0.352146 -0.735848 0.2471017472173862
0.174693 -0.744747 0.4027667472173862
-0.256532 -0.735848 0.7090257472173862
0.021459 -0.735848 0.6111537472173862
-0.149977 -0.735848 0.7050777472173861
-0.088235 -0.744747 0.6759557472173863
-0.09108 -0.744747 0.6085247472173863
-0.007961 -0.735848 0.5757337472173862
0.300186 -0.744747 0.42513374721738617
-0.303506 -0.735848 0.5778107472173862
-0.083026 -0.735848 0.3431157472173862
0.239818 -0.735848 0.6666287472173862
0.191886 -0.735848 0.2101927472173862
-0.291108 -0.735848 0.5509017472173862
0.316716 -0.744747 0.2260287472173862
0.084505 -0.744747 0.6487277472173862
0.106059 -0.744747 0.1892307472173862
0.324574 -0.744747 0.6598707472173861
-0.014115 -0.735848 0.7041827472173863
0.041946 -0.744747 0.5591877472173862
-0.336571 -0.735848 0.5260817472173862
-0.36551 -0.744747 0.4119317472173862
-0.115606 -0.744747 0.3209547472173862
-0.195557 -0.744747 0.5205887472173862
0.025638 -0.744747 0.4275507472173862
0.186142 -0.735848 0.5653207472173862
0.105451 -0.744747 0.22987574721738618
-0.343358 -0.735848 0.3558507472173862
0.111571 -0.744747 0.4679927472173862
-0.2036 -0.735848 0.09551074721738617
-0.147631 -0.744747 0.46021374721738617
0.00239 -0.735848 0.4503367472173862
-0.344404 -0.735848 0.6033117472173862
-0.225311 -0.744747 0.4658457472173862
0.101148 -0.744747 0.5783947472173863
-0.301467 -0.744747 0.1412787472173862
0.003184 -0.744747 0.3473997472173862
-0.139431 -0.735848 0.0728367472173862
0.227611 -0.735848 0.0635437472173862
0.257304 -0.744747 0.4332297472173862
-0.358753 -0.744747 0.7137547472173862
0.173662 -0.744747 0.6642407472173861
-0.219838 -0.744747 0.5757187472173861
-0.350518 -0.735848 0.08334874721738622
-0.209083 -0.744747 0.2997747472173862
0.057142 -0.735848 0.5911887472173862
-0.016675 -0.744747 0.2939147472173862
-0.164235 -0.744747 0.6805767472173863
-0.171515 -0.744747 0.5917877472173863
0.12018 -0.744747 0.6442157472173862
-0.080352 -0.744747 0.04598774721738619
0.354427 -0.744747 0.4222217472173862
0.236891 -0.735848 0.11107774721738617
0.055607 -0.735848 0.33837774721738617
0.322016 -0.735848 0.1958437472173862
-0.188998 -0.744747 0.3499077472173862
0.326529 -0.744747 0.3569227472173862
0.294859 -0.735848 0.3972107472173862
0.068593 -0.735848 0.5286437472173862
-0.157621 -0.735848 0.7568567472173862
0.196909 -0.744747 0.08543774721738617
0.087649 -0.744747 0.4521587472173862
-0.108863 -0.744747 0.5720807472173862
-0.240994 -0.744747 0.3736737472173862
-0.329356 -0.735848 0.1547437472173862
0.315572 -0.744747 0.7164937472173862
-0.149057 -0.735848 0.25845774721738624
-0.108144 -0.744747 0.5276877472173862
0.241205 -0.744747 0.7041957472173862
-0.138471 -0.744747 0.5244017472173862
-0.045282 -0.744747 0.2538387472173862
0.310434 -0.744747 0.1644987472173862
0.211718 -0.735848 0.5632827472173862
0.062676 -0.332505 0.8632087472173862
0.25916 -0.342763 0.8576937472173862
-0.139204 -0.327888 0.8598537472173862
-0.23502 -0.340364 0.8503087472173863
0.143454 -0.34016 0.8606677472173863
0.368357 -0.342315 0.8591027472173862
-0.070173 -0.328409 0.8602327472173862
-0.342347 -0.32779 0.8534297472173862
0.314419 -0.32642 0.8576477472173862
-0.191062 -0.34158 0.8540517472173862
0.022336 -0.341902 0.8550417472173861
-0.301024 -0.329234 0.8489867472173862
-0.10427 -0.342477 0.8589847472173862
-0.267928 -0.330898 0.8620407472173862
0.097437 -0.331188 0.8622517472173862
0.172319 -0.329718 0.8486197472173862
-0.042013 -0.335827 0.8638157472173862
0.341165 -0.334954 0.8644497472173862
0.392644 -0.721382 0.6077347472173862
0.385969 -0.728407 0.6794357472173862
0.392644 -0.722151 0.3895767472173862
0.392644 -0.703139 0.3524697472173862
0.392644 -0.721933 0.6448517472173863
0.385969 -0.695615 0.5454327472173862
-0.394948 -0.71584 0.6806067472173862
-0.393712 -0.69333 0.3889947472173862
-0.388274 -0.728028 0.3018737472173862
-0.397096 -0.732985 0.5576777472173862
-0.393821 -0.734945 0.5109117472173862
-0.394948 -0.712506 0.12939174721738622
-0.397042 -0.69333 0.5244307472173861
-0.390953 -0.732985 0.4445197472173862
-0.394948 -0.704942 0.6483587472173862
-0.392008 -0.701111 0.5828747472173862
-0.392749 -0.732985 0.3330827472173862
-0.394948 -0.715141 0.7586087472173861
-0.394948 -0.711685 0.6236017472173863
0.426006 0.076372 -0.43335
0.425861 -0.789299 -0.43335
0.426016 -0.24631 0.14621
0.399318 0.361082 -0.051385
0.426016 -0.785019 0.003497
0.426016 -0.336914 -0.270106
0.399318 0.473271 -0.43139
0.399318 0.008274 -0.087194
0.426016 0.667669 0.031955
0.426016 0.198943 0.186639
0.426016 0.640461 0.384905
0.399318 0.464719 0.172709
0.404005 0.71445 -0.43335
0.426016 0.565007 -0.185582
0.426016 0.286539 -0.291271
0.426016 -0.629491 -0.197783
0.426016 -0.628513 0.1521
0.426016 -0.276876 -0.052938
0.426016 -0.141113 -0.231119
0.422236 -0.40197 -0.43335
0.426016 -0.122023 0.019766
0.400867 0.811235 0.382045
0.426016 0.806977 0.120657
0.426016 0.719 -0.134748
0.426016 -0.767457 -0.267786
0.41433 -0.247883 -0.43335
0.399318 -0.393544 0.101535
0.399318 0.065793 0.277198
0.426016 -0.299534 0.286594
0.426016 -0.64009 -0.430807
0.426016 -0.067473 -0.423449
0.421478 0.288822 -0.43335
0.399318 -0.655535 0.290556
0.426016 -0.49287 -0.320586
0.426016 0.148079 -0.313343
0.426016 0.762076 0.254693
0.426008 0.811235 -0.321237
0.426016 0.289153 0.30662
0.426016 -0.781005 0.13583
0.426016 0.692005 -0.260583
0.426016 -0.369289 -0.144956
0.426016 0.01585 0.046753
0.426016 -0.251243 -0.174783
0.426016 -0.053589 0.249878
0.399318 0.577303 0.114713
0.426016 0.24016 -0.073978
0.426016 0.081949 0.161848
0.426016 0.068855 -0.186767
0.399318 -0.660476 -0.316593
0.426016 -0.583597 0.040704
0.426016 0.354694 -0.186977
0.426016 0.415127 0.046241
0.399318 0.389571 -0.347626
0.399318 -0.546458 -0.112187
0.426016 0.120399 -0.080249
0.426016 0.250362 0.035656
0.426016 0.500388 -0.307236
0.426016 0.383098 0.256078
0.41494 -0.514527 -0.43335
0.399318 -0.554381 0.225444
0.426016 -0.15928 -0.371529
0.426016 -0.787816 0.316075
0.399318 -0.297324 0.062452
0.426016 -0.709922 -0.113878
0.426016 -0.40595 0.304664
0.426016 0.223029 -0.217747
0.426016 -0.378406 0.210118
0.417639 0.61159 -0.43335
0.426016 -0.338569 0.382799
0.426016 -0.487173 0.064288
0.399318 0.293781 0.197201
0.426016 0.806099 -0.225408
0.426016 0.766502 0.012822
0.426016 0.205455 -0.39052
0.426016 -0.332003 -0.363775
0.426016 -0.04834 -0.244094
0.399318 -0.454585 -0.115012
0.426016 -0.464938 0.178575
0.426016 -0.197454 0.068777
0.399318 0.020101 -0.365548
0.399318 -0.568493 -0.35782
0.426016 -0.246718 -0.28516
0.426016 0.810226 -0.063903
0.426016 -0.742264 -0.35969
0.426016 0.572449 0.013078
0.426016 0.603457 0.256635
0.426016 -0.518698 -0.238139
0.426016 0.48069 -0.028973
0.426016 0.733682 0.360578
0.426016 0.19629 0.103062
0.423347 0.371848 -0.43335
0.426016 0.787063 -0.400179
0.426016 0.422523 -0.098477
0.426016 0.691213 0.185347
0.426016 0.453984 -0.199202
0.399318 0.279011 -0.140458
0.426016 0.492028 0.071282
0.426016 0.534841 -0.380178
0.426016 -0.058308 -0.131111
0.426016 0.072498 -0.287252
0.426016 0.140515 0.319372
0.426016 0.581301 -0.272813
0.426016 -0.424473 0.017496
0.426016 0.554905 0.184441
0.426016 0.125959 0.23586
0.399318 -0.231322 0.314579
0.399318 -0.239665 -0.357727
0.426016 -0.359368 -0.065022
0.426016 -0.582901 0.299922
0.399318 -0.000868 0.315518
0.426016 -0.655532 0.067811
0.426016 -0.710633 -0.038011
0.426016 0.139225 -0.220219
0.426016 0.330751 0.038042
0.426016 0.665387 -0.043563
0.426016 -0.320947 0.155093
0.426016 -0.056462 0.172045
0.426016 -0.747065 0.069277
0.426016 -0.150571 0.202899
0.426016 0.215528 0.317152
0.426016 -0.751173 -0.193774
0.426016 0.124324 0.073516
0.426016 -0.192003 -0.040298
0.426016 -0.690555 -0.244498
0.426016 0.013404 0.194821
0.399318 -0.23677 0.010662
0.424659 -0.803259 0.204452
0.426016 -0.027549 0.106093
0.426016 -0.394579 -0.313149
0.426016 0.510639 0.241506
0.426016 -0.604816 -0.276903
0.426016 -0.135182 -0.139597
0.426016 -0.08256 0.321379
0.426016 0.090064 -0.358286
0.399318 -0.297249 -0.128504
0.426016 0.264464 0.12032
0.426016 0.344358 0.349914
0.426016 0.006232 -0.432366
0.426016 -0.711234 0.14191
0.426016 0.182181 -0.113259
0.426016 0.669097 -0.194154
0.426016 0.295146 -0.031037
0.426016 -0.504042 0.265614
0.426016 0.680784 -0.361932
0.426016 0.532008 -0.084532
0.426016 0.08546 0.013216
0.426016 -0.537075 0.163908
0.426016 0.325709 -0.349695
0.426016 -0.631787 -0.10686
0.399318 -0.269673 0.211985
0.426016 0.193942 -0.022885
0.426016 -0.003416 -0.172644
0.426016 -0.071405 -0.043572
0.426016 -0.452094 -0.255243
0.426016 -0.431408 -0.174341
0.399318 0.2476 0.247514
0.426016 -0.592149 -0.047315
0.399318 -0.299409 -0.21468
0.426016 0.414493 0.333419
0.426016 0.753741 0.161579
0.426016 0.220063 -0.295817
0.426016 0.744634 -0.057401
0.399318 -0.355149 0.03097
0.426016 0.301259 -0.22712
0.426016 -0.036117 -0.34438
0.426016 0.747439 -0.336648
0.399318 0.744544 -0.223049
0.426016 -0.425647 -0.062926
0.426016 -0.199793 0.264144
0.426016 0.798736 -0.161099
0.414205 0.811235 0.210659
0.426016 0.069532 -0.119975
0.426016 0.619321 0.181793
0.426016 -0.3897 -0.233757
0.426016 -0.506402 -0.175332
0.426016 0.439609 -0.384174
0.399318 -0.683956 -0.165385
0.426016 0.326677 0.149823
0.426016 0.732793 0.066667
0.426016 -0.133353 0.082641
0.426016 0.44943 0.281
0.426016 0.60467 0.319606
0.399318 -0.038359 0.029776
0.399318 -0.277251 0.357217
0.426016 -0.459118 0.337747
0.426016 -0.171711 -0.432736
0.426016 -0.772403 -0.083043
0.426016 -0.184657 -0.28024
0.426016 0.516661 0.12817
0.426016 0.503765 -0.236026
0.426016 -0.694033 -0.397742
0.426016 0.80312 0.326629
0.426016 0.375199 0.092873
0.412785 -0.575744 -0.43335
0.426016 0.663551 0.245036
0.426016 0.052727 -0.054817
0.399318 -0.084865 0.123547
0.426016 0.140387 -0.157717
0.426016 0.43126 0.218798
0.426016 0.61693 0.077276
0.426016 -0.113264 -0.2969
0.426016 0.138133 0.139815
0.399318 0.42473 -0.298649
0.426016 -0.621351 -0.367053
0.426016 -0.718094 0.329599
0.426016 -0.51463 0.0051
0.426016 -0.455777 -0.408325
0.426016 -0.315551 -0.420889
0.426016 -0.681984 0.237513
0.399318 0.550367 0.062096
0.426016 0.014678 -0.299383
0.399318 0.256542 -0.334576
0.426016 -0.585602 -0.147268
0.426016 -0.630192 -0.002568
0.426016 0.601688 -0.373527
0.399318 -0.529362 -0.055942
0.426016 0.063715 0.224579
0.426016 0.320997 -0.110036
0.426016 -0.176625 0.13959
0.426016 0.197463 0.258842
0.399318 -0.718799 0.025507
0.426016 -0.452914 0.238658
0.399318 0.339476 0.296895
0.426016 0.021427 0.136335
0.426016 -0.145046 0.343683
0.426016 -0.110797 0.244231
0.426016 -0.203977 -0.207159
0.426016 0.633183 -0.250032
0.426016 0.460654 0.120299
0.426016 0.712242 -0.00286
0.426016 -0.152721 -0.080846
0.426016 -0.289838 0.013489
0.426016 -0.087243 -0.179163
0.426016 -0.751839 0.241443
0.426016 -0.240213 -0.109403
0.421839 0.131816 -0.43335
0.426016 0.27268 -0.380446
0.426016 -0.499284 -0.094107
0.426016 -0.323224 0.21546
0.399318 -0.319544 -0.030087
0.426016 -0.345467 0.328027
0.426016 0.176188 0.042278
0.426016 0.3942 0.146683
0.426016 0.564118 -0.333754
0.426016 -0.340357 0.104071
0.399318 0.527984 -0.430738
0.426016 0.673549 0.086094
0.426016 -0.344115 -0.199122
0.426016 -0.084522 0.059233
0.426016 -0.570833 -0.217576
0.399318 0.56788 0.287308
0.426016 0.194408 -0.165872
0.426016 -0.60118 0.225701
0.426016 0.421468 -0.007233
0.426016 0.308397 0.256781
0.426016 -0.251624 0.056072
0.399318 0.711532 -0.089439
0.426016 0.730195 0.297029
0.399318 -0.553174 0.087835
0.399318 0.341695 -0.397109
0.399318 0.724185 -0.29278
0.426016 0.3048 0.083723
0.426016 0.170335 -0.265766
0.399318 -0.626332 0.102262
0.426016 0.654746 0.303972
0.423728 0.429507 0.385389
0.426016 0.464702 -0.129401
0.426016 0.082595 0.323903
0.426016 0.377615 0.201017
0.426016 0.25221 0.17109
0.426016 -0.278716 0.105441
0.399318 0.271611 -0.193928
0.426016 -0.403016 0.144981
0.426016 0.387823 -0.242781
0.426016 0.372451 -0.115714
0.399318 0.45793 0.017984
0.399318 -0.420229 -0.381842
0.426016 -0.76337 0.36157
0.399318 0.186162 -0.335691
0.426016 -0.45723 0.123229
0.399318 -0.243768 0.261886
0.426016 0.137664 0.000344
0.426016 -0.692327 -0.346618
0.426016 0.073197 0.072839
0.426016 -0.369375 -0.015094
0.399318 -0.273891 -0.320067
0.426016 -0.561616 0.346139
0.426016 0.024603 0.26404
0.402567 -0.803259 -0.391029
0.399318 -0.150642 -0.317149
0.399318 -0.468932 0.02353
0.426016 -0.737721 -0.422275
0.426016 -0.566019 -0.315584
0.426016 -0.282068 -0.362785
0.426016 -0.105959 0.178119
0.399318 -0.401666 0.346464
0.426016 -0.467504 -0.03496
0.399318 0.476716 -0.070631
0.426016 -0.030981 -0.073455
0.426016 -0.515345 0.37257
0.399318 -0.754243 0.172259
0.426016 0.804435 0.065634
0.399318 -0.597424 0.182836
0.399318 0.19374 0.351909
0.399318 0.261204 -0.259228
0.426016 0.038059 0.002461
0.399318 -0.221047 -0.06864
0.399318 -0.408633 -0.130734
0.426016 -0.320007 -0.09316
0.399318 -0.668675 -0.086231
0.426016 0.621729 -0.186125
0.426016 0.649732 -0.405377
0.426016 -0.793293 0.05658
0.399318 0.289989 0.008247
0.426016 -0.535988 0.052211
0.426016 -0.252815 -0.222469
0.399318 -0.346881 -0.308303
0.399318 0.242212 -0.034759
0.426016 0.671125 0.348419
0.399318 -0.419352 0.19882
0.399318 -0.764746 -0.029749
0.426016 -0.749003 -0.140294
0.399318 0.545147 -0.253751
0.426016 -0.082341 -0.35348
0.426016 -0.472686 -0.362949
0.426016 -0.026654 -0.006833
0.399318 0.233925 -0.12798
0.426016 0.629521 -0.081125
0.399318 0.808515 -0.363581
0.426016 0.025026 -0.133591
0.399318 0.126519 -0.27869
0.426016 -0.387462 0.051093
0.426016 0.715535 -0.196015
0.426016 0.599192 -0.024722
0.426016 -0.691142 0.183594
0.42117 0.432537 -0.43335
0.399318 -0.507576 0.096079
0.426016 -0.210707 -0.385383
0.426016 0.722063 0.231784
0.426016 -0.161981 -0.005486
0.426016 -0.516508 -0.376506
0.399318 0.517456 0.19743
0.426016 -0.189905 -0.337461
0.399318 -0.10139 -0.219514
0.426016 0.366998 -0.318241
0.426016 0.149587 -0.379953
0.399318 0.175017 0.141365
0.426016 0.529674 0.028716
0.426016 -0.037111 0.324128
0.399318 0.51728 -0.024472
0.399318 -0.746586 0.122645
0.399318 -0.210239 -0.30673
0.399318 -0.658871 -0.263077
0.399318 -0.423706 0.272623
0.412229 0.200248 -0.43335
0.399318 0.289402 -0.067167
0.399318 0.499571 -0.37052
0.399318 -0.102386 -0.123619
0.421723 0.811235 0.01689
0.399318 0.764846 -0.182827
0.426016 -0.208843 0.171205
0.426016 -0.748342 -0.315072
0.399318 -0.736412 -0.079166
0.426016 -0.437664 -0.333854
0.399318 0.161531 0.251897
0.399318 0.695632 0.144126
0.399318 0.469584 -0.282935
0.399318 0.399 -0.139802
0.426016 -0.1381 0.27959
0.399318 -0.424007 0.067629
0.426016 0.126126 0.191241
0.426016 -0.574802 -0.090525
0.399318 0.28114 0.057068
0.426016 -0.746026 0.294931
0.426016 -0.206152 -0.146297
0.399318 0.621817 -0.300781
0.399318 0.106023 -0.322732
0.426016 0.670797 -0.149265
0.399318 -0.566485 0.144086
0.426016 0.424642 0.08958
0.399318 -0.423959 -0.287969
0.399318 0.213032 0.219078
0.399318 -0.287651 0.166707
0.426016 -0.313633 -0.159695
0.426016 0.696918 -0.315043
0.399318 0.205159 0.066188
0.426016 0.519011 -0.194606
0.426016 -0.003591 0.36026
0.416689 -0.803259 -0.045962
0.426016 0.722894 -0.374732
0.399318 -0.348226 -0.43325
0.426016 0.24947 -0.159044
0.426016 -0.037612 -0.391541
0.399318 0.456257 -0.350298
0.399318 0.595446 -0.241365
0.399318 0.104569 0.106762
0.399318 -0.119433 -0.263016
0.426016 0.099599 0.270641
0.426016 0.804265 -0.115978
0.426016 -0.621339 0.320284
0.399318 0.416113 -0.189284
0.426016 0.396285 -0.042594
0.426016 -0.497818 0.318125
0.399318 -0.286188 0.252767
0.426016 0.326324 -0.269128
0.399318 -0.501265 0.158035
0.426016 -0.118688 0.124023
0.426016 -0.634455 -0.055455
0.426016 -0.696841 0.079554
0.399318 -0.634828 0.231782
0.399318 0.211271 -0.263472
0.399318 -0.531116 -0.15274
0.426016 -0.116726 -0.022638
0.399318 0.613023 0.02738
0.399318 -0.468663 -0.295729
0.399318 0.231109 0.00849
0.399318 -0.68497 0.332671
0.399318 0.628186 0.343109
0.426016 -0.128625 -0.18935
0.426016 -0.569478 0.254893
0.426016 0.434883 -0.159608
0.399318 0.108566 0.036666
0.426016 0.331638 -0.151051
0.399318 0.77674 -0.064506
0.426016 0.432573 0.165814
0.399318 -0.226765 -0.258764
0.399318 -0.304765 0.31886
0.399318 -0.025292 -0.13282
0.399318 -0.499048 0.222934
0.426016 0.16705 0.219843
0.426016 0.717079 0.105648
0.399318 0.277113 0.150196
0.399318 0.171747 -0.22401
0.426016 0.394983 -0.285867
0.399318 -0.398136 -0.029689
0.399318 -0.329436 0.273508
0.399318 -0.630479 -0.165611
0.426016 -0.404406 0.24691
0.426016 0.328652 0.220229
0.399318 0.130937 -0.045396
0.399318 0.080574 -0.029941
0.399318 -0.041269 0.141804
0.426016 0.540986 -0.297903
0.40966 0.811235 0.256812
0.426016 -0.157508 0.041539
0.399318 0.665625 0.20769
0.399318 -0.38098 -0.179707
0.426016 0.48606 0.199992
0.399318 -0.375256 -0.106467
0.399318 0.151029 0.104574
0.426016 -0.130347 -0.341126
0.399318 -0.489813 -0.258926
0.426016 0.616222 -0.331633
0.399318 -0.054282 -0.274861
0.426016 0.216671 -0.342781
0.4251 0.749786 -0.43335
0.399318 0.488625 0.106321
0.426016 0.140291 0.276299
0.426016 0.648609 -0.004371
0.426016 -0.624176 0.261004
0.426016 0.374792 -0.374936
0.426016 0.732831 -0.257478
0.426016 -0.129367 -0.399474
0.426016 -0.225569 0.09852
0.399318 -0.48822 -0.05802
0.399318 0.295474 -0.356221
0.399318 -0.094451 0.214384
0.399318 -0.010721 0.270812
0.399318 1.8e-05 0.011835
0.399318 0.345606 -0.089156
0.417654 -0.803259 -0.250134
0.426016 -0.670935 0.136623
0.399318 0.567046 -0.036387
0.426016 0.016111 -0.037305
0.399318 -0.44998 -0.201639
0.426016 -0.514155 0.130661
0.399318 -0.485145 -0.152247
0.399318 0.749709 -0.027616
0.426016 0.338413 -0.031614
0.399318 0.756335 -0.374286
0.426016 -0.632587 -0.305734
0.426016 0.770236 -0.243136
0.399318 -0.48468 0.288169
0.399318 -0.013288 0.080078
0.399318 0.524272 -0.324831
0.426016 0.411055 -0.324933
0.426016 -0.476755 -0.22393
0.399318 0.18215 0.290246
0.399318 -0.309881 -0.258273
0.426016 -0.263299 -0.397794
0.426016 0.619281 0.142102
0.399318 -0.056412 -0.006884
0.426016 -0.749076 0.029688
0.399318 -0.463577 0.094676
0.426016 0.247945 0.294434
0.426016 0.200611 -0.073217
0.399318 0.284562 0.273601
0.399318 0.07772 -0.384947
0.399318 0.62303 0.297
0.399318 0.107364 -0.196947
0.399318 0.370984 0.22935
0.399318 -0.364992 -0.380417
0.426016 -0.662126 -0.372022
0.399318 0.451971 -0.228179
0.426016 0.134419 -0.117099
0.399318 -0.666968 0.094376
0.426016 -0.270445 0.313089
0.426016 -0.548234 -0.185392
0.399318 -0.377861 0.178331
0.399318 -0.322081 0.126257
0.426016 0.755224 -0.155751
0.405715 -0.803259 -0.099373
0.426016 -0.205253 0.303066
0.399318 0.567813 -0.361922
0.426016 0.589958 0.047903
0.399318 -0.260799 0.083418
0.426016 0.39316 0.29369
0.399318 0.091255 -0.139996
0.399318 -0.0615 0.082892
0.399318 0.037946 0.160677
0.426016 0.682851 -0.428717
0.426016 -0.543161 -0.031512
0.426016 0.218716 0.378404
0.426016 -0.166679 0.305809
0.399318 0.057414 0.047999
0.399318 -0.79375 0.170227
0.426016 0.499418 -0.105194
0.399318 0.630588 0.242237
0.399318 -0.504237 -0.348269
0.399318 0.155055 -0.082224
0.399318 0.304522 -0.312273
0.426016 0.785461 -0.292785
0.426016 0.035339 -0.331728
0.399318 0.508673 -0.275872
0.399318 -0.471595 -0.430589
0.426016 0.53919 0.087002
0.399318 -0.142251 -0.033191
0.402284 -0.284078 -0.43335
0.399318 -0.580878 0.365405
0.426016 0.742267 0.197932
0.399318 -0.529254 0.254072
0.426016 -0.086274 -0.101742
0.399318 -0.504298 0.037658
0.399318 0.458469 0.069582
0.426016 -0.406211 0.373165
0.426016 -0.60238 0.114845
0.417056 -0.803259 0.349607
0.399318 -0.613357 -0.427961
0.399318 -0.730501 0.353339
0.426016 0.474254 -0.399096
0.399318 -0.622464 -0.230541
0.426016 0.554518 -0.429536
0.426016 -0.21024 0.009735
0.406138 0.334328 -0.43335
0.426016 0.711434 0.329573
0.399318 -0.144459 0.106592
0.399318 -0.206425 0.12324
0.399318 0.706576 0.064794
0.399318 -0.441644 0.374772
0.399318 -0.306141 -0.352422
0.426016 0.451071 0.325811
0.399318 0.498987 0.046099
0.426016 0.118845 -0.253781
0.426016 0.341346 0.108506
0.399318 -0.563049 0.31674
0.399318 0.013977 0.240324
0.399318 0.480504 -0.204304
0.426016 0.799462 0.288029
0.399318 0.041574 -0.112778
0.399318 0.779094 0.070574
0.399318 -0.547376 -0.238396
0.426016 0.268332 0.232297
0.399318 -0.379213 0.235809
0.426016 -0.058315 -0.208408
0.426016 0.282032 -0.331513
0.426016 -0.574941 0.170444
0.399318 -0.075555 0.035217
0.426016 0.781721 -0.350594
0.426016 0.516055 -0.049991
0.399318 -0.367065 -0.343322
0.399318 -0.215221 0.238486
0.426016 -0.304089 -0.286896
0.399318 0.803675 -0.186035
0.399318 -0.766342 -0.339966
0.399318 0.73778 0.261965
0.426016 0.293607 0.171844
0.426016 -0.064112 0.353237
0.426016 0.682229 0.276752
0.399318 -0.643381 -0.405127
0.426016 -0.52924 0.199818
0.399318 0.444092 0.251052
0.399318 0.392066 0.34501
0.399318 0.678223 -0.073946
0.399318 0.210481 0.131806
0.399318 -0.003675 0.138599
0.399318 0.341436 -0.231131
0.426016 0.118475 -0.399454
0.426016 0.775104 -0.033542
0.426016 0.018821 -0.397956
0.426016 0.177087 0.317224
0.399318 0.540047 0.112043
0.399318 0.387388 0.041823
0.426016 -0.618463 0.051821
0.399318 -0.457845 -0.38308
0.399318 0.53714 -0.211794
0.399318 0.08079 -0.097677
0.426016 0.051664 0.182251
0.426016 0.480541 0.028376
0.426016 0.368094 -0.152429
0.426016 -0.242015 -0.04222
0.399318 0.105712 0.296248
0.400888 0.790134 -0.43335
0.399318 -0.711829 0.170137
0.426016 0.449949 -0.297857
0.426016 -0.716479 0.2497
0.426016 0.5457 0.219557
0.426016 0.559924 -0.05991
0.399318 -0.038231 -0.096917
0.399318 0.42221 -0.363426
0.426016 0.553759 -0.230783
0.399318 0.155698 0.352683
0.399318 0.286422 0.109459
0.399318 -0.402771 -0.071521
0.399318 -0.282667 0.130892
0.426016 0.034849 -0.086182
0.417453 -0.803259 -0.297212
0.426016 -0.013807 -0.233787
0.426016 -0.65285 -0.225211
0.426016 0.355214 0.000239
0.399318 -0.713263 -0.218304
0.426016 0.230745 0.065819
0.426016 0.079468 -0.32255
0.399318 0.296446 -0.266371
0.399318 0.595352 0.184047
0.399318 -0.113937 -0.076489
0.426016 -0.551526 -0.384386
0.426016 -0.151995 0.238752
0.426016 -0.43592 -0.016477
0.426016 -0.386399 -0.269442
0.426016 -0.577431 0.089124
0.399318 0.369836 0.123436
0.426016 -0.195326 -0.241874
0.426016 -0.717437 0.049314
0.426016 0.603891 -0.219214
0.426016 -0.531807 -0.079449
0.399318 -0.240228 0.169042
0.399318 -0.46308 0.058673
0.426016 0.246235 -0.011536
0.426016 -0.135017 0.155596
0.426016 0.495159 0.296239
0.399318 -0.116133 0.287499
0.426016 0.719156 0.033962
0.399318 0.59278 -0.001687
0.399318 0.640019 0.075794
0.426016 -0.247541 0.286206
0.399318 -0.629015 -0.083922
0.426016 -0.464362 0.299062
0.426016 0.504441 -0.342211
0.42092 0.696079 0.385389
0.399318 0.742139 0.339264
0.426016 -0.355711 0.066082
0.426016 0.055853 0.103344
0.399318 -0.430274 0.326156
0.399318 0.717337 -0.173338
0.426016 0.397189 -0.20904
0.399318 -0.465636 0.257385
0.399318 -0.340814 0.22961
0.426016 -0.718574 -0.26541
0.426016 0.255704 -0.230173
0.426016 -0.075366 -0.266834
0.399318 -0.263186 -0.269747
0.399318 -0.480375 0.130025
0.399318 -0.149133 0.173027
0.399318 0.050821 -0.426722
0.399318 -0.391235 0.285225
0.426016 -0.782602 -0.149438
0.426016 -0.428943 -0.121482
0.399318 0.71156 -0.24321
0.426016 -0.021315 0.193753
0.426016 -0.77358 -0.233595
0.426016 -0.247687 0.209353
0.426016 0.212094 -0.13159
0.399318 -0.53441 -0.011227
0.399318 0.62308 0.208409
0.399318 -0.756716 -0.11972
0.399318 -0.410033 0.034039
0.426016 -0.460927 -0.156365
0.426016 -0.535082 0.280801
0.426016 0.774077 -0.202721
0.399318 0.731724 0.16442
0.426016 -0.01978 0.228588
0.399318 -0.266959 -0.111968
0.399318 0.330804 -0.192365
0.426016 -0.014212 0.298324
0.399318 0.700608 0.235144
0.426016 -0.644588 -0.138792
0.399318 -0.270451 -0.2351
0.399318 -0.212266 0.034784
0.426016 -0.108533 0.357444
0.399318 -0.222163 -0.033793
0.399318 0.162287 -0.124725
0.399318 -0.668195 0.221022
0.399318 -0.086673 0.343006
0.399318 -0.72112 0.078336
0.426016 -0.077672 0.274203
0.426016 0.597675 0.108258
0.399318 -0.103562 -0.351462
0.426016 0.355909 0.167417
0.399318 -0.333662 0.004495
0.399318 0.174379 0.184529
0.426016 -0.303979 -0.237978
0.426016 0.709875 -0.407783
0.426016 -0.389445 -0.199047
0.399318 -0.30286 -0.080914
0.399318 -0.349687 0.348646
0.426016 0.318268 -0.058985
0.399318 -0.744559 -0.399448
0.399318 0.212618 -0.19954
0.426016 -0.555911 0.021152
0.426016 -0.483997 -0.281626
0.399318 -0.438797 -0.079048
0.426016 0.235039 0.226501
0.426016 -0.643674 0.182287
0.426016 -0.284896 0.198076
