-0.173147 -0.133077 0.041161
-0.196005 0.248748 -0.290358
-0.196005 0.321368 -0.575192
-0.196005 -0.469404 0.147552
-0.196005 0.534794 0.014151
-0.173147 -0.168817 -0.197271
-0.173147 -0.602431 -0.198296
-0.196005 0.557976 -0.515088
-0.196005 -0.011712 -0.494336
-0.173147 -0.073368 0.370208
-0.173147 0.171813 0.296158
-0.173147 0.319908 -0.058778
-0.173147 -0.383794 -0.564718
-0.173147 0.717504 0.082711
-0.173147 -0.475456 0.22985
-0.173147 0.640887 0.34632
-0.173147 -0.42305 -0.476704
-0.173147 0.501209 -0.375491
-0.196005 -0.294252 -0.534739
-0.173147 0.42857 -0.035546
-0.196005 -0.327426 -0.351365
-0.173147 -0.001101 -0.529741
-0.173147 -0.134567 0.249724
-0.196005 -0.002977 -0.275631
-0.196005 0.143317 0.352821
-0.196005 -0.042367 0.090224
-0.173147 -0.222724 -0.103453
-0.173147 0.126653 -0.109091
-0.196005 0.031534 -0.060187
-0.173147 -0.480323 -0.280392
-0.196005 0.528016 0.258695
-0.173147 0.698324 -0.280585
-0.173147 0.653762 0.031724
-0.173147 -0.426488 -0.344818
-0.173147 0.23463 -0.375697
-0.173147 -0.151379 -0.117035
-0.173147 0.049266 -0.002699
-0.196005 0.127978 -0.41065
-0.173147 -0.352331 -0.039307
-0.173147 0.171039 0.231985
-0.196005 0.127449 0.236499
-0.173147 -0.024463 -0.204745
-0.196005 0.213039 0.065933
-0.173147 0.426757 0.000701
-0.173147 0.673724 -0.11712
-0.173147 -0.19765 -0.402022
-0.196005 0.110712 0.051992
-0.173147 0.020432 0.29499
-0.173147 -0.058888 -0.553878
-0.173147 0.382338 -0.196651
-0.173147 0.084685 -0.276792
-0.196005 -0.364418 0.321723
-0.173147 0.043543 0.040483
-0.196005 -0.427727 0.256837
-0.196005 -0.206813 0.28222
-0.173147 0.086174 -0.444462
-0.173147 0.523294 -0.003515
-0.173147 -0.615012 0.15074
-0.196005 0.063224 -0.070055
-0.196005 0.40385 0.022673
-0.173147 -0.112144 0.187941
-0.173147 0.513104 0.049968
-0.173147 0.167794 -0.292891
-0.196005 0.409931 -0.081765
-0.196005 0.13346 0.099123
-0.196005 -0.589304 -0.358502
-0.173147 -0.592909 -0.032999
-0.173147 -0.054571 -0.066356
-0.196005 -0.067684 0.319959
-0.196005 -0.47667 0.192415
-0.196005 0.257572 0.07969
-0.196005 0.160112 -0.340657
-0.196005 0.135859 0.146848
-0.196005 -0.117742 0.210126
-0.196005 -0.117454 -0.510442
-0.173147 0.318258 -0.315391
-0.173147 0.416534 0.106911
-0.173147 -0.094256 0.172998
-0.196005 -0.643444 0.27907
-0.173147 -0.574708 0.150627
-0.173147 -0.405507 0.084723
-0.173147 -0.147075 0.092099
-0.196005 0.049349 0.116774
-0.173147 -0.16616 -0.091043
-0.196005 0.573102 0.002593
-0.196005 -0.07907 -0.11257
-0.196005 0.667933 -0.17081
-0.196005 0.030541 0.33372
-0.173147 -0.61569 0.121262
-0.196005 0.569818 0.345317
-0.173147 0.12383 0.07269
-0.173147 0.549018 0.218071
-0.173147 -0.527563 -0.251232
-0.196005 -0.411298 -0.171294
-0.196005 -0.216612 0.087696
-0.173147 -0.104929 -0.536652
-0.196005 -0.440344 -0.232669
-0.173147 0.716879 -0.300724
-0.196005 -0.130202 -0.245737
-0.196005 0.430775 -0.006216
-0.173147 -0.338411 -0.499944
-0.173147 0.440815 0.348118
-0.173147 0.062795 -0.31249
-0.173147 -0.004776 -0.122536
-0.173147 0.404394 -0.550372
-0.175383 0.721899 -0.170561
-0.173147 0.252103 0.091299
-0.173147 0.112079 -0.014297
-0.196005 0.585842 0.107912
-0.196005 0.627791 0.243882
-0.173147 0.002666 -0.054104
-0.196005 -0.345748 0.287409
-0.173147 0.166023 0.172126
-0.196005 -0.259001 -0.213786
-0.173147 -0.238216 -0.414416
-0.173147 0.023282 -0.550789
-0.173147 -0.121349 -0.219696
-0.196005 0.520586 -0.237378
-0.173147 0.629787 0.255039
-0.196005 -0.321436 -0.452291
-0.173147 -0.467778 0.261241
-0.173147 -0.044151 0.224348
-0.173147 0.167158 0.068088
-0.173147 -0.468371 -0.172567
-0.196005 -0.230683 -0.300322
-0.173147 0.329471 0.137163
-0.196005 -0.469119 0.059827
-0.173147 0.166477 0.000693
-0.173147 0.535765 -0.169762
-0.196005 0.493134 0.127694
-0.173147 0.511403 0.371708
-0.173147 0.122657 0.048339
-0.196005 0.355279 -0.363062
-0.173147 0.483571 -0.082309
0.009717 -0.507409 0.17861
0.009717 0.506487 -0.360531
-0.013141 0.612648 -0.029092
-0.013141 -0.343068 -0.053004
0.009717 0.33828 0.07714
-0.013141 0.421814 0.360538
0.009717 -0.008884 0.150037
-0.013141 -0.57368 -0.342977
-0.013141 0.14788 -0.341
-0.013141 0.155427 0.375657
0.009717 -0.124604 -0.173165
-0.013141 -0.303336 0.324775
0.009717 -0.170712 -0.391352
0.009717 0.327422 -0.19996
-0.013141 0.357469 -0.523129
0.009717 -0.548402 -0.106414
-0.013141 -0.221623 0.124612
-0.013141 0.094258 -0.133809
-0.013141 -0.068464 0.360177
-0.013141 -0.370417 -0.365084
0.009717 0.532679 0.163079
0.009717 0.177639 0.182802
0.009717 0.505371 -0.167605
0.009717 -0.043178 -0.023264
-0.013141 0.174707 0.01422
0.009717 -0.292539 -0.217799
-0.013141 -0.018551 -0.318943
0.009717 -0.41053 0.451037
-0.013141 0.330321 -0.36152
0.009717 0.600609 0.418477
0.009717 -0.372024 0.098752
-0.013141 -0.460143 -0.230537
0.009717 0.329349 0.22897
-0.013141 0.426012 -0.042027
-0.013141 -0.191754 -0.021275
0.009717 -0.171371 0.261306
0.009717 -0.457849 0.316573
0.009717 0.061975 0.272878
0.009717 0.292782 0.404509
0.009717 0.054338 -0.439995
-0.013141 -0.212235 0.42965
0.009717 0.233179 -0.449738
-0.013141 0.547685 0.293317
0.009717 0.042614 0.440976
0.009717 0.298979 -0.06935
-0.013141 -0.468393 -0.008162
-0.013141 -0.374211 0.221763
-0.013141 0.205572 -0.205328
0.009717 -0.479521 -0.41799
0.009717 -0.115099 0.072684
-0.013141 -0.284959 -0.448784
0.009717 -0.529456 0.446571
0.009717 0.42187 -0.277057
-0.013141 0.518509 0.047439
-0.013141 -0.01057 -0.201306
-0.013141 0.572441 -0.261672
0.005079 0.392831 0.485525
0.009717 0.2303 0.290539
0.009717 0.068067 0.049987
0.009717 -0.100066 0.467032
-0.013141 -0.057648 -0.466666
0.009717 -0.193983 -0.272555
0.009717 0.555903 -0.461784
-0.013141 0.438616 0.233295
0.009717 0.089541 -0.244352
-0.013141 0.424841 -0.431383
0.009717 -0.247904 -0.113368
-0.013141 -0.046281 0.253455
0.009717 -0.433235 -0.108371
-0.013141 0.199703 0.472887
0.009717 0.492597 0.44671
-0.013141 0.614267 -0.377633
0.009717 -0.267043 -0.347061
-0.013141 0.439977 0.12352
0.009717 0.189709 -0.103405
0.009717 0.251997 -0.301054
-0.013141 -0.267377 0.215011
-0.013141 -0.293485 0.039479
-0.013141 -0.117805 0.169347
0.009717 0.519798 -0.063934
0.009717 -0.38533 -0.47195
-0.013141 0.623826 0.215095
-0.013141 -0.492661 0.086321
-0.013141 0.221369 0.097642
0.009717 -0.483885 -0.321672
-0.013141 0.094312 -0.038789
0.009717 -0.305021 0.436772
-0.013141 -0.095855 -0.264721
-0.013141 0.410243 -0.161168
-0.013141 0.006006 -0.09993
0.009717 0.590592 -0.128552
-0.013141 0.606696 0.102614
-0.013141 0.092479 0.157754
-0.013141 -0.37415 -0.174233
-0.013141 -0.113776 -0.076093
0.009717 0.32641 0.319684
-0.013141 -0.581723 0.126317
-0.013141 -0.214365 0.336745
-0.013141 -0.029362 0.062991
-0.013141 0.139569 -0.443652
0.009717 -0.078589 -0.38431
-0.013141 0.030509 0.350638
-0.005741 -0.592438 -0.033321
0.009717 0.319673 -0.448783
0.009717 -0.361391 -0.269912
0.009717 -0.139617 -0.475021
0.009717 0.624896 0.331596
0.009717 0.278862 0.013012
0.009717 0.150416 0.264839
0.009717 0.0686 -0.325797
0.009717 -0.526369 0.268233
-0.013141 -0.378952 0.360285
0.009717 0.297294 0.149283
-0.013141 -0.206658 -0.180821
-0.013141 -0.520407 0.36458
-0.013141 -0.455352 0.236369
0.009717 -0.535205 -0.21026
0.009717 0.522093 0.371461
0.009717 0.34118 -0.285126
0.009717 0.356887 -0.005947
-0.013141 0.436984 0.043849
-0.003753 0.560433 0.485525
-0.013141 0.246699 0.213311
0.009717 0.630098 -0.213188
0.009717 -0.296773 0.129689
0.009717 -0.398664 0.015183
0.009717 -0.1411 0.334402
0.009717 0.25742 -0.153532
-0.013141 -0.266873 -0.035409
0.009717 0.475528 0.303518
-0.013141 -0.190778 0.054897
0.009717 0.496819 -0.242921
-0.013141 -0.556515 -0.488258
0.009717 0.366651 -0.104022
0.009717 0.431191 -0.357693
-0.013141 0.367158 0.417201
-0.013141 -0.135056 -0.32979
-0.013141 0.122625 0.442745
-0.013141 -0.425444 0.145357
-0.013141 0.166947 -0.269147
-0.013141 0.385815 0.17444
0.009717 0.138969 0.074838
-0.013141 -0.055693 -0.139489
0.009717 0.227546 0.363618
0.009717 -0.006969 -0.397491
0.009717 -0.364535 0.289849
0.009717 -0.191678 0.186331
-0.013141 -0.323339 -0.123144
0.009717 -0.024519 0.466865
0.009717 -0.176285 -0.102246
0.009717 0.385457 0.275147
0.009717 0.020624 -0.262938
0.009717 0.632716 -0.491124
0.009717 -0.13891 0.40841
-0.013141 -0.53166 0.022435
0.009717 0.267317 -0.382568
-0.013141 0.27324 -0.23829
-0.013141 0.269745 0.470541
0.009717 -0.125897 0.003488
-0.013141 0.200245 -0.387353
-0.013141 -0.420492 -0.30329
0.009717 0.142327 -0.18716
-0.013141 -0.490668 -0.140478
-0.013141 0.490301 -0.464672
0.009717 0.505706 0.241123
0.009717 0.052833 -0.185438
-0.013141 0.018991 -0.504767
-0.013141 -0.467649 0.420771
-0.013141 0.663462 -0.148027
0.009717 0.570983 -0.330065
-0.013141 0.468762 -0.102806
-0.013141 -0.272903 -0.283212
-0.013141 0.230083 -0.028116
-0.013141 0.035063 0.103761
-0.013141 0.019669 -0.028688
-0.013141 0.570824 -0.191906
0.009717 0.608952 0.0333
0.009717 -0.212512 -0.442713
0.009717 -0.522648 -0.039037
0.009717 -0.070372 0.121294
0.009717 0.480619 -0.011135
-0.013141 0.006013 0.213657
0.009717 -0.245841 0.481181
-0.013141 -0.203755 -0.33326
-0.013141 0.43088 -0.511571
-0.013141 -0.112462 0.243932
0.009717 -0.243147 0.282599
-0.013141 -0.350758 0.157532
0.009717 -0.161372 0.121444
0.009717 0.120494 0.321948
-0.013141 -0.425064 0.070148
-0.013141 -0.420364 -0.406929
-0.013141 0.31256 -0.130649
-0.013141 -0.010334 0.408886
0.009717 0.080912 0.389998
0.009717 -0.264192 0.369588
0.009717 -0.438276 -0.175276
0.009717 -0.030808 0.310735
-0.013141 0.47639 -0.300168
-0.013141 0.168676 -0.048736
-0.013141 -0.456377 -0.471762
0.009717 0.628508 -0.305967
0.009717 0.459916 0.177777
0.009717 0.112681 -0.392487
0.009717 0.54926 0.101304
0.009717 -0.530687 -0.281356
0.009717 -0.31251 -0.388764
-0.013141 0.33251 0.468192
-0.013141 0.067739 0.215958
-0.013141 0.28309 0.089973
0.009717 0.631249 0.159062
-0.013141 -0.156344 -0.219917
-0.013141 0.397204 -0.220702
-0.013141 0.176603 0.316855
-0.013141 0.618529 0.276028
0.009717 0.639706 -0.077999
-0.013141 -0.409937 -0.039415
0.009717 -0.038597 -0.252363
0.009717 0.234141 0.159223
-0.013141 -0.073275 -0.209372
-0.013141 0.554202 -0.017167
0.009717 -0.309931 0.249966
-0.013141 -0.560167 -0.16134
-0.011439 0.075617 0.485525
0.009717 -0.332475 -0.321722
-0.013141 0.230017 0.037224
0.009717 -0.081217 -0.321461
0.009717 0.381811 0.120178
-0.013141 0.423128 0.435821
-0.013141 0.526309 -0.411119
-0.013141 0.275346 0.337293
-0.013141 0.578947 0.359844
-0.013141 -0.524861 -0.388833
0.009717 -0.341784 0.002145
0.009717 0.226789 0.426559
-0.013141 0.607215 -0.435226
-0.013141 -0.085289 0.296285
-0.013141 0.373082 -0.457196
-0.013141 -0.358156 0.414179
0.009717 -0.249052 0.079581
-0.013141 0.131345 -0.503462
-0.013141 0.568486 0.229656
0.009717 0.640352 0.466973
-0.013141 -0.553073 0.077104
-0.013141 0.059994 -0.377185
-0.013141 0.189047 -0.477246
-0.013141 0.172901 0.12724
-0.013141 0.209811 -0.331189
-0.013141 -0.357297 -0.428376
0.009717 0.132608 -0.085922
0.009717 -0.435441 -0.357379
-0.013141 0.376697 -0.400723
0.006717 0.449389 0.485525
-0.013141 0.060918 -0.086299
-0.013141 -0.471013 -0.064657
-0.013141 -0.053299 0.176468
0.009717 0.117871 0.203709
-0.013141 -0.434597 0.375549
0.009717 -0.004084 0.018607
-0.013141 -0.260679 -0.162747
-0.013141 0.378762 0.046495
0.009717 0.114983 0.020171
0.009717 -0.060476 0.412923
-0.013141 0.01209 0.27587
0.009717 -0.516799 -0.458146
-0.013141 0.371453 -0.325343
-0.013141 -0.40898 0.265359
-0.013141 0.259013 -0.098603
-0.013141 0.188011 0.232695
-0.013141 -0.238383 -0.241054
-0.013141 -0.12 -0.411256
-0.013141 0.486132 0.094842
-0.013141 0.289529 0.257967
0.009717 -0.417241 0.197864
-0.013141 0.220958 -0.262892
0.009717 -0.399962 -0.216067
0.009717 0.443417 -0.197408
0.009717 0.468129 0.376891
-0.013141 -0.364663 0.468401
0.009717 -0.216965 -0.066586
0.009717 0.043322 0.1642
-0.013141 0.109741 -0.299401
-0.013141 0.56526 -0.081735
-0.013141 -0.3346 -0.49131
-0.013141 -0.384734 -0.112236
0.000359 0.664754 -0.030141
0.009717 -0.040063 -0.084669
0.009717 -0.10419 -0.123513
0.009717 -0.532954 0.121077
-0.013141 -0.313001 0.385789
-0.013141 0.375169 0.33517
-0.013141 0.210205 -0.147175
-0.013141 -0.559841 0.233015
-0.013141 -0.246195 0.012998
-0.013141 -0.097129 -0.50203
0.009717 -0.247026 0.164237
0.009717 0.355664 -0.156297
-0.013141 0.548705 0.4096
0.009717 -0.228674 -0.381757
-0.013141 -0.536532 0.31328
0.009717 0.164212 0.422839
-0.013141 -0.359898 0.05441
-0.013141 0.074643 0.323661
0.009717 0.581206 0.179274
0.009717 0.080759 0.10127
0.009717 0.189931 0.064541
0.009717 0.415285 0.00369
0.009717 -0.456449 0.037021
-0.013141 -0.169419 0.370117
-0.013141 -0.506388 0.224123
0.009717 -0.142247 0.209801
0.009717 -0.009956 -0.46994
-0.013141 0.473288 -0.416713
-0.013141 -0.080811 0.002172
-0.013141 0.615641 -0.165934
0.009717 0.039506 -0.129945
-0.013141 -0.473148 0.477946
-0.013141 0.34268 -0.060553
0.009717 -0.322124 0.201401
0.009717 -0.331165 -0.185007
-0.013141 -0.316778 -0.259543
-0.013141 -0.147072 -0.268757
0.009717 0.330944 0.373238
0.009717 0.052821 -0.000235
0.009717 0.392472 0.226345
-0.013141 -0.463449 0.187877
0.009717 0.416729 0.313064
-0.013141 -0.550091 0.163866
-0.013141 -0.473485 0.131436
0.009717 -0.302152 -0.085328
-0.013141 0.30826 -0.018762
-0.013141 0.024894 -0.341481
-0.013141 0.341308 0.154254
0.009717 -0.427502 -0.26071
-0.013141 -0.00294 -0.147796
-0.013141 -0.490235 -0.192325
0.009717 0.183815 -0.427007
-0.013141 -0.319743 0.081806
-0.013141 0.542853 -0.14685
-0.013141 -0.26034 0.424012
0.009717 0.235121 -0.49812
-0.013141 -0.30596 0.479378
0.009717 -0.400886 0.401223
0.009717 0.578307 -0.400039
-0.013141 -0.216477 0.220351
-0.013141 0.504403 0.194232
-0.013141 -0.472126 -0.281375
0.009717 -0.380944 -0.31669
0.009717 0.141947 -0.234658
-0.013141 0.549796 -0.36971
-0.013141 0.290982 -0.282275
-0.013141 -0.269077 -0.391264
0.006507 0.0269 0.485525
0.009717 0.164833 -0.14367
0.009717 -0.503471 -0.090406
-0.013141 -0.143899 0.449516
-0.013141 -0.155364 -0.145462
0.009717 -0.08026 -0.431517
0.009717 -0.157846 -0.058788
0.009717 0.384793 -0.04417
-0.013141 -0.117909 0.113676
0.009717 0.651887 0.398693
-0.013141 0.645755 0.010846
-0.013141 -0.222635 0.382702
-0.013141 0.091285 -0.198684
-0.013141 -0.511161 -0.499023
-0.013141 0.344024 0.26685
-0.013141 -0.0378 -0.37108
-0.013141 -0.174337 0.311232
0.009717 0.533854 -0.273135
-0.013141 -0.203645 -0.131725
-0.013141 -0.480769 0.274926
0.009717 0.438405 -0.132882
-0.013141 -0.560697 0.386725
-0.013141 -0.102558 0.424834
-0.013141 -0.031788 0.108831
0.009717 0.1044 0.255423
-0.013141 -0.160584 -0.441316
0.009717 0.518834 -0.492226
-0.013141 0.271786 -0.421931
-0.013141 0.557061 -0.505642
0.009717 -0.413203 0.307599
-0.013141 0.595061 -0.479593
-0.013141 0.016083 -0.430872
0.009717 -0.570937 0.348499
0.009717 0.292193 0.20286
0.009717 -0.069729 0.073776
-0.013141 0.332912 -0.238705
-0.013141 0.401523 -0.086282
-0.013141 0.026241 0.059322
0.009717 0.143368 -0.015094
0.009717 0.4695 -0.063857
0.009717 -0.305533 -0.039243
0.009717 0.289864 -0.343563
0.009717 -0.110741 -0.219076
-0.013141 -0.528753 -0.342628
0.009717 -0.067438 0.212443
-0.013141 0.458356 -0.240672
-0.013141 0.508005 0.323886
-0.013141 -0.136857 0.281238
-0.013141 0.037006 -0.297519
-0.013141 -0.304751 0.167373
-0.013141 0.648935 0.116482
0.009717 0.156798 -0.387131
-0.013141 0.467104 -0.370304
-0.013141 0.129238 0.120157
-0.013141 0.204292 0.3961
-0.013141 0.290916 -0.473295
0.009717 0.269153 -0.196061
-0.013141 0.536194 -0.315553
-0.013141 0.433986 -0.312722
-0.013141 -0.510957 0.412674
0.009717 0.028869 0.399132
-0.013141 0.102978 0.06399
0.009717 0.223894 0.243548
0.009717 -0.038429 -0.176267
0.009717 0.126017 0.398794
-0.013141 -0.417177 -0.452112
0.009717 0.331472 -0.398907
0.009717 -0.414936 0.107663
0.009717 0.522225 0.010249
0.009717 0.440111 0.276037
0.009717 0.200701 -0.294234
-0.013141 0.410604 0.091177
-0.013141 -0.081799 -0.041506
0.009717 0.309588 0.044228
-0.009161 -0.534809 0.485525
0.009717 -0.231463 -0.02419
0.009717 -0.036394 -0.504582
0.009717 0.617392 -0.263842
-0.013141 0.078212 0.430583
-0.013141 0.493307 0.409648
-0.013141 -0.508045 -0.235477
0.009717 0.22863 -0.077457
0.009717 -0.476786 -0.370904
0.009717 -0.267168 -0.488327
-0.013141 0.619683 0.380499
0.009717 0.508283 0.124411
0.009717 -0.19337 0.018216
0.009717 0.631785 0.070084
0.009717 0.540398 -0.230394
-0.013141 0.072094 -0.489303
-0.013141 -0.12628 0.372686
0.009717 0.319966 -0.505809
0.009717 -0.387216 -0.514966
0.009717 0.032228 0.314234
0.009717 -0.012622 0.372591
-0.013141 0.627366 -0.12466
-0.013141 -0.067136 0.482066
-0.013141 -0.298032 -0.003835
-0.013141 -0.043508 -0.413497
0.009717 0.141116 0.477998
-0.013141 -0.471389 0.353698
-0.013141 0.369853 -0.260218
0.009717 -0.154399 0.165435
0.00289 0.509012 0.485525
0.009717 0.571486 0.064938
-0.013141 0.18803 0.275814
0.009717 0.034097 -0.061615
-0.013141 0.135725 -0.122623
0.009717 -0.320476 -0.452881
0.009717 -0.500869 0.315764
0.009717 0.235231 0.479795
0.009717 -0.590462 -0.136091
-0.013141 0.03664 -0.217097
-0.013141 0.247167 0.397468
0.009717 -0.080348 -0.16485
0.009717 0.536479 0.212625
-0.013141 0.093491 -0.351985
0.009717 -0.239585 -0.315432
0.009717 0.144484 -0.306069
0.009717 -0.31429 0.29157
-0.013141 0.594158 0.146917
0.009717 0.369018 -0.197418
-0.013141 -0.367336 -0.228281
0.009717 -0.20284 0.095301
0.009717 -0.252716 -0.431868
0.009717 -0.569715 0.457199
-0.013141 0.481987 0.027553
0.009717 0.327563 0.427263
-0.013141 -0.382145 -0.070796
0.009717 -0.34459 0.362589
-0.013141 -0.173688 -0.480516
-0.013141 0.106972 0.367513
0.009717 -0.477355 -0.505367
-0.013141 0.471149 -0.167722
-0.013141 -0.129196 -0.037981
0.009717 0.396801 0.400301
0.009717 0.231053 -0.363294
-0.013141 -0.121192 -0.36838
0.009717 0.228039 -0.406919
-0.013141 -0.301825 -0.356607
0.009717 -0.012179 0.252236
0.009717 0.451218 -0.452634
0.009717 0.26393 -0.02695
-0.013141 0.639835 0.430303
0.009717 0.199366 -0.008933
0.009717 -0.049548 0.035878
0.009717 0.593279 0.298486
-0.013141 -0.59078 -0.257378
0.009717 0.001133 0.101842
0.009717 -0.244155 -0.192061
-0.013141 0.009953 0.449034
0.009717 0.134538 0.166676
-0.013141 -0.567568 0.272844
0.009717 -0.390913 -0.145229
-0.013141 0.091983 -0.418795
-0.013141 0.214898 0.186608
0.009717 -0.170816 -0.327363
0.009717 0.601939 0.479869
-0.013141 -0.205019 -0.405088
0.009717 0.484825 0.060652
0.009717 0.333081 -0.328472
0.009717 0.606395 0.243296
0.009717 -0.564732 -0.058114
-0.013141 -0.300154 -0.173649
0.000663 0.664754 0.31431
0.009717 -0.562604 -0.374014
0.009717 -0.174604 -0.188266
0.009717 0.544025 0.326006
-0.013141 -0.146932 0.080843
-0.013141 0.6542 -0.264156
-0.013141 0.530999 -0.188245
0.009717 0.234252 -0.120963
0.009717 -0.378336 -0.030824
-0.013141 0.510497 -0.024356
0.009717 0.601706 -0.090032
0.009717 0.53949 0.454445
0.009717 -0.345988 -0.146553
0.009717 -0.420213 -0.491083
-0.013141 -0.429334 -0.140675
-0.013141 -0.052771 -0.29879
-0.013141 0.47986 -0.206423
0.009717 -0.044026 -0.33898
-0.013141 -0.264093 0.330302
0.009717 0.515988 -0.103372
0.001455 0.64968 -0.525942
0.009717 0.308874 0.109467
-0.013141 0.596613 -0.230344
-0.013141 0.660757 0.367667
-0.013141 0.059552 0.135895
0.009717 0.152805 0.222148
0.009717 -0.085373 0.328475
-0.013141 0.413928 -0.384855
-0.013141 -0.176934 0.22965
-0.013141 0.567256 0.020013
0.009717 -0.389318 -0.428848
-0.013141 -0.007838 -0.243661
0.009717 -0.101764 -0.464476
0.009717 -0.491173 0.01867
0.009717 0.32589 -0.101822
-0.013141 0.03517 -0.465248
0.009717 0.361623 -0.355444
0.009717 -0.348832 0.246986
0.009717 -0.446288 -0.438278
0.009717 -0.55064 -0.438893
-0.013141 -0.507683 -0.008193
0.009717 0.231077 -0.223728
-0.013141 0.391367 -0.491494
-0.013141 -0.133183 0.034034
0.009717 0.199972 -0.050772
0.009717 0.186585 -0.359133
-0.013141 0.198787 0.351143
-0.013141 0.293857 -0.164539
-0.013141 0.46077 0.444791
-0.013141 -0.396465 0.170981
0.009717 -0.194493 0.147787
-0.013141 -0.454254 -0.332566
-0.013141 -0.29248 -0.316495
0.009717 -0.390703 0.137621
-0.013141 0.395387 -0.293108
-0.013141 0.599994 -0.289396
-0.013141 -0.069917 -0.092199
0.009717 -0.367301 0.331693
-0.013141 0.299305 -0.395327
-0.013141 -0.432949 0.017294
0.009717 -0.337623 0.129806
0.009717 0.37212 0.447474
-0.013141 0.042859 0.244976
-0.013141 -0.544279 -0.247628
0.009717 0.155973 0.038431
0.009717 -0.422524 0.235629
-0.013141 0.662301 -0.483726
0.009717 0.0853 -0.104614
-0.013141 0.23359 0.320785
0.009717 0.262205 0.112026
0.009717 0.449779 0.410159
0.009717 -0.116435 -0.286955
-0.013141 0.504386 0.271272
0.009717 0.312143 -0.260571
0.009717 -0.096374 0.375893
-0.013141 0.209857 0.134873
0.009717 -0.495195 0.38724
0.009717 -0.3359 0.458231
-0.013141 0.001154 -0.062653
0.009717 -0.458527 0.451941
-0.013141 -0.442241 0.28283
-0.013141 -0.390987 -0.266358
-0.013141 0.128229 -0.054905
0.009717 -0.21879 -0.479719
0.009717 -0.173662 0.422489
-0.013141 -0.257866 0.051188
0.009717 -0.322894 0.043757
0.009717 -0.554817 0.003833
-0.013141 -0.572948 -0.302823
-0.013141 0.488159 0.160462
0.009717 0.376921 0.076116
0.009717 0.001109 -0.296718
-0.013141 0.015772 0.17502
0.009717 -0.305115 -0.48944
-0.013141 -0.428107 0.332894
-0.013141 -0.203344 -0.228647
0.009717 -0.101932 0.031863
0.009717 -0.006297 -0.345514
0.009717 -0.338883 -0.090298
-0.013141 0.002952 0.325909
0.009717 0.059515 0.349439
0.009717 0.265548 0.441886
0.009717 0.653073 0.228443
-0.013141 -0.218155 0.164582
-0.013141 0.16109 -0.090472
-0.013141 0.456486 0.325101
-0.013141 0.488813 -0.133571
-0.013141 0.11444 -0.470873
0.009717 0.298171 0.466402
0.009717 -0.040486 -0.443656
0.009717 -0.216374 0.30769
0.009717 -0.089837 0.175761
-0.013141 0.062984 0.078207
-0.013141 0.342823 -0.488558
0.009717 -0.19722 0.363255
-0.013141 -0.273588 0.462269
0.009717 0.097944 0.291452
0.009717 -0.443777 -0.055976
-0.013141 -0.020526 -0.278099
-0.013141 0.262674 0.160019
-0.013141 0.33665 0.115892
0.009717 0.48186 -0.328104
-0.013141 0.474332 0.225784
0.009717 -0.492236 0.435086
0.009717 0.49634 -0.400052
0.009717 0.640331 -0.366384
-0.013141 0.191489 0.430461
-0.013141 -0.243542 -0.512113
0.009717 0.16514 -0.508056
-0.013141 -0.428043 -0.212536
0.009717 0.0891 -0.005316
0.009717 -0.502815 0.471263
-0.013141 0.297902 0.365764
-0.013141 -0.458903 -0.392726
0.009717 0.495211 -0.279193
-0.013141 -0.122261 0.484356
-0.013141 0.467625 0.270096
-0.013141 0.444757 -0.010998
-0.013141 -0.335024 -0.293766
-0.013141 0.117026 -0.249846
0.009717 -0.3807 0.194151
0.009717 -0.489005 -0.256027
-0.013141 -0.405823 -0.35781
0.009717 0.658902 -0.179204
-0.013141 -0.029926 0.21722
-0.013141 0.564861 0.124447
0.009717 -0.281594 0.096994
0.009717 -0.304051 -0.146068
-0.013141 0.611013 0.451816
0.009717 0.398496 -0.440137
0.009717 0.664463 -0.444232
0.009717 0.308201 0.288751
-0.013141 -0.013024 -0.013876
-0.013141 -0.442266 0.111981
0.009717 0.191042 -0.255575
-0.013141 0.08638 -0.272197
0.009717 -0.099737 0.268384
0.009717 -0.141474 -0.093849
0.009717 -0.266392 -0.005747
-0.013141 -0.460416 -0.112847
0.009717 -0.159675 -0.293366
0.009717 0.533358 0.269854
0.009717 -0.52628 0.071042
-0.013141 -0.291113 0.276837
0.009717 0.562838 -0.054409
-0.013141 0.036764 -0.163251
0.009717 -0.538933 -0.144039
-0.013141 -0.584055 0.048982
-0.013141 0.528714 -0.464507
-0.013141 -0.221958 0.075848
0.009717 0.656724 0.036515
0.009717 -0.107247 0.138698
-0.013141 -0.20821 0.254904
0.009717 0.1341 0.354755
-0.013141 0.56811 0.439345
-0.013141 -0.183525 0.450523
-0.013141 0.57402 0.317561
-0.013141 0.378553 0.380264
0.009717 0.27995 -0.448543
0.009717 -0.176484 -0.237884
-0.013141 -0.047938 -0.058857
0.009717 0.010362 -0.184283
0.009717 0.451481 -0.487994
-0.013141 -0.062348 0.439826
-0.013141 -0.419141 0.421042
0.009717 0.556692 0.378573
-0.013141 0.00244 -0.372313
0.009717 -0.274716 0.247854
0.009717 -0.265197 -0.240041
-0.013141 0.416446 0.263417
-0.013141 -0.171184 -0.354171
-0.013141 0.359085 0.298658
-0.013141 0.177133 -0.306804
-0.013141 -0.517971 -0.423265
0.009717 -0.500258 0.133828
0.009717 0.506436 -0.205182
0.009717 0.263953 0.251057
-0.013141 0.252073 0.073816
-0.013141 0.050733 -0.2491
-0.013141 0.423196 0.398931
-0.013141 0.525721 0.089349
0.009717 -0.480119 0.245389
0.009717 -0.103902 -0.34795
0.009717 0.164375 0.098721
-0.013141 0.301729 0.432279
-0.013141 -0.062221 -0.509585
-0.013141 -0.341085 0.329564
0.009717 0.492423 0.351911
-0.013141 0.149206 0.295341
-0.013141 0.600408 0.003518
-0.013141 -0.226454 -0.273768
-0.013141 0.055861 0.382217
0.009717 -0.106167 -0.025436
0.009717 0.264925 0.287251
-0.013141 -0.558152 -0.197922
-0.013141 -0.508778 0.04846
-0.013141 -0.437826 -0.082741
-0.013141 -0.392679 0.082929
0.009717 -0.007545 -0.122129
0.009717 -0.469827 0.105709
-0.013141 0.565387 -0.437637
0.009717 0.170661 0.456781
0.009717 0.407291 0.037229
0.009717 -0.345115 -0.369825
-0.013141 0.265173 -0.336282
-0.013141 -0.122259 -0.24209
-0.013141 0.079324 0.249699
0.009717 -0.535285 -0.317799
0.009717 -0.237211 0.435547
-0.013141 0.318884 0.205569
0.009717 0.461012 0.089799
-0.013141 0.522386 -0.248556
-0.013141 -0.539028 0.19626
0.009717 0.206883 0.024449
-0.013141 -0.371202 0.259142
0.009717 -0.452748 0.400172
-0.013141 0.424481 -0.245282
-0.013141 -0.170019 0.008205
0.009717 0.073714 -0.064401
-0.013141 -0.533256 -0.086075
-0.013141 0.264028 0.034282
-0.013141 0.197927 -0.076024
0.009717 -0.553691 0.050742
-0.013141 0.340264 0.013137
0.009717 0.388455 -0.146946
-0.013141 0.44146 0.195061
0.009717 0.224195 -0.188227
0.009717 -0.246661 0.127655
0.009717 -0.460851 -0.200751
0.009717 -0.201249 0.402556
-0.013141 -0.348939 -0.395399
-0.013141 0.257673 -0.480374
-0.013141 0.312164 -0.308844
-0.013141 0.400021 0.137443
0.009717 0.571635 0.254546
0.009717 -0.390421 0.048055
0.009717 0.043465 -0.488806
0.009717 -0.368826 -0.202798
-0.013141 0.381842 -0.006003
0.009717 0.060633 -0.03327
0.009717 0.361082 0.355594
0.009717 0.550004 0.037801
-0.013141 0.27585 -0.06052
0.009717 0.590897 -0.166473
-0.013141 0.568199 -0.118143
0.009717 -0.369722 0.388545
0.009717 0.173351 -0.200051
0.009717 -0.234869 0.034777
0.009717 0.245368 0.014678
0.009717 0.005973 -0.223383
0.009717 0.396623 -0.367533
-0.013141 -0.271042 -0.194563
-0.013141 -0.111636 -0.194706
-0.013141 -0.464666 -0.161467
0.009717 -0.079862 -0.069981
0.009717 -0.441747 -0.005394
0.009717 0.447969 0.146419
-0.013141 -0.116937 0.332611
-0.013141 -0.49877 -0.043093
-0.013141 -0.386536 0.316993
0.009717 -0.157417 0.028873
0.009717 -0.378434 -0.387886
-0.013141 0.531795 -0.085114
0.009717 0.085576 0.453579
0.009717 -0.449078 0.25969
0.009717 0.228272 0.061231
-0.013141 -0.334562 -0.348217
-0.013141 0.203986 -0.440081
0.009717 0.267023 -0.271482
-0.013141 0.159928 0.199008
-0.013141 0.143514 -0.407082
-0.013141 0.445724 -0.274978
-0.013141 -0.555847 0.437716
-0.013141 0.576156 0.0899
0.009717 -0.136597 -0.130671
0.009717 -0.155144 0.297061
-0.013141 0.070645 0.015605
-0.013141 -0.414688 -0.171907
0.009717 -0.513196 -0.185699
0.009717 -0.238148 0.400712
-0.013141 0.351994 0.18545
0.009717 0.44652 -0.419998
0.009717 0.414438 0.457899
0.009717 0.610079 -0.353339
0.009717 0.11953 -0.431022
0.009717 -0.138212 -0.38481
-0.013141 -0.494047 -0.342998
0.009717 0.101345 0.126891
0.009717 -0.513615 -0.360578
-0.013141 0.506558 -0.329423
-0.002804 -0.592438 -0.367654
0.009717 -0.562693 0.194556
0.009717 -0.250891 -0.275442
-0.013141 -0.358721 -0.013845
-0.013141 0.476242 0.125927
-0.013141 -0.043697 0.381405
-0.013141 -0.033087 0.287596
-0.013141 -0.527363 -0.164189
0.009717 0.420174 -0.464471
0.009717 -0.067585 0.281285
0.009717 -0.248092 -0.076129
-0.013141 0.373758 0.212699
0.009717 -0.27411 -0.133341
0.009717 0.574526 -0.223431
-0.013141 -0.143477 -0.188189
0.009717 -0.068572 0.247469
0.009717 0.177423 0.359814
0.009717 0.540491 -0.348617
-0.013141 -0.252563 0.26156
0.009717 -0.543838 0.366357
-0.013141 -0.273959 0.132456
0.009717 -0.451877 -0.134875
-0.013141 0.623044 0.182712
0.009717 0.538657 -0.391801
0.009717 0.457568 0.246166
0.009717 0.388029 -0.241694
-0.013141 0.109751 -0.08715
0.009717 -0.559954 -0.231055
-0.013141 -0.32115 -0.205488
-0.013141 0.659004 0.206432
-0.013141 -0.290777 -0.065623
0.009717 0.351694 0.480398
0.009717 -0.476967 0.069896
0.009717 0.43686 0.343523
0.009717 0.146682 -0.465211
0.009717 0.661204 -0.221816
0.009717 0.413533 -0.185432
0.009717 -0.063986 -0.272143
-0.013141 -0.197736 0.289212
-0.013141 0.428464 -0.103715
0.009717 -0.355941 0.030936
0.009717 -0.099356 -0.52439
-0.013141 -0.230003 -0.209424
0.009717 -0.279365 0.057157
0.009717 0.593701 0.343286
0.009717 0.040181 -0.387143
0.009717 -0.096402 0.228692
-0.013141 0.624414 -0.327682
0.009717 0.607653 -0.058804
0.009717 -0.285989 0.338405
0.009717 -0.484923 -0.119183
-0.013141 0.52476 0.438072
0.009717 0.408228 -0.122121
0.009717 0.026976 0.02506
-0.013141 -0.062775 -0.350466
0.009717 0.576264 -0.490929
0.009717 0.290154 0.321093
0.009717 0.215044 0.332514
-0.013141 -0.093458 0.069457
-0.013141 -0.510521 -0.315986
-0.013141 -0.101029 -0.157768
-0.013141 -0.510936 -0.272109
0.009717 -0.229533 -0.16406
-0.013141 -0.523724 0.101346
0.009717 -0.318289 -0.236057
0.009717 0.35773 0.026039
0.009717 -0.440804 -0.295641
-0.013141 -0.438129 0.206651
0.009717 0.317716 0.258703
0.009717 0.348549 -0.461393
0.009717 -0.412633 -0.323499
-0.013141 -0.012354 -0.507825
0.009717 -0.347328 -0.473866
0.009717 -0.21662 -0.352713
-0.013141 -0.342972 0.289244
-0.013141 -0.116375 0.200744
-0.013141 -0.066808 0.100099
-0.013141 -0.0515 0.316399
0.009717 0.528014 0.416868
0.009717 0.369907 0.16009
-0.013141 -0.143694 0.241613
-0.013141 0.616539 0.055096
0.009717 -0.519808 0.34321
-0.013141 -0.424123 -0.513315
0.009717 0.44005 0.064992
-0.013141 0.580199 0.200609
-0.013141 0.329212 0.340848
-0.013141 -0.377592 -0.295614
0.009717 -0.356584 -0.508745
0.009717 -0.168238 0.080123
-0.013141 0.121116 -0.00021
-0.013141 0.145486 -0.16612
0.009717 0.119163 -0.361943
0.009717 -0.535536 -0.491689
-0.013141 0.281353 -0.130288
0.009717 -0.345643 -0.030561
0.009717 0.255731 0.376927
0.009717 -0.172239 0.335633
-0.013141 0.550816 0.173976
0.009717 -0.504998 -0.3961
0.009717 -0.438871 0.087769
-0.013141 -0.504273 0.15455
0.009717 0.598664 0.382216
-0.013141 0.563934 -0.291542
0.009717 -0.213076 -0.299258
0.009717 0.019877 0.197873
0.009717 0.626728 -0.148113
-0.013141 0.603449 -0.200083
0.009717 -0.426039 0.043141
-0.013141 -0.405461 -0.008737
-0.013141 -0.367438 -0.45767
-0.013141 0.315086 0.089498
0.009717 0.312049 -0.229602
-0.006906 -0.592438 0.331213
0.005757 -0.58151 0.485525
-0.013141 0.168141 0.055357
-0.013141 -0.162908 -0.086266
0.009717 0.464627 -0.390996
-0.013141 0.144556 0.416036
-0.013141 -0.189174 0.110935
-0.013141 0.616633 0.312559
-0.013141 -0.295369 0.202038
-0.013141 0.35871 -0.176792
0.009717 0.0513 -0.282551
0.009717 0.449214 0.009213
-0.013141 -0.507119 0.451028
0.009717 0.502327 -0.447842
0.009717 0.530904 -0.020998
-0.013141 -0.232765 -0.418443
0.009717 0.014618 0.428192
0.009717 0.648737 0.28964
0.009717 0.574762 -0.015786
0.009717 -0.173664 -0.031077
-0.008356 0.245878 -0.525942
-0.008226 0.199714 -0.525942
-0.013141 0.304365 0.129485
0.009717 -0.046326 -0.121304
0.009717 0.030627 0.26726
0.009717 0.179248 0.25116
-0.013141 0.378584 0.099998
-0.013141 0.426037 0.484997
0.009717 -0.336092 0.174118
-0.013141 -0.291439 -0.412217
-0.013141 0.588527 0.265986
-0.013141 0.195395 -0.03092
0.009717 0.422402 0.219895
-0.013141 0.442908 -0.152718
-0.013141 -0.164228 0.201829
-0.013141 0.242118 -0.140163
0.009717 -0.586374 -0.178472
0.009717 0.654911 0.139693
0.009717 0.000259 -0.034556
0.009717 -0.11675 -0.054097
-0.013141 -0.080895 0.157601
-0.013141 0.334526 -0.151801
-0.013141 -0.229792 -0.084616
0.009717 -0.438832 -0.392337
-0.013141 -0.221009 -0.041238
0.009717 0.168854 0.291846
-0.013141 0.316607 -0.084178
0.009717 -0.293103 0.386728
0.009717 -0.565502 0.114782
-0.013141 -0.242102 -0.1324
0.009717 -0.425823 0.352636
-0.013141 -0.182336 -0.288651
0.009717 -0.035607 -0.308827
-0.013141 -0.558056 -0.276508
0.009717 0.484807 0.197001
0.009717 0.32795 -0.02072
-0.013141 -0.477161 0.320857
0.009717 -0.440524 -0.228036
0.009717 0.089658 0.192859
0.009717 -0.234007 0.334563
0.009717 0.152693 -0.108492
0.009717 -0.162991 0.462475
-0.013141 0.449857 0.384753
-0.013141 0.148068 0.241292
0.009717 -0.149708 -0.348937
0.009717 0.035685 0.135007
0.009717 0.591696 0.447994
-0.00586 -0.526119 -0.525942
0.009717 0.119963 -0.214031
-0.013141 0.259453 -0.173066
-0.013141 -0.03317 -0.221213
0.009717 0.477341 -0.186301
-0.013141 0.358707 0.06891
0.009717 0.360896 0.398697
0.009717 -0.46601 0.149474
0.009717 -0.249995 0.223898
0.009717 -0.550752 -0.343573
-0.013141 -0.182061 -0.256577
0.009717 0.388369 -0.469306
0.009717 0.019619 -0.152467
0.009717 0.622093 0.130466
-0.013141 -0.079729 0.263407
0.009717 0.597314 0.085582
0.005575 -0.276565 0.485525
0.009717 -0.041944 0.08508
-0.013141 0.214539 0.003139
0.009717 0.256157 0.340001
0.009717 -0.131928 0.100344
0.009717 0.096067 -0.313873
0.009717 -0.003073 -0.428219
-0.013141 -0.033878 -0.102955
-0.001048 0.664754 0.167931
0.009717 -0.589036 0.393743
0.009717 -0.509552 -0.149466
-0.013141 0.526754 0.129784
-0.013141 -0.389827 0.426783
-0.013141 -0.248201 -0.343339
-0.013141 0.158053 0.15314
0.009717 -0.097913 0.405703
-0.013141 -0.497829 -0.472368
-0.013141 -0.313192 -0.470557
-0.013141 -0.2848 0.078164
0.009717 -0.394625 -0.055758
-0.013141 -0.321119 -0.08317
0.009717 0.357048 -0.501274
-0.013141 0.272656 0.198727
0.009717 0.572507 0.408649
0.009717 -0.489806 -0.0614
-0.013141 -0.563624 -0.034372
0.009717 -0.038161 0.164889
0.009717 -0.106913 -0.093824
0.009717 0.26841 -0.513991
0.009717 -0.390142 0.257788
-0.013141 -0.547851 -0.459847
-0.013141 0.081278 0.352608
0.009717 0.016231 0.365576
0.009717 -0.435064 0.431283
-0.013141 -0.022086 -0.448086
-0.013141 -0.169182 -0.412937
-0.013141 0.444696 0.294333
-0.013141 -0.484318 -0.436215
0.009717 0.007198 -0.081124
0.009717 0.518086 0.307971
-0.013141 -0.243869 0.197003
-0.013141 0.48246 -0.26537
-0.013141 -0.435986 0.456607
0.009717 -0.52686 -0.06842
0.009717 -0.16127 -0.495166
0.009717 -0.324983 0.319126
0.009717 0.661845 0.258661
-0.013141 -0.40847 0.360603
0.009717 0.154313 0.128914
0.009717 0.587411 0.129531
-0.013141 -0.218945 0.02519
-0.013141 -0.362077 0.114448
0.009717 -0.221578 -0.255856
0.009717 0.05464 -0.516037
0.009717 0.184752 0.141485
-0.013141 0.297383 0.013277
-0.013141 0.506734 -0.384727
-0.013141 0.05335 0.414876
0.009717 -0.175741 -0.451903
0.009717 -0.073877 -0.131509
0.009717 -0.412973 -0.286268
-0.013141 0.637619 -0.096304
0.009717 0.450332 -0.028541
-0.013141 0.643321 -0.417228
0.009717 -0.204131 -0.09294
-0.013141 -0.348676 -0.105786
0.009717 0.063378 0.309225
0.009717 0.475413 -0.504876
-0.013141 0.646091 -0.194504
0.009717 0.130588 0.286374
-0.013141 -0.140041 -0.493275
-0.013141 0.277129 0.395172
-0.013141 -0.562188 0.020496
-0.013141 0.158622 0.472956
0.009717 0.206039 -0.500853
-0.013141 0.304829 0.483273
0.009717 0.083601 -0.394789
-0.013141 -0.191033 -0.5064
0.009717 -0.268692 -0.313737
0.009717 0.541325 -0.173386
-0.013141 0.208365 -0.103238
-0.013141 0.32028 -0.430718
-0.013141 -0.494026 0.190748
-0.013141 -0.169644 0.281496
0.009717 -0.33159 0.095436
-0.013141 0.066778 -0.21429
-0.013141 0.345292 0.436324
0.009717 -0.468892 0.289735
-0.013141 0.459455 -0.342323
-0.013141 -0.320047 -0.435044
-0.013141 -0.537071 0.250953
-0.013141 0.038968 0.192403
-0.013141 0.290525 0.290944
-0.013141 0.319828 0.40965
0.009717 0.20604 -0.471877
-0.013141 0.056222 -0.123864
-0.013141 0.64307 -0.225356
0.009717 0.210037 0.269852
-0.013141 -0.473641 0.021575
0.009717 0.337828 0.171656
0.009717 0.045022 -0.094144
0.009717 0.279659 -0.309491
-0.013141 -0.077332 0.407507
-0.013141 -0.429124 -0.374906
0.009717 0.580149 -0.284533
-0.013141 -0.265491 -0.112247
0.009717 0.06044 0.243798
0.009717 0.591783 -0.443667
0.009717 -0.464616 -0.081022
-0.013141 0.379797 0.463237
-0.013141 -0.403673 -0.477555
-0.013141 0.002392 0.136649
0.009717 -0.33269 -0.27198
0.009717 0.342413 0.13684
-0.013141 0.261877 0.270088
-0.013141 0.38139 -0.359094
0.009717 -0.376157 -0.345024
-0.013141 0.232681 -0.289124
0.009717 -0.131378 -0.31149
0.009717 0.178049 -0.031814
0.009717 0.198962 -0.160406
-0.013141 0.350792 -0.111063
0.009717 -0.061209 0.344417
0.009717 0.292805 0.067496
0.009717 0.455782 0.041005
0.009717 -0.369946 0.068525
-0.013141 0.241241 0.348799
0.009717 -0.208702 -0.514239
0.009717 -0.342999 0.422442
-0.013141 0.053516 -0.340436
0.009717 -0.110065 -0.254293
0.009717 -0.462363 0.220613
-0.013141 0.108568 0.181432
-0.013141 -0.087982 -0.454142
-0.013141 0.623417 0.247861
0.009717 -0.368638 -0.127323
-0.013141 0.2623 -0.364707
0.009717 -0.49398 -0.225718
-0.013141 0.048684 -0.016821
0.009717 -0.507541 -0.299189
-0.013141 -0.488625 -0.391311
-0.013141 -0.448691 0.163481
0.009717 -0.086081 -0.489053
0.009717 -0.054642 -0.199704
-0.013141 0.249311 -0.001861
-0.013141 0.00221 0.084891
0.009717 0.448276 -0.3219
-0.013141 0.524136 0.395206
-0.013141 0.195187 0.036743
-0.013141 0.189895 -0.127228
-0.013141 0.325196 -0.271398
0.009717 0.188552 0.389872
0.009717 -0.289429 0.023074
0.009717 0.237077 -0.257956
0.009717 0.337447 -0.426641
-0.013141 -0.075338 0.194332
-0.013141 0.557274 0.263221
0.009717 0.55555 -0.30629
0.009717 0.019806 -0.109386
0.009717 -0.262705 -0.375799
-0.013141 0.52165 -0.353483
0.009717 0.101892 -0.061657
0.009717 -0.251047 0.309782
-0.013141 0.243973 -0.213119
-0.013141 0.455449 -0.072866
-0.013141 0.162602 -0.49161
-0.013141 0.636589 0.141908
0.009717 -0.026887 0.410281
-0.013141 0.433221 0.154062
0.009717 0.479971 -0.090571
-0.013141 -0.078643 -0.400903
0.009717 -0.518922 0.204379
0.009717 -0.12635 0.234928
0.009717 0.392965 -0.397706
-0.013141 -0.180699 -0.205673
0.009717 -0.212674 0.449475
-0.00567 0.482146 0.485525
-0.013141 -0.320257 0.272542
0.009717 -0.04299 -0.396999
0.009717 0.085104 0.220681
-0.013141 0.20685 0.311865
-0.013141 -0.367885 -0.326751
-0.013141 0.121009 -0.33252
0.009717 -0.549013 0.219175
-0.013141 0.511004 -0.22097
0.009717 0.353443 -0.259663
0.009717 -0.291887 -0.332882
0.009717 0.566152 -0.370849
0.009717 -0.284515 -0.396781
0.005766 -0.003847 0.485525
0.009717 0.329593 -0.171932
0.009717 -0.391264 -0.242789
0.009717 0.400408 0.181761
-0.013141 0.540716 0.064634
-0.013141 -0.122034 -0.138031
0.009717 0.560437 -0.421702
0.009717 0.023929 0.085442
-0.013141 -0.565863 -0.426828
-0.013141 0.631676 -0.449004
-0.013141 0.112636 -0.155023
-0.013141 -0.116801 0.456809
0.009717 0.221167 0.113874
0.009717 0.465171 -0.141218
0.009717 0.352853 0.213694
0.009717 0.58326 0.216496
-0.013141 0.268762 0.310077
-0.013141 0.047716 0.305353
-0.013141 0.344594 0.234223
0.009717 0.047266 -0.36009
0.009717 -0.37642 0.457395
-0.005432 0.625934 0.485525
0.009717 -0.271042 0.284332
-0.013141 0.04983 -0.058323
-0.013141 0.178487 -0.411843
0.009717 -0.554625 0.282351
0.009717 0.259358 -0.082584
-0.013141 -0.322692 -0.033948
-0.013141 -0.178612 -0.118052
-0.013141 0.097122 0.024359
0.009717 0.565128 -0.102518
0.003823 0.143983 -0.525942
0.009717 -0.314383 0.368786
0.009717 -0.036635 0.358518
-0.013141 -0.251316 -0.058468
-0.013141 -0.085861 0.124552
0.009717 0.639464 -0.398119
-0.013141 0.367307 -0.088253
-0.013141 -0.05253 -0.244963
-0.013141 0.485265 -0.063793
0.009717 -0.06718 0.149829
-0.013141 0.513774 -0.435892
-0.013141 0.568952 -0.156313
0.009717 0.500149 0.286804
-0.013141 0.583045 0.387274
0.009717 0.443773 -0.294539
-0.013141 -0.487899 -0.088441
-0.013141 -0.461504 0.051858
0.009717 -0.345363 0.216502
-0.013141 -0.37842 0.147299
0.009717 -0.282714 0.212051
-0.013141 -0.114745 -0.473163
-0.013141 0.232324 -0.16605
-0.000167 -0.332931 -0.525942
0.009717 0.075026 -0.130297
-0.013141 0.438531 -0.18002
-0.013141 0.005194 -0.466449
0.009717 0.0813 -0.433913
0.009717 0.602611 -0.315616
-0.013141 -0.515949 -0.202403
-0.013141 0.215607 -0.488775
0.009717 0.527506 -0.145584
-0.013141 0.592139 -0.406791
0.009717 0.229921 -0.150921
-0.013141 0.18176 0.16805
0.009717 -0.203248 -0.031382
-0.013141 -0.253749 -0.302949
0.009717 0.102809 -0.268432
-0.013141 -0.244981 -0.445038
-0.013141 -0.160662 -0.039082
0.009717 -0.555914 -0.261391
-0.013141 -0.535783 0.398317
-0.013141 -0.377209 0.006473
0.009717 -0.246409 -0.405132
-0.013141 -0.472167 0.381151
0.009717 -0.2539 -0.043465
-0.013141 0.125618 0.031019
0.009717 -0.477062 0.336162
-0.013141 -0.075061 -0.179075
-0.013141 -0.317297 0.109133
0.009717 -0.279653 -0.263352
0.009717 -0.124156 0.357704
-0.013141 0.029734 -0.374718
-0.013141 0.237706 -0.349732
0.009717 0.542902 0.137665
0.009717 0.290032 -0.407222
0.009717 -0.136706 -0.248006
0.009717 -0.223813 0.207209
-0.013141 -0.091303 -0.339736
0.009717 -0.058377 0.469846
0.009717 -0.557927 -0.507404
-0.013141 -0.091645 0.345684
0.009717 0.26492 -0.112386
-0.013141 -0.112687 0.010514
0.009717 -0.318307 -0.011803
-0.013141 -0.547878 0.338113
0.009717 -0.129562 0.185654
0.009717 -0.067351 -0.03589
-0.013141 -0.544954 0.129846
0.009717 -0.192659 -0.37518
0.009717 0.528943 0.073687
-0.013141 0.12633 0.476619
0.009717 -0.042 -0.148208
-0.013141 0.518806 -0.275557
0.009717 0.41002 -0.074163
-0.013141 -0.340733 -0.246602
0.009717 0.518741 0.336083
-0.013141 -0.415439 0.221676
0.009717 0.022138 0.224969
-0.013141 0.082582 -0.30059
0.009717 0.033012 -0.238751
-0.013141 0.392534 -0.030976
-0.013141 0.075612 -0.462368
-0.013141 0.359807 -0.421984
-0.013141 0.470501 -0.021721
0.009717 0.311264 -0.294243
0.009717 -0.225301 0.368341
-0.013141 -0.14571 -0.003833
-0.013141 -0.205423 -0.473862
0.009717 -0.551238 0.247547
0.009717 -0.303232 -0.306663
0.009717 -0.173903 0.215436
-0.013141 0.24889 -0.267433
-0.013141 -0.336344 0.1985
-0.013141 -0.354324 -0.203192
-0.013141 0.022239 -0.192595
-0.013141 0.093142 0.397774
-0.013141 0.322546 0.290789
-0.013141 0.259309 -0.394641
0.009717 -0.02489 0.001322
-0.013141 0.490395 0.247539
0.009717 -0.329827 -0.064831
0.009717 0.559244 0.008025
0.009717 0.251265 -0.340039
0.007265 0.512827 -0.525942
-0.013141 0.170825 -0.383971
0.009717 -0.435784 0.13544
-0.013141 0.068897 0.459455
0.009717 0.319495 -0.351755
0.009717 0.209848 -0.132411
0.009717 0.52978 -0.424975
-0.013141 -0.292362 -0.137886
-0.013141 0.330672 -0.036436
0.009717 -0.144887 0.052714
-0.013141 0.156707 0.086736
0.009717 0.43699 0.438932
-0.013141 0.105461 -0.376066
0.009717 0.621936 -0.178614
-0.013141 0.582163 -0.321394
-0.013141 -0.327711 0.003534
0.009717 0.431766 -0.165687
-0.013141 -0.241705 0.236979
-0.013141 0.214631 -0.054982
0.009717 0.145796 -0.062526
-0.013141 -0.278159 0.014221
-0.013141 0.607334 0.339763
-0.013141 0.539609 -0.216412
0.009717 -0.184476 -0.304301
-0.013141 0.086598 0.113979
-0.013141 -0.08356 -0.307708
-0.013141 0.220872 -0.233223
-0.013141 -0.182447 0.136838
0.009717 0.211797 -0.428568
0.009717 -0.443211 -0.464846
0.009717 -0.111575 -0.382587
-0.013141 0.074161 -0.151422
0.009717 0.450388 0.220427
-0.013141 -0.087547 -0.129796
-0.013141 0.42229 0.015534
0.009717 -0.277344 -0.182372
0.009717 0.544858 -0.486045
-0.013141 -0.247536 -0.013611
0.009717 -0.417425 -0.1478
-0.013141 0.630003 -0.292395
0.009717 0.293942 -0.369866
-0.013141 0.51927 0.160608
-0.013141 0.038445 0.279543
0.009717 -0.158215 -0.158779
-0.013141 0.468334 0.050383
-0.013141 -0.550131 -0.380632
-0.013141 0.353338 0.038812
0.009717 -0.408678 -0.400187
0.009717 0.371876 0.302775
-0.013141 0.044163 0.010028
-0.013141 0.479548 0.355686
-0.013141 0.504668 -0.185234
-0.013141 0.087054 -0.065524
0.009717 0.107487 -0.132082
-0.013141 0.066465 -0.425811
-0.013141 0.428756 -0.338664
-0.013141 0.608731 -0.101302
0.009717 -0.019428 -0.216085
0.009717 0.229707 0.452825
-0.013141 -0.348333 0.02006
-0.013141 0.19322 -0.271816
0.009717 0.342631 0.279968
-0.013141 -0.185379 0.336667
0.009717 0.255042 -0.051779
0.009717 0.169173 -0.240844
0.009717 -0.155623 0.23443
-0.013141 -0.511812 0.304132
0.009717 0.030268 -0.329507
-0.013141 -0.099146 -0.427368
-0.013141 -0.159563 0.108466
0.009717 0.348466 -0.048798
0.009717 -0.506966 0.286028
-0.013141 0.400074 0.061947
-0.013141 0.637399 0.296387
-0.013141 0.641346 -0.015096
0.009717 0.256253 -0.462376
-0.013141 0.187935 -0.346182
0.009717 -0.36216 0.151308
-0.011482 0.58556 0.485525
0.009717 0.183789 -0.317921
0.009717 0.05383 -0.211693
-0.013141 0.440542 0.461556
0.009717 0.411029 -0.045498
0.009717 -0.35347 -0.244457
0.009717 0.47706 -0.429035
0.009717 0.501683 -0.133234
-0.013141 0.492006 0.462392
0.009717 0.152217 0.009586
-0.013141 0.355406 0.367104
-0.013141 -0.139926 -0.07366
-0.013141 0.510973 -0.156063
0.009717 -0.218272 -0.187947
-0.013141 -0.116631 0.402746
0.009717 -0.145149 -0.200852
-0.013141 0.444727 -0.210113
0.009717 0.338119 0.45674
-0.013141 -0.020647 0.337223
-0.013141 0.463447 -0.449145
-0.013141 0.661261 0.407266
-0.013141 -0.151382 0.410604
0.009717 -0.093622 0.109439
0.009717 0.100301 -0.189891
-0.013141 -0.017734 -0.479837
0.009717 -0.49593 0.217122
-0.013141 0.186523 0.206646
-0.013141 -0.270307 -0.251518
-0.013141 0.021997 0.301072
-0.013141 -0.325272 -0.166714
-0.013141 -0.114331 -0.015966
0.009717 0.021329 0.460282
-0.013141 0.532591 0.364696
-0.013141 0.318336 -0.217134
0.009717 0.297865 -0.152743
-0.013141 0.139479 -0.263015
0.009717 -0.309893 -0.110151
0.009717 -0.474752 -0.154268
0.009717 -0.279216 -0.070042
0.009717 -0.051814 -0.483681
-0.013141 0.552705 -0.335602
0.009717 0.258812 0.171719
-0.013141 0.173998 -0.151901
-0.013141 -0.372927 -0.405312
-0.013141 -0.139061 0.154453
0.009717 -0.279144 0.434877
-0.013141 -0.010257 -0.175365
-0.013141 -0.301792 -0.100475
-0.013141 0.029964 0.383707
0.009717 0.016998 -0.356915
-0.013141 0.326294 0.175764
0.009717 0.060829 0.48306
-0.013141 -0.589851 -0.158597
0.009717 -0.001305 0.337371
0.009717 0.62508 -0.239094
0.009717 0.203597 0.182048
-0.013141 0.157401 0.447084
-0.013141 0.601487 0.405445
0.009717 0.403597 0.249719
-0.013141 0.06667 0.190099
-0.013141 0.007012 0.023491
-0.013141 -0.082784 0.455695
-0.013141 -0.246903 0.469117
-0.013141 0.373632 0.272548
-0.013141 -0.071459 0.235723
0.009717 -0.312352 0.15797
-0.013141 0.573002 -0.047878
0.009717 0.132732 -0.329691
0.009717 0.625786 0.412721
-0.013141 0.141644 0.320031
-0.013141 -0.268552 -0.3262
0.009717 0.28928 0.374099
0.009717 -0.548251 0.47153
0.009717 0.564785 0.354071
0.009717 0.118398 0.090399
0.009717 0.210226 -0.34313
0.009717 -0.500439 -0.493756
0.009717 0.391393 -0.210267
0.009717 -0.384646 0.232596
0.009717 -0.224617 0.109103
0.009717 0.463177 -0.359047
0.009717 0.377729 -0.269158
-0.013141 -0.00695 0.050265
0.009717 0.61349 -0.425125
0.009717 0.475495 -0.22847
-0.013141 0.344934 -0.328131
0.009717 -0.016308 -0.149805
0.009717 -0.18603 0.312879
0.009717 -0.164154 -0.268031
0.009717 -0.218118 0.261278
0.009717 -0.346497 -0.29634
-0.013141 -0.417547 0.120898
0.009717 0.041578 -0.417697
0.009717 -0.026007 0.273883
0.009717 0.371564 -0.077344
0.009717 0.499994 0.400049
0.009717 0.024041 -0.468837
-0.008029 -0.592438 -0.286932
-0.013141 -0.305991 -0.226194
0.009717 0.11406 0.060471
-0.013141 -0.329619 0.053216
-0.013141 -0.367521 -0.045331
-0.013141 -0.432005 -0.011663
-0.013141 -0.424911 -0.237959
-0.013141 -0.302526 0.241088
-0.013141 0.517111 0.021864
-0.013141 0.610818 -0.511958
-0.013141 -0.476822 -0.487181
0.009717 0.056875 0.398824
0.009717 -0.190629 0.122368
0.009717 -0.200324 -0.169695
0.009717 -0.218021 0.065022
0.009717 0.647629 0.343346
-0.013141 0.154044 -0.295772
-0.013141 -0.571379 -0.231986
-0.013141 0.531563 0.190804
0.009717 0.615867 0.206848
0.009717 0.617619 -0.11003
0.009717 -0.11781 0.422811
0.009717 0.176132 0.211339
0.009717 0.360097 -0.326264
-0.013141 0.444319 -0.381825
0.009717 -0.529314 0.304494
-0.013141 0.253023 -0.439234
0.009717 0.469609 0.457794
-0.013141 0.029575 -0.073831
-0.013141 -0.283925 0.349512
0.009717 -0.066549 -0.361102
0.009717 0.341576 -0.135071
0.009717 0.315619 -0.480717
0.009717 -0.07127 -0.298019
0.009717 0.107196 -0.023232
-0.013141 0.264262 -0.31084
0.009717 -0.1583 0.371214
0.009717 0.193867 0.441349
0.009717 -0.500644 -0.432148
0.009717 -0.015415 0.125466
0.009717 0.192595 0.320593
