-0.215231 -0.585808 -0.591971
0.077477 -0.585808 0.075795
0.046214 -0.585808 -0.475488
0.344357 -0.585808 0.348793
0.140521 -0.536773 -0.203056
-0.152659 -0.585808 -0.315929
0.521727 -0.536773 0.485956
-0.262099 -0.585808 0.231258
-0.099648 -0.585808 -0.402951
-0.480747 -0.585808 0.052528
0.198764 -0.536773 0.268736
-0.25615 -0.585808 -0.212769
-0.195796 -0.585808 -0.058926
0.091739 -0.585808 -0.13022
0.271385 -0.585808 0.371636
-0.501552 -0.536773 0.213481
-0.194855 -0.536773 -0.446404
0.417714 -0.585808 -0.056188
-0.529201 -0.585808 -0.218585
0.451387 -0.536773 -0.36033
-0.142781 -0.536773 0.465024
-0.394206 -0.585808 0.113736
-0.018864 -0.585808 -0.531885
-0.502302 -0.585808 0.347195
0.111849 -0.585808 -0.337334
-0.230331 -0.536773 0.433064
0.353064 -0.585808 0.130798
-0.520115 -0.536773 -0.523649
0.301746 -0.585808 -0.124813
0.561293 -0.536773 0.049382
0.217831 -0.585808 0.095366
-0.503242 -0.585808 -0.093274
0.166385 -0.536773 -0.360055
0.518415 -0.585808 -0.237709
0.418938 -0.585808 0.491629
0.212858 -0.536773 0.516832
-0.138906 -0.585808 0.353763
0.317984 -0.536773 0.496311
0.359342 -0.585808 0.040228
0.55248 -0.585808 0.419682
-0.036119 -0.536773 -0.387118
0.177585 -0.585808 0.425205
0.269979 -0.536773 -0.268251
-0.33265 -0.585808 0.009604
0.299876 -0.536773 -0.536754
-0.20234 -0.585808 0.095667
0.10671 -0.585808 0.009946
0.364597 -0.536773 -0.424483
-0.253219 -0.585808 -0.363802
0.347069 -0.585808 -0.28773
0.158554 -0.536773 -0.554646
-0.41032 -0.585808 -0.184457
-0.028303 -0.536773 0.421305
-0.051818 -0.585808 0.150145
0.06719 -0.585808 -0.056032
-0.537655 -0.585808 0.434065
0.47979 -0.585808 0.062477
0.533882 -0.585808 -0.427677
0.197707 -0.585808 -0.227037
-0.091157 -0.536773 -0.189066
0.250719 -0.536773 -0.417254
0.011045 -0.585808 -0.265198
0.095912 -0.585808 0.395314
-0.090561 -0.536773 -0.453736
0.504641 -0.585808 0.154068
-0.239076 -0.585808 0.379309
-0.390528 -0.536773 0.405626
0.503492 -0.536773 -0.459645
0.348222 -0.536773 -0.171494
-0.438663 -0.536773 0.121789
-0.377076 -0.585808 -0.041831
-0.451437 -0.585808 0.445654
-0.077845 -0.585808 -0.011923
0.37886 -0.536773 -0.539061
-0.016677 -0.585808 0.27416
0.459941 -0.585808 -0.508945
0.055737 -0.536773 -0.194739
-0.376973 -0.536773 -0.502202
0.393727 -0.536773 -0.219478
-0.165372 -0.536773 -0.267094
-0.427929 -0.585808 -0.317119
0.286114 -0.536773 0.409984
0.069866 -0.536773 0.35666
0.439429 -0.536773 -0.454994
0.230114 -0.547546 -0.600367
-0.305136 -0.536773 -0.229152
-0.08407 -0.585808 -0.500373
-0.535324 -0.536773 0.370073
0.102764 -0.536773 0.214893
0.152223 -0.536773 -0.458472
0.274037 -0.585808 0.011608
-0.063867 -0.536773 0.26482
0.063288 -0.536773 -0.362364
-0.389625 -0.585808 0.278927
-0.324781 -0.536773 0.217531
-0.031443 -0.585808 -0.152653
-0.455261 -0.585808 -0.380454
0.50732 -0.585808 -0.149854
-0.171435 -0.536773 -0.088053
0.513003 -0.536773 -0.396155
-0.349933 -0.585808 0.371631
0.366968 -0.585808 -0.129923
-0.024245 -0.585808 0.3547
0.467412 -0.585808 0.27256
0.155185 -0.585808 0.483583
-0.218407 -0.585808 0.467928
-0.212974 -0.536773 -0.157413
0.526355 -0.585808 0.29057
0.369534 -0.536773 0.168824
-0.003155 -0.585808 -0.040086
-0.220377 -0.536773 -0.230898
-0.541568 -0.58237 0.215671
0.122688 -0.536773 -0.112252
-0.341095 -0.585808 -0.384988
0.206426 -0.536773 -0.514767
0.00073 -0.536773 0.507372
0.493577 -0.585808 -0.348195
-0.175385 -0.536773 -0.578781
-0.387811 -0.585808 -0.120056
-0.52318 -0.585808 -0.488473
-0.165178 -0.585808 0.172615
-0.434922 -0.585808 0.50464
0.094069 -0.585808 -0.536021
0.549066 -0.536773 -0.227372
-0.419296 -0.536773 -0.542912
-0.278976 -0.585808 0.044755
0.229423 -0.536773 0.364249
0.128383 -0.585808 0.327959
-0.369172 -0.536773 0.341833
-0.541568 -0.551305 0.164622
-0.327366 -0.536773 -0.452102
-0.047582 -0.585808 -0.077149
-0.424987 -0.536773 -0.383741
0.351125 -0.536773 -0.360724
-0.347191 -0.536773 -0.561204
-0.271002 -0.536773 -0.285854
0.234312 -0.585808 -0.325745
0.495728 -0.585808 0.464253
0.430526 -0.538498 -0.600367
-0.388744 -0.536773 -0.080159
0.446213 -0.536773 0.156179
0.23315 -0.585808 0.23605
-0.510169 -0.536773 -0.148504
-0.24521 -0.585808 -0.459184
0.468923 -0.536773 0.50598
0.280469 -0.536773 -0.359544
-0.083236 -0.562615 -0.600367
0.538451 -0.585808 -0.570487
0.362834 -0.585808 0.490586
-0.296201 -0.585808 -0.306956
-0.405549 -0.585808 0.22556
0.532671 -0.536773 -0.026527
-0.528483 -0.536773 -0.086319
0.174745 -0.585808 -0.44526
-0.479941 -0.585808 -0.161176
0.561718 -0.544582 0.301378
-0.452492 -0.536773 -0.324665
-0.200421 -0.536773 0.120925
-0.000214 -0.536773 0.21872
-0.289269 -0.585808 0.356926
-0.243469 -0.536773 -0.090918
0.543131 -0.539978 -0.600367
0.43082 -0.536773 0.058588
-0.383906 -0.536773 0.136032
-0.516259 -0.536773 0.315496
0.317505 -0.536773 0.12269
0.537858 -0.585808 0.045291
0.489652 -0.536773 0.302844
-0.478215 -0.585808 0.209502
0.375648 -0.585808 -0.011533
0.019002 -0.585808 0.447296
0.331858 -0.585808 0.296042
-0.178734 -0.585808 -0.110344
0.395337 -0.585808 0.174806
0.016082 -0.585808 -0.573198
-0.126614 -0.585808 -0.03523
-0.113719 -0.585808 0.199759
-0.038029 -0.536773 -0.513259
0.015726 -0.536773 0.368851
0.283169 -0.536773 -0.14888
0.080429 -0.536773 -0.26472
0.397982 -0.585808 -0.594957
-0.356022 -0.536773 -0.246683
-0.021713 -0.536773 -0.171714
0.2689 -0.585808 -0.502538
0.162548 -0.536773 0.031232
-0.259293 -0.585808 -0.54998
-0.188006 -0.585808 0.333298
-0.014205 -0.536773 -0.270646
-0.295739 -0.536773 -0.537713
-0.299623 -0.585808 0.193642
0.423443 -0.585808 -0.235826
-0.15089 -0.536773 -0.416919
0.274381 -0.585808 -0.062761
-0.438004 -0.536773 -0.099341
0.561718 -0.548188 -0.484685
0.546061 -0.585808 -0.296391
0.435282 -0.536773 -0.137398
0.33046 -0.585808 -0.498934
0.265899 -0.536773 0.274545
-0.470421 -0.585808 -0.489803
0.072058 -0.585808 -0.59368
-0.319564 -0.585808 -0.237861
-0.421966 -0.536773 -0.217528
0.272641 -0.536773 0.521162
0.322902 -0.585808 -0.172024
0.360683 -0.536773 0.348313
0.300735 -0.536773 -0.434916
0.177849 -0.550604 -0.600367
0.311393 -0.536773 -0.586907
-0.360194 -0.536773 -0.356794
0.279631 -0.585808 -0.590433
-0.104427 -0.585808 -0.181268
0.280549 -0.585808 -0.257192
0.312317 -0.536773 0.059483
0.225974 -0.536773 0.082436
0.291211 -0.585808 0.446803
0.405627 -0.585808 -0.416032
0.092428 -0.585808 0.204172
0.453535 -0.536773 -0.296573
0.403069 -0.585808 0.440338
0.100846 -0.585808 0.447849
0.353419 -0.585808 -0.433805
0.021241 -0.585808 0.331319
0.114295 -0.536773 -0.364936
0.165811 -0.536773 -0.272779
0.370639 -0.536773 0.24826
0.158433 -0.585808 -0.117366
-0.051379 -0.585808 -0.2722
0.056976 -0.536773 0.14733
-0.109585 -0.536773 -0.236398
0.14661 -0.585808 -0.25536
0.439726 -0.536773 -0.537044
0.545529 -0.585808 0.514184
0.009331 -0.585808 -0.396078
0.520187 -0.585808 0.21596
0.561718 -0.553639 -0.396971
-0.021347 -0.585808 -0.317172
-0.217934 -0.536773 0.383401
0.487816 -0.536773 0.417591
-0.228833 -0.585808 0.043259
-0.417412 -0.536773 0.193982
-0.145691 -0.585808 0.077095
-0.405764 -0.536773 0.302121
-0.112468 -0.536773 -0.115979
-0.061864 -0.536773 -0.320051
0.139417 -0.585808 -0.19322
0.188824 -0.536773 -0.190339
-0.458583 -0.536773 0.386047
0.083721 -0.536773 -0.07862
0.511907 -0.536773 0.208739
0.211953 -0.585808 0.30442
-0.310717 -0.536773 -0.071579
0.388036 -0.585808 -0.546476
0.461888 -0.585808 -0.081008
0.385178 -0.536773 -0.47419
-0.327491 -0.585808 0.146161
0.550474 -0.536773 0.414055
-0.119468 -0.585808 -0.357772
0.162888 -0.585808 -0.551489
-0.395227 -0.585808 0.407706
-0.514576 -0.585808 -0.594872
0.318131 -0.585808 0.173285
0.253696 -0.585808 -0.420254
-0.126293 -0.537433 -0.600367
-0.062587 -0.585808 0.256759
0.485105 -0.585808 -0.467102
-0.21272 -0.536773 -0.292182
0.487686 -0.536773 0.02889
-0.513098 -0.585808 -0.539642
-0.052 -0.585808 -0.392867
0.258624 -0.585808 -0.155846
-0.202336 -0.585808 0.513693
0.104144 -0.536773 -0.507109
0.109782 -0.536773 -0.161994
0.242038 -0.585808 0.409931
-0.381191 -0.536773 0.454608
-0.095097 -0.585808 -0.450941
-0.072834 -0.585808 -0.119649
-0.255236 -0.585808 -0.412141
-0.032746 -0.585808 0.402003
-0.470626 -0.536773 -0.262537
0.498033 -0.585808 0.404994
-0.41974 -0.536773 0.353156
0.321702 -0.536773 0.376005
0.378673 -0.585808 -0.324453
-0.357591 -0.585808 -0.511679
0.561718 -0.548768 0.210966
0.509013 -0.536773 0.100402
0.440274 -0.536773 0.310488
-0.318919 -0.585808 0.267308
0.123894 -0.536773 -0.420511
0.322111 -0.536773 -0.232666
-0.440559 -0.585808 0.104405
0.420548 -0.536773 0.357921
0.231732 -0.536773 0.438706
-0.037344 -0.536773 0.467497
-0.007775 -0.536773 0.267546
-0.354734 -0.585808 0.051513
-0.138129 -0.585808 -0.245828
0.418926 -0.585808 0.086536
0.06782 -0.585808 -0.393182
-0.37692 -0.536773 -0.173582
-0.374224 -0.585808 -0.351968
0.023881 -0.536773 0.418179
-0.269471 -0.585808 0.479803
0.019963 -0.536773 -0.496021
0.089648 -0.536773 -0.552566
-0.185635 -0.585808 0.286196
0.479783 -0.585808 -0.187292
0.374467 -0.536773 0.294574
-0.216504 -0.585808 0.222745
-0.072067 -0.585808 -0.54495
-0.147321 -0.536773 -0.146207
0.00542 -0.536773 -0.103731
-0.236303 -0.585808 -0.080925
0.338505 -0.536773 -0.46248
0.543946 -0.536773 0.154705
0.313193 -0.536773 -0.321445
0.032843 -0.536773 -0.551204
0.434371 -0.536773 0.200485
0.09206 -0.585808 0.11926
0.14701 -0.585808 0.391067
0.349208 -0.536773 0.456267
-0.214624 -0.536773 -0.398115
0.476985 -0.536773 0.259036
-0.144681 -0.585808 -0.420125
0.070835 -0.536773 -0.476292
0.233542 -0.585808 0.052903
-0.375509 -0.585808 -0.444371
0.18859 -0.585808 0.228723
-0.098237 -0.536773 0.457756
0.453322 -0.536773 -0.178767
-0.49573 -0.585808 0.417578
-0.479915 -0.536773 -0.3976
-0.503157 -0.536773 -0.04685
0.063408 -0.536773 -0.317418
0.015998 -0.536773 -0.307096
-0.182946 -0.585808 0.052428
0.041804 -0.585808 -0.166309
0.391246 -0.536773 0.079142
-0.174873 -0.536773 -0.323813
-0.43095 -0.585808 0.262295
-0.199541 -0.585808 -0.152947
-0.497717 -0.585808 -0.002541
0.069509 -0.585808 0.359536
0.486704 -0.585808 0.11107
-0.33627 -0.585808 -0.557743
0.316889 -0.585808 -0.363736
0.433609 -0.536773 -0.40069
0.024933 -0.585808 -0.527073
-0.017743 -0.536773 -0.552334
0.223735 -0.585808 0.353924
-0.035025 -0.585808 -0.572787
-0.135418 -0.585808 0.309969
0.244811 -0.536773 -0.492513
-0.533617 -0.585808 0.316516
0.099347 -0.536773 -0.217942
-0.099427 -0.585808 -0.28497
-0.194891 -0.536773 -0.523626
-0.426176 -0.585808 -8.8e-05
0.428651 -0.585808 0.225291
-0.440926 -0.536773 -0.45943
-0.283947 -0.585808 0.146445
-0.530141 -0.536773 0.440559
0.234893 -0.536773 0.030006
-0.471948 -0.585808 -0.061539
0.040047 -0.585808 -0.297425
-0.423429 -0.585808 -0.587236
-0.464428 -0.536773 0.261871
-0.044643 -0.536773 -0.228141
-0.264127 -0.585808 -0.259608
-0.360318 -0.536773 0.172033
-0.40124 -0.585808 -0.535799
0.085724 -0.536773 -0.400764
0.025935 -0.536773 -0.225676
0.556329 -0.536773 -0.280472
-0.232274 -0.585808 0.427642
-0.285746 -0.585808 0.314534
-0.423744 -0.536773 0.442781
-0.414727 -0.585808 -0.364117
-0.393658 -0.585808 -0.249781
-0.314577 -0.585808 0.394693
0.454477 -0.585808 -0.035489
0.06045 -0.585808 -0.434713
0.19433 -0.536773 -0.457836
-0.131721 -0.536773 0.409785
0.39372 -0.585808 -0.265489
-0.284108 -0.536773 -0.491875
0.206388 -0.585808 -0.054812
-0.204056 -0.536773 -0.114364
0.477051 -0.585808 -0.252053
0.066662 -0.585808 -0.001808
0.454624 -0.585808 -0.378802
0.270366 -0.536773 -0.579375
-0.461603 -0.536773 0.007257
-0.137254 -0.536773 -0.551593
0.105579 -0.536773 -0.01536
0.418825 -0.585808 -0.461725
0.003115 -0.585808 0.219958
-0.450438 -0.585808 -0.275641
0.536758 -0.585808 -0.103922
-0.006072 -0.536773 -0.447133
-0.53925 -0.536773 -0.487298
0.561718 -0.560363 0.376716
-0.197807 -0.585808 -0.261788
-0.301949 -0.536773 -0.176736
-0.012494 -0.536773 -0.348268
-0.347776 -0.536773 -0.416511
0.487055 -0.536773 -0.320232
0.13232 -0.585808 0.28458
0.221283 -0.585808 -0.127008
-0.276866 -0.585808 -0.074989
-0.165808 -0.585808 0.131672
0.149288 -0.536773 -0.151517
0.483295 -0.536773 0.458159
-0.357838 -0.536773 0.381039
0.471056 -0.536773 -0.216341
0.561718 -0.573314 -0.539434
-0.242551 -0.536773 -0.483243
0.207758 -0.585808 -0.587945
0.525245 -0.585808 -0.471864
-0.388547 -0.585808 0.160005
-0.053275 -0.585808 0.450906
0.051713 -0.585808 -0.126209
0.29624 -0.585808 -0.553065
0.414259 -0.585808 -0.502702
-0.086884 -0.536773 -0.149211
0.240167 -0.536773 -0.536284
-0.35067 -0.536773 -0.203682
-0.127373 -0.536773 -0.07896
0.297274 -0.536773 0.31987
-0.541568 -0.571793 -0.374984
0.11844 -0.585808 0.089502
0.353481 -0.565939 -0.600367
-0.185924 -0.536773 -0.36189
0.197115 -0.536773 -0.240366
0.549446 -0.536773 -0.083797
0.103346 -0.585808 0.163428
-0.47079 -0.536773 -0.523841
0.264823 -0.536773 0.089103
-0.07086 -0.536773 -0.368672
-0.151903 -0.585808 -0.065283
-0.281984 -0.585808 0.107237
-0.492625 -0.585808 0.173017
0.031451 -0.585808 0.18935
0.139479 -0.536773 -0.594762
-0.520493 -0.585808 0.253374
0.191201 -0.585808 0.498552
0.453719 -0.536773 0.098762
0.277544 -0.536773 0.042127
-0.134901 -0.536773 -0.34163
0.280556 -0.585808 0.333925
0.313312 -0.585808 -0.213378
0.105385 -0.585808 -0.174674
-0.158933 -0.585808 0.448993
-0.380224 -0.536773 -0.27689
0.084719 -0.585808 -0.309727
-0.525215 -0.536773 -0.387162
-0.309167 -0.536773 -0.291983
-0.447744 -0.585808 -0.418346
0.037409 -0.536773 -0.141383
0.429009 -0.585808 0.268927
0.52417 -0.536773 0.0165
-0.226315 -0.536773 0.088085
0.273871 -0.585808 -0.361596
-0.353313 -0.585808 0.481102
-0.322047 -0.585808 0.229006
-0.245004 -0.585808 0.275072
0.530265 -0.585808 0.007763
0.135749 -0.585808 -0.01497
-0.36141 -0.536773 0.22849
0.561718 -0.547869 -0.18249
0.46773 -0.546919 -0.600367
0.190508 -0.585808 -0.264463
0.471357 -0.536773 0.191946
-0.315711 -0.585808 0.057716
-0.327131 -0.536773 0.139811
-0.105582 -0.585808 0.013837
0.252737 -0.536773 -0.234578
0.122383 -0.585808 -0.30122
-0.522397 -0.536773 -0.243997
-0.248753 -0.536773 -0.174277
0.561304 -0.585808 0.091758
-0.197812 -0.536773 -0.486335
-0.541568 -0.543903 0.201165
0.561718 -0.537477 -0.527071
0.522386 -0.585808 0.079167
0.310321 -0.585808 -0.282015
-0.239751 -0.536773 -0.355846
0.292497 -0.536773 -0.18479
0.508252 -0.585808 -0.06084
0.198765 -0.536773 0.00824
-0.127411 -0.585808 0.165384
0.213477 -0.585808 -0.363265
0.198468 -0.585808 0.269966
0.415608 -0.536773 -0.566563
0.143748 -0.585808 -0.393363
0.043466 -0.536773 -0.097774
-0.230986 -0.585808 -0.243503
-0.271925 -0.536773 -0.451629
-0.036349 -0.585808 -0.114813
-0.287086 -0.567387 -0.600367
0.455009 -0.585808 0.323777
-0.210372 -0.585808 -0.470875
-0.408475 -0.536773 -0.049166
-0.127328 -0.536773 -0.195385
0.078106 -0.585808 -0.096158
0.281264 -0.536773 0.365654
-0.063743 -0.536773 0.411965
0.19154 -0.536773 -0.306238
-0.484418 -0.585808 -0.197435
0.26945 -0.585808 0.059373
0.319653 -0.585808 -0.419998
-0.258293 -0.585808 0.074747
0.323882 -0.585808 0.048393
0.418884 -0.536773 -0.193211
0.121189 -0.585808 0.365492
0.028467 -0.536773 0.169862
0.314807 -0.585808 0.369933
0.3841 -0.585808 0.066806
-0.387414 -0.585808 -0.318199
-0.413164 -0.536773 -0.173681
0.397123 -0.585808 0.287967
-0.508049 -0.585808 0.095076
0.402365 -0.536773 0.23079
0.337704 -0.585808 -0.247945
-0.409191 -0.585808 -0.282454
-0.528868 -0.585808 -0.408639
-0.351149 -0.552775 -0.600367
-0.353577 -0.585808 0.112065
-0.052464 -0.585808 -0.236233
0.246607 -0.536773 0.405958
0.028419 -0.536773 0.335201
-0.498995 -0.536773 -0.114332
-0.250419 -0.536773 -0.39481
-0.42216 -0.536773 -0.428855
0.419055 -0.536773 0.13282
0.375448 -0.585808 -0.187743
-0.541568 -0.540102 -0.551958
-0.506572 -0.585808 0.383654
0.014616 -0.585808 0.157987
0.201583 -0.536773 -0.354773
-0.356462 -0.536773 0.480207
0.263903 -0.536773 -0.317631
0.498887 -0.585808 0.517959
0.235698 -0.585808 0.271587
0.443581 -0.536773 0.447155
-0.541568 -0.567812 -0.174484
-0.144792 -0.536773 -0.232632
-0.447229 -0.585808 -0.174527
-0.08936 -0.536773 -0.089258
0.08864 -0.585808 -0.50115
0.415064 -0.585808 -0.382075
0.300685 -0.585808 0.118369
0.015216 -0.585808 0.501103
-0.280834 -0.536773 -0.370523
-0.05892 -0.585808 0.115783
0.124036 -0.585808 -0.554105
0.5121 -0.556123 -0.600367
-0.168008 -0.585808 -0.585379
0.545073 -0.585808 0.191454
-0.349688 -0.585808 -0.087404
-0.458191 -0.585808 -0.334459
0.134393 -0.536773 0.00423
-0.541568 -0.54898 0.407549
0.460891 -0.585808 0.390349
0.500809 -0.536773 0.061063
-0.106139 -0.585808 0.342281
-0.404203 -0.585808 0.190933
0.509455 -0.585808 -0.378964
-0.13309 -0.536773 -0.279517
0.359573 -0.585808 0.199708
-0.485716 -0.536773 0.459771
0.139854 -0.585808 -0.359141
0.061768 -0.585808 0.504746
0.02658 -0.585808 -0.057303
-0.476027 -0.585808 -0.127055
-0.224345 -0.585808 0.121982
0.528084 -0.585808 0.388508
0.346536 -0.585808 -0.383079
-0.487157 -0.585808 0.316529
0.409683 -0.585808 -0.02295
-0.541568 -0.581828 0.031816
0.205953 -0.536773 0.054727
-0.415798 -0.536773 0.488317
0.497822 -0.585808 0.309317
0.208288 -0.585808 0.384343
-0.194126 -0.585808 0.154875
0.401285 -0.536773 -0.506078
0.469338 -0.536773 -0.266586
0.13756 -0.536773 -0.512633
-0.183908 -0.585808 0.471819
0.274306 -0.585808 0.476085
-0.388428 -0.536773 -0.221751
0.548273 -0.585808 -0.137475
-0.420894 -0.585808 0.058238
0.462068 -0.585808 0.466079
-0.346369 -0.585808 -0.25827
0.009718 -0.567024 -0.600367
0.184256 -0.585808 0.096674
0.130823 -0.585808 0.210039
0.479048 -0.536773 0.131849
-0.519549 -0.536773 0.116104
-0.248399 -0.585808 -0.59666
0.49954 -0.536773 -0.006194
-0.007621 -0.536773 0.39274
-0.498144 -0.536773 0.176585
0.24114 -0.585808 -0.588293
-0.343838 -0.536773 -0.506274
-0.52195 -0.585808 -0.351896
-0.337684 -0.536773 -0.166883
-0.191991 -0.563375 -0.600367
-0.49393 -0.536773 0.286275
-0.007265 -0.536773 0.304642
0.478787 -0.585808 -0.13258
0.449376 -0.536773 0.030879
-0.335485 -0.585808 -0.486766
0.029431 -0.585808 0.299042
0.552147 -0.585808 0.481562
-0.482292 -0.536773 0.507427
0.252142 -0.585808 -0.535804
0.472867 -0.585808 0.030117
0.41237 -0.536773 0.399347
-0.404908 -0.536773 0.161551
-0.416188 -0.553758 -0.600367
-0.158928 -0.536773 -0.380872
-0.086535 -0.585808 -0.356742
-0.458701 -0.585808 0.290375
-0.167656 -0.536773 0.443444
-0.104903 -0.585808 -0.059897
0.292075 -0.536773 -0.481962
-0.366863 -0.585808 0.434634
-0.287284 -0.536773 -0.257383
0.537477 -0.536773 0.383038
-0.222791 -0.585808 -0.040338
0.262947 -0.585808 0.507175
0.521628 -0.536773 -0.321398
0.247471 -0.536773 0.301424
-0.44199 -0.536773 -0.192049
-0.151318 -0.585808 -0.348307
-0.423217 -0.585808 -0.152784
0.492331 -0.536773 0.165137
-0.541568 -0.571226 -0.534679
-0.226479 -0.585808 -0.199842
-0.51422 -0.536773 0.395304
0.520301 -0.585808 -0.179408
-0.033546 -0.536773 0.149742
0.070269 -0.585808 -0.280928
0.077756 -0.585808 0.425438
0.169415 -0.585808 0.202892
0.295217 -0.585808 -0.038252
-0.266553 -0.536773 -0.32485
-0.312061 -0.585808 -0.334885
-0.099754 -0.585808 -0.561155
0.126232 -0.536773 -0.335186
0.161828 -0.578366 -0.600367
0.337079 -0.585808 -0.545258
-0.095499 -0.536773 0.269427
-0.048939 -0.585808 0.287303
-0.052327 -0.585808 -0.496911
0.335316 -0.536773 -0.203618
-0.528888 -0.536773 -0.183486
0.526187 -0.536773 -0.548273
0.045866 -0.585808 0.032954
0.545538 -0.585808 -0.39809
0.242312 -0.585808 0.01053
-0.156382 -0.585808 -0.284417
0.019751 -0.585808 -0.492992
0.008933 -0.585808 -0.166761
-0.250708 -0.536773 -0.579805
-0.364609 -0.585808 -0.542562
0.428628 -0.536773 -0.277024
-0.34704 -0.585808 -0.43052
0.153562 -0.536773 -0.388911
0.14116 -0.536773 -0.056692
-0.394983 -0.536773 -0.393458
-0.148988 -0.585808 -0.501264
0.555815 -0.585808 -0.479385
-0.020583 -0.585808 -0.195652
0.364149 -0.585808 -0.046117
0.25262 -0.585808 -0.040045
0.041967 -0.585808 -0.20234
-0.391319 -0.585808 0.002664
0.301243 -0.536773 -0.3831
-0.348561 -0.585808 -0.208872
-0.12068 -0.585808 -0.15445
0.561718 -0.545674 0.270049
-0.471915 -0.536773 -0.464147
-0.509162 -0.585808 0.204575
0.44215 -0.585808 0.518757
-0.466903 -0.536773 0.103841
0.127672 -0.536773 -0.558293
0.042542 -0.578703 -0.600367
-0.234431 -0.585808 0.348642
0.53963 -0.585808 0.113944
-0.019046 -0.536773 0.194174
0.44022 -0.536773 -0.331507
0.062023 -0.585808 0.193679
-0.135726 -0.536773 -0.443808
-0.013909 -0.536773 -0.417278
0.122671 -0.585808 0.036339
0.388616 -0.585808 0.322708
-0.323351 -0.536773 0.522318
0.206986 -0.585808 0.414993
-0.31025 -0.54728 -0.600367
0.231999 -0.536773 0.492872
0.561718 -0.55667 -0.134438
0.395143 -0.536773 -0.423307
0.135778 -0.585808 -0.428942
0.034584 -0.585808 0.10427
-0.474017 -0.536773 -0.182804
-0.40721 -0.536773 -0.498587
0.283193 -0.585808 -0.427734
0.515207 -0.536773 0.144728
0.188204 -0.585808 -0.125596
0.324601 -0.585808 0.141287
-0.044463 -0.585808 0.327471
0.33847 -0.53765 -0.600367
-0.535594 -0.536773 0.339846
-0.114249 0.526165 -0.595293
0.431691 0.526165 -0.085042
-0.075887 0.526165 -0.061551
0.335842 0.526165 -0.539075
-0.300393 0.526165 0.281661
-0.337706 0.526165 -0.287937
-0.013737 0.526165 0.226269
0.274974 0.526165 0.113955
0.26601 0.47713 -0.299088
-0.345981 0.526165 -0.554636
0.103204 0.526165 -0.463816
0.02903 0.526165 0.443311
-0.109118 0.526165 -0.341407
-0.251529 0.526165 0.510601
0.466971 0.526165 -0.352071
-0.416666 0.526165 -0.097123
0.347534 0.526165 0.359873
-0.214234 0.526165 0.09356
0.106132 0.526165 -0.196591
0.086538 0.526165 0.03668
-0.402207 0.526165 0.086987
0.16031 0.526165 0.255957
-0.413214 0.526165 0.43964
0.561718 0.491008 0.382149
0.261092 0.526165 -0.053492
-0.241465 0.526165 -0.083194
-0.471627 0.526165 -0.3825
0.450932 0.526165 0.108732
-0.156986 0.526165 0.367821
-0.212017 0.526165 -0.45934
0.199133 0.47713 0.399218
0.428951 0.526165 0.502106
-0.051012 0.526165 -0.204138
-0.063348 0.47713 0.098998
0.506183 0.526165 -0.21341
0.456456 0.526165 0.263857
-0.037938 0.526165 -0.463948
-0.428087 0.526165 0.228687
-0.096187 0.526165 0.501335
-0.213552 0.526165 -0.217268
0.469435 0.526165 -0.513632
0.339588 0.526165 -0.181998
-0.467839 0.47713 -0.582441
0.242534 0.526165 -0.447215
0.082814 0.47713 -0.323572
0.332358 0.47713 0.219509
0.04116 0.47713 -0.071686
-0.22941 0.47713 -0.344229
0.078865 0.47713 0.337795
-0.342662 0.47713 -0.402801
-0.134938 0.526165 0.208031
0.231328 0.47713 -0.161572
-0.433693 0.47713 -0.235351
0.026736 0.526165 -0.582581
-0.313492 0.526165 0.007964
-0.516814 0.526165 -0.039143
0.356808 0.47713 -0.012265
0.412449 0.47713 -0.261225
-0.03681 0.47713 0.326909
-0.311009 0.47713 -0.184602
0.340701 0.526165 -0.368436
0.443972 0.47713 0.388075
-0.309644 0.526165 0.400292
-0.146571 0.47713 -0.131176
0.157933 0.526165 -0.089879
0.184987 0.526165 -0.354653
0.397985 0.47713 -0.446225
-0.167124 0.47713 -0.002377
-0.298197 0.47713 0.173233
0.148439 0.526165 -0.560608
0.520536 0.498854 -0.600367
-0.003727 0.526165 -0.297095
0.224044 0.47713 0.040391
-0.4061 0.47713 -0.001893
-0.508703 0.526165 -0.143485
0.549494 0.526165 -0.116939
0.526052 0.526165 0.478839
0.278339 0.526165 0.287486
-0.421521 0.47713 -0.494251
-0.122403 0.47713 -0.445513
0.270724 0.526165 0.446371
-0.394077 0.47713 0.356298
-0.07376 0.47713 0.419211
0.366932 0.47713 0.116571
0.15956 0.47713 -0.263664
0.504706 0.526165 0.001335
0.125786 0.526165 0.450813
0.163481 0.526165 0.107983
-0.144779 0.47713 -0.262729
0.427425 0.520018 -0.600367
0.023386 0.47713 -0.164598
0.232875 0.47713 0.220347
-0.2434 0.47713 0.335358
0.081316 0.47713 0.245695
-0.413844 0.47713 -0.325255
-0.2538 0.526165 -0.57433
0.012879 0.526165 0.139389
0.014566 0.47713 -0.409799
-0.326699 0.526165 -0.110599
-0.211711 0.526165 0.253661
0.309768 0.47713 -0.113623
0.411272 0.47713 -0.162925
-0.139848 0.47713 0.296002
0.009536 0.47713 0.048764
-0.095069 0.526165 0.032631
0.261428 0.526165 -0.226167
0.276323 0.47713 0.359848
0.232551 0.526165 -0.544949
-0.189575 0.526165 0.446829
-0.415584 0.47713 0.156837
0.33704 0.526165 0.053751
0.433561 0.47713 0.023004
0.383939 0.47713 0.447319
-0.505874 0.47713 -0.44058
0.275375 0.47713 -0.38438
0.144341 0.47713 -0.410985
-0.460543 0.526165 0.30708
0.325296 0.526165 -0.450348
0.168245 0.526165 0.340203
-0.381488 0.47713 0.274738
0.41488 0.47713 0.213335
-0.479664 0.526165 0.033359
-0.341162 0.526165 0.477388
-0.272254 0.526165 -0.392629
-0.314581 0.526165 -0.473872
0.494814 0.526165 0.193949
-0.078399 0.47713 0.180717
0.096096 0.47713 -0.129009
0.402343 0.47713 0.294887
-0.335366 0.47713 0.066216
0.018052 0.526165 0.355952
-0.436296 0.47713 -0.15557
-0.376027 0.526165 -0.215439
-0.06091 0.47713 -0.277209
0.458482 0.526165 -0.428918
-0.409504 0.523758 -0.600367
-0.165688 0.526165 -0.071388
-0.038885 0.526165 -0.371303
0.494116 0.47713 -0.062323
-0.242902 0.47713 0.0055
-0.399615 0.526165 -0.412957
0.503578 0.526165 0.323448
0.338934 0.47713 -0.239459
0.351977 0.526165 -0.074638
-0.287291 0.526165 0.112229
0.541852 0.526165 -0.360415
0.042304 0.526165 -0.236609
-0.11135 0.526165 -0.501538
-0.520546 0.526165 0.507341
0.386539 0.47713 -0.33174
0.319481 0.526165 0.502837
0.078401 0.526165 -0.378851
0.103766 0.526165 -0.039917
-0.225216 0.47713 0.147423
-0.193436 0.526165 -0.388087
0.339379 0.526165 -0.29488
0.204179 0.47713 -0.030326
-0.484695 0.526165 -0.262017
0.136015 0.47713 0.014806
-0.220482 0.526165 -0.289938
-0.065407 0.526165 0.281068
0.492105 0.526165 0.411473
-0.011367 0.526165 -0.124485
0.020664 0.526165 -0.023208
0.531996 0.47713 -0.532757
-0.355111 0.47713 0.42687
-0.143347 0.526165 -0.203637
-0.038241 0.47713 -0.025677
0.29677 0.526165 -0.598871
0.231268 0.47713 0.141744
-0.087445 0.526165 -0.142886
0.403614 0.526165 0.161992
0.199777 0.526165 0.485326
-0.472518 0.526165 -0.496477
-0.033311 0.47713 0.477229
0.11423 0.47713 0.398942
0.175756 0.526165 -0.186635
-0.536411 0.526165 0.13717
0.507764 0.47713 0.130863
0.479285 0.47713 0.46352
-0.34969 0.526165 0.335824
0.11081 0.47713 0.084198
-0.231431 0.526165 0.392491
-0.292647 0.526165 -0.236304
0.206554 0.526165 -0.272515
0.392578 0.526165 -0.493631
-0.31488 0.47713 -0.329665
-0.260193 0.47713 -0.440383
0.168636 0.47713 0.198886
-0.446806 0.526165 0.37339
-0.358963 0.526165 -0.041876
-0.152701 0.47713 0.41389
0.169284 0.526165 -0.450632
-0.095209 0.526165 0.132015
-0.099799 0.47713 0.357506
0.295508 0.47713 0.035327
0.01199 0.526165 -0.508185
-0.158125 0.47713 -0.327884
-0.038109 0.526165 -0.597018
0.258071 0.526165 0.178201
-0.324813 0.47713 0.234054
0.378282 0.47713 -0.588641
0.406232 0.526165 -0.378354
0.08477 0.47713 0.466776
0.441164 0.526165 0.34421
-0.012616 0.47713 -0.232663
0.271418 0.526165 -0.144196
-0.285329 0.47713 -0.096979
0.543212 0.526165 -0.481213
-0.276955 0.526165 -0.153283
-0.360418 0.47713 -0.465856
-0.206751 0.526165 0.188365
-0.451175 0.526165 -0.195376
-0.437512 0.47713 0.054753
0.373763 0.526165 0.263765
0.058051 0.526165 0.510546
-0.484981 0.47713 -0.008232
-0.187903 0.526165 0.034683
-0.46354 0.526165 0.174995
0.232071 0.526165 0.331797
-0.27122 0.47713 0.074356
0.549987 0.47713 -0.177563
0.334846 0.47713 -0.408795
-0.376338 0.47713 -0.102271
0.322782 0.47713 -0.331979
0.326455 0.47713 0.398893
0.385931 0.526165 -0.13158
0.077405 0.526165 0.285464
-0.346831 0.526165 -0.363148
0.144581 0.47713 -0.4819
-0.505024 0.526165 -0.328874
0.340457 0.526165 0.145776
-0.12861 0.47713 -0.058468
0.432434 0.526165 -0.016198
0.321486 0.47713 0.281282
-0.100789 0.47713 -0.379584
-0.027306 0.47713 -0.330143
0.063656 0.47713 0.005167
-0.184463 0.526165 0.311603
0.396049 0.526165 0.073459
-0.014806 0.47713 0.399557
-0.368403 0.526165 0.139116
0.197328 0.47713 0.271275
0.513846 0.526165 0.093245
0.07615 0.47713 -0.437636
0.096827 0.526165 -0.525225
-0.519124 0.526165 0.382641
-0.052989 0.47713 -0.090679
0.394183 0.526165 0.399759
-0.289644 0.526165 0.22147
0.143014 0.47713 -0.170578
-0.491174 0.526165 -0.5546
0.224719 0.47713 0.511435
-0.264692 0.526165 -0.331684
-0.378607 0.47713 -0.537208
-0.326003 0.47713 0.368759
0.071662 0.526165 -0.103344
0.020836 0.47713 0.247044
0.310169 0.47713 0.163284
-0.334336 0.47713 -0.253202
0.457171 0.47713 -0.394101
0.462286 0.47713 0.298726
0.279861 0.47713 -0.022598
0.50986 0.526165 -0.309658
-0.371555 0.526165 0.022951
-0.207105 0.526165 -0.132282
0.099642 0.47713 -0.263644
-0.105856 0.526165 0.442214
0.204948 0.526165 -0.126942
-0.380203 0.47713 -0.181414
-0.087511 0.47713 0.254877
0.240442 0.526165 -0.377013
0.19918 0.47713 -0.323606
-0.280586 0.47713 0.417994
-0.066461 0.526165 0.386049
-0.134446 0.526165 -0.396702
0.28911 0.47713 -0.206635
-0.044885 0.47713 -0.413912
0.046976 0.47713 0.388006
-0.250259 0.47713 -0.173468
-0.183975 0.526165 -0.511638
-0.433379 0.526165 -0.541414
-0.270338 0.47713 0.267393
0.301982 0.526165 0.232092
-0.397857 0.526165 -0.296528
-0.075779 0.47713 -0.173398
0.129487 0.47713 -0.073941
0.148306 0.526165 0.051203
-0.221706 0.47713 0.445654
0.233385 0.47713 -0.081117
0.190685 0.526165 -0.001346
-0.118713 0.526165 -0.281233
-0.183842 0.47713 -0.206142
0.135357 0.526165 0.203249
0.147992 0.47713 -0.35279
-0.007392 0.47713 0.114882
0.156187 0.47713 0.43907
0.204811 0.526165 0.064455
0.136602 0.47713 0.345555
-0.355084 0.47713 0.183621
-0.31064 0.47713 0.313051
0.066833 0.47713 -0.202524
-0.415386 0.526165 0.511317
0.222509 0.526165 0.248791
0.030654 0.47713 -0.347878
-0.461506 0.526165 0.08793
-0.33276 0.47713 0.123553
0.434632 0.526165 -0.24146
-0.1525 0.526165 0.264084
0.128742 0.526165 -0.258849
0.371582 0.47713 0.173583
0.273676 0.526165 -0.327465
0.529994 0.526165 0.268119
-0.188896 0.47713 0.352382
-0.189641 0.47713 -0.477843
0.200081 0.47713 -0.208992
-0.125587 0.526165 0.320418
-0.24932 0.526165 -0.027148
0.561718 0.477427 0.220606
-0.008764 0.47713 -0.461152
0.505862 0.47713 0.351221
-0.127916 0.526165 0.078522
-0.541568 0.523333 -0.45131
-0.44128 0.526165 -0.007743
0.144142 0.47713 0.288984
-0.436238 0.47713 0.425512
-0.437616 0.47713 -0.08049
0.171531 0.47713 0.133374
-0.382013 0.526165 0.197302
-0.479513 0.526165 0.254696
0.270241 0.47713 0.419929
-0.239895 0.526165 0.306787
0.212183 0.47713 0.457236
-0.206873 0.47713 0.052817
0.513902 0.526165 -0.408495
-0.205492 0.47713 0.228258
-0.462192 0.526165 0.465886
-0.461791 0.47713 -0.283908
-0.069181 0.526165 0.225754
-0.001411 0.526165 0.071829
0.466389 0.47713 -0.161068
-0.064214 0.526165 -0.530113
0.125958 0.526165 0.375318
-0.234638 0.47713 -0.118034
-0.209268 0.47713 -0.037771
0.033269 0.526165 -0.425573
0.091717 0.526165 0.099255
-0.386244 0.47713 -0.270513
-0.410678 0.526165 0.284659
0.315249 0.526165 -0.242598
-0.497515 0.47713 -0.351515
0.481088 0.47713 -0.21345
0.323859 0.526165 0.434935
-0.34166 0.47713 -0.026189
-0.230199 0.47713 -0.234392
-0.300773 0.47713 0.505387
0.136623 0.526165 -0.148226
-0.181223 0.526165 -0.328785
0.526652 0.47713 -0.377218
-0.476898 0.526165 -0.099824
0.22171 0.526165 0.397535
0.061902 0.526165 -0.165622
0.263237 0.47713 0.26497
0.362566 0.47713 0.331253
0.398279 0.526165 -0.312934
0.032993 0.47713 0.487961
-0.437889 0.47713 -0.373283
-0.384097 0.526165 0.376969
-0.143256 0.526165 -0.450006
-0.18452 0.526165 0.139818
0.364097 0.47713 -0.091928
-0.153051 0.47713 0.186744
0.555628 0.526165 0.421659
-0.443328 0.47713 0.295728
0.561718 0.51928 -0.014267
0.175046 0.526165 0.43111
-0.465451 0.526165 -0.435126
0.391511 0.47713 -0.393773
0.371838 0.526165 -0.024938
-0.541568 0.493204 0.028447
-0.375221 0.526165 -0.131317
0.401156 0.526165 0.457271
0.522124 0.47713 0.00984
-0.349569 0.526165 0.084587
-0.376619 0.526165 -0.476242
-0.32731 0.47713 -0.550682
-0.037018 0.526165 -0.006647
-0.241676 0.526165 0.453781
0.25528 0.47713 0.095008
0.254607 0.526165 -0.001379
0.007088 0.526165 0.497939
-0.435267 0.47713 0.211444
0.520048 0.526165 -0.073512
-0.265479 0.526165 0.057127
0.418399 0.47713 -0.072753
-0.43029 0.526165 0.134702
0.468577 0.47713 -0.299759
0.466085 0.47713 0.524779
-0.272232 0.526165 -0.50373
-0.526971 0.526165 -0.386295
0.455398 0.47713 0.092937
-0.164572 0.526165 -0.583931
0.484685 0.526165 -0.562914
0.436843 0.526165 0.038616
0.010163 0.526165 -0.1963
-0.332917 0.506407 -0.600367
-0.541568 0.492453 -0.095119
-0.13022 0.47713 -0.211941
0.227147 0.47713 -0.449233
-0.048075 0.526165 0.152358
0.167722 0.526165 -0.306478
-0.531119 0.47713 -0.041913
-0.054738 0.526165 -0.298284
0.289003 0.526165 0.355749
-0.435261 0.526165 -0.330905
-0.199291 0.526165 0.496678
0.10201 0.526165 0.159377
0.338789 0.47713 0.0666
0.104049 0.526165 -0.335095
-0.526934 0.526165 -0.518746
0.306944 0.526165 0.013041
-0.232302 0.47713 -0.285604
0.486901 0.526165 0.51082
0.058067 0.526165 0.238859
-0.133802 0.47713 0.234931
0.309881 0.526165 -0.102367
0.207904 0.526165 0.180684
0.01244 0.47713 -0.276183
-0.00957 0.526165 0.408981
0.47354 0.526165 -0.175321
-0.184449 0.47713 -0.393358
-0.085622 0.47713 0.032371
-0.295493 0.47713 -0.386566
-0.265322 0.47713 -0.581943
-0.133157 0.526165 -0.109147
-0.382431 0.47713 0.082403
-0.317404 0.526165 -0.193145
-0.087643 0.47713 -0.52356
0.491185 0.526165 0.049123
0.476521 0.47713 -0.511824
-0.137226 0.526165 -0.030873
-0.038907 0.526165 0.47814
0.088377 0.47713 -0.046631
0.547134 0.526165 0.042513
0.531583 0.526165 -0.538239
0.083549 0.47713 -0.380751
0.017046 0.47713 -0.01933
-0.04183 0.47713 0.277925
0.192928 0.47713 -0.403083
0.135752 0.477935 -0.600367
0.344166 0.47713 -0.148696
0.481666 0.47713 0.187674
0.271051 0.526165 -0.514524
0.061633 0.526165 0.4067
0.404029 0.47713 -0.024635
0.363514 0.526165 -0.252625
0.388535 0.526165 -0.180154
-0.08653 0.526165 -0.405051
0.369806 0.47713 0.258802
0.147049 0.526165 -0.407431
0.534459 0.47713 -0.226816
0.450689 0.526165 0.213895
0.390967 0.526165 -0.445249
-0.030721 0.526165 0.314712
0.465722 0.47713 -0.023268
-0.461255 0.47713 -0.459015
0.307271 0.47713 0.1151
0.53992 0.526165 -0.178916
0.468598 0.526165 0.153496
0.53293 0.47713 -0.316292
0.325093 0.526165 0.276831
0.561718 0.524624 -0.408658
0.124123 0.526165 0.295426
0.043432 0.47713 0.306384
0.348203 0.47713 0.478251
-0.186784 0.47713 -0.106371
-0.184667 0.526165 -0.179892
-0.00598 0.47713 -0.094239
-0.154792 0.526165 0.478618
0.545026 0.526165 0.218236
0.140706 0.47713 0.236635
-0.083558 0.47713 -0.04545
-0.451292 0.526165 -0.139025
-0.276981 0.47713 -0.234626
-0.234608 0.526165 0.13566
-0.073107 0.47713 -0.220061
0.147501 0.47713 -0.218553
0.362961 0.47713 -0.291474
-0.350497 0.526165 0.422741
-0.362669 0.47713 -0.31062
-0.116265 0.526165 -0.547734
-0.541568 0.480118 -0.337186
-0.498774 0.526165 0.434099
0.2058 0.47713 -0.266308
0.392228 0.47713 0.043583
0.079389 0.47713 0.050444
0.553659 0.47713 0.134801
-0.349394 0.47713 0.019157
0.224208 0.526165 -0.330774
-0.060274 0.526165 0.437052
0.36966 0.47713 0.383663
-0.01158 0.526165 -0.416335
-0.257369 0.526165 -0.454371
-0.403174 0.526165 -0.052872
0.51197 0.47713 -0.420327
0.254737 0.47713 -0.122535
-0.140061 0.526165 0.124892
0.219551 0.526165 -0.174687
0.561718 0.520541 -0.319342
0.230082 0.526165 0.120522
-0.523896 0.47713 0.46497
0.060811 0.47713 0.118058
0.456294 0.47713 -0.097445
-0.395192 0.47713 0.447668
-0.142879 0.47713 0.487322
0.228545 0.526165 -0.500248
0.267176 0.47713 0.175539
0.185658 0.486348 -0.600367
-0.517916 0.526165 0.009907
0.121472 0.526165 0.495152
-0.355176 0.526165 -0.409952
-0.469083 0.47713 -0.190234
0.040185 0.526165 -0.303352
-0.141686 0.526165 0.409412
0.173021 0.47713 -0.061822
0.04127 0.47713 0.207798
0.042031 0.526165 -0.54067
0.066269 0.526165 -0.016572
0.396788 0.526165 0.020132
-0.048914 0.526165 0.035699
-0.030698 0.47713 0.017586
-0.259768 0.526165 0.358966
0.343462 0.47713 -0.192473
-0.186018 0.47713 0.267298
0.340967 0.526165 0.102168
0.466642 0.47713 0.255367
-0.029106 0.47713 -0.515577
0.083246 0.526165 0.47448
0.484119 0.526165 -0.036911
0.185132 0.47713 -0.459959
-0.044695 0.47713 0.138129
0.555263 0.526165 0.339912
0.038591 0.526165 -0.062555
-0.358661 0.47713 0.3114
0.414549 0.47713 -0.491429
0.171332 0.47713 0.090364
-0.233841 0.526165 -0.411585
0.463225 0.47713 0.347382
-0.081177 0.47713 -0.456988
-0.336127 0.526165 -0.510819
0.32497 0.47713 0.44239
0.226868 0.497337 -0.600367
-0.040885 0.526165 -0.162716
-0.088409 0.526165 0.187747
0.452002 0.47713 -0.244514
-0.116202 0.47713 -0.099141
-0.024061 0.47713 -0.191803
-0.473204 0.47713 0.246945
-0.38604 0.526165 -0.347204
0.338409 0.47713 -0.05829
-0.389864 0.47713 -0.040974
0.561718 0.505291 -0.517157
-0.452023 0.526165 0.422872
-0.084494 0.47713 0.460062
-0.477365 0.47713 0.434602
0.19476 0.526165 -0.526356
-0.274749 0.47713 0.459661
0.304706 0.47713 -0.437905
-0.27691 0.526165 0.476437
-0.367789 0.526165 -0.090093
-0.329154 0.47713 0.474705
0.165709 0.526165 0.149569
0.108458 0.47713 -0.202079
0.154113 0.515228 -0.600367
0.17164 0.47713 0.32326
0.099064 0.526165 -0.566684
-0.521209 0.47713 -0.127863
-0.417263 0.526165 0.34426
0.181112 0.526165 -0.227659
0.019961 0.526165 -0.151491
0.353643 0.526165 0.22763
0.153904 0.47713 -0.526089
0.182101 0.526165 0.379141
-0.446672 0.526165 -0.236444
-0.541568 0.498317 -0.418455
0.415528 0.526165 0.258515
-0.115124 0.526165 -0.233626
0.407587 0.47713 0.123076
-0.327711 0.526165 -0.06944
-0.086732 0.526165 -0.021835
-0.078907 0.526165 -0.264964
-0.122979 0.47713 0.44236
0.0454 0.526165 0.036505
-0.236227 0.47713 0.519852
0.225956 0.526165 -0.032195
0.051279 0.47713 -0.13445
-0.38154 0.526165 -0.516993
0.257259 0.47713 0.01628
0.271775 0.47713 -0.066667
0.101568 0.526165 0.41772
0.47562 0.526165 -0.242014
0.230578 0.526165 0.290887
-0.176974 0.526165 -0.427162
0.523977 0.47713 0.18388
0.515859 0.47713 0.406227
-0.269248 0.47713 -0.355545
0.305318 0.47713 -0.262199
0.506804 0.47713 -0.182116
0.097752 0.47713 -0.483911
0.521868 0.47713 0.242639
-0.042212 0.480235 -0.600367
-0.14998 0.47713 -0.416228
0.24562 0.47713 -0.199163
0.487337 0.526165 0.233453
0.415885 0.47713 -0.202536
-0.511115 0.526165 -0.079372
0.402061 0.47713 0.335981
0.148708 0.47713 -0.301866
-0.445782 0.47713 -0.001217
-0.078118 0.47713 0.324269
-0.416409 0.526165 0.023171
0.304326 0.526165 0.317407
0.139271 0.526165 -0.480184
-0.271339 0.526165 0.150434
0.561028 0.47713 0.345186
0.561718 0.501996 -0.086377
0.4443 0.526165 -0.388665
0.375629 0.526165 0.12797
-0.192174 0.526165 -0.250381
-0.060573 0.47713 0.36071
-0.486968 0.47713 -0.240137
-0.153781 0.47713 0.334692
0.016719 0.526165 -0.096998
-0.366402 0.526165 -0.595307
-0.301382 0.526165 -0.588033
-0.288487 0.526165 -0.430621
-0.222945 0.47713 -0.080683
0.376696 0.47713 -0.229199
0.073324 0.526165 -0.438569
-0.29448 0.47713 0.115512
-0.25463 0.526165 -0.245332
-0.165226 0.526165 -0.293229
-0.036706 0.526165 0.194804
0.123534 0.526165 -0.376444
-0.001164 0.47713 -0.055646
0.405647 0.526165 -0.267327
0.459036 0.47713 0.052214
0.317187 0.526165 -0.150396
-0.169956 0.47713 -0.169991
-0.227328 0.47713 -0.467325
0.52003 0.526165 -0.142027
-0.187305 0.47713 0.463378
-0.191655 0.47713 0.189405
0.561718 0.495815 -0.376369
-0.467273 0.47713 -0.055776
-0.400087 0.47713 -0.365805
0.194871 0.526165 0.312377
0.097323 0.47713 0.280706
0.273527 0.47713 0.137592
-0.047967 0.526165 -0.087952
0.251889 0.47713 0.453614
0.211049 0.526165 -0.576657
0.393046 0.526165 -0.58496
0.435355 0.47713 -0.438532
0.516184 0.47713 -0.567465
0.561718 0.490619 0.259885
0.133966 0.47713 -0.133547
-0.336177 0.526165 -0.159999
0.314605 0.526165 -0.340699
0.263869 0.526165 -0.41568
-0.074919 0.526165 -0.455093
-0.238759 0.526165 -0.373966
0.561718 0.478952 0.181145
-0.365613 0.47713 0.381277
0.349424 0.526165 -0.574386
0.394693 0.47713 0.50569
-0.17037 0.526165 0.178307
-0.295272 0.47713 -0.297519
0.295311 0.47713 -0.169498
-0.376758 0.526165 0.524491
0.427691 0.526165 -0.453387
-0.130632 0.526165 -0.146663
0.436643 0.47713 -0.594459
0.087288 0.47713 -0.530212
0.129726 0.47713 0.150679
0.189422 0.526165 0.521306
0.418647 0.47713 0.415607
0.164681 0.526165 -0.269147
0.08114 0.526165 0.322573
-0.322573 0.47713 -0.098735
0.518276 0.526165 -0.248678
0.380531 0.47713 -0.12537
0.561718 0.507167 -0.441589
-0.114387 0.47713 0.136579
-0.278557 0.526165 -0.085828
-0.283622 0.526165 0.426838
0.34349 0.47713 -0.37268
-0.537638 0.526165 -0.311138
-0.46211 0.526165 -0.03842
0.04816 0.47713 0.070374
-0.310459 0.47713 0.03882
0.373994 0.47713 0.210513
0.343464 0.480499 -0.600367
0.451883 0.526165 0.473221
-0.435061 0.526165 0.062251
-0.541568 0.497014 0.38158
0.237584 0.526165 0.048025
-0.283954 0.47713 -0.542788
0.544882 0.526165 0.158312
-0.28569 0.526165 0.185049
-0.517763 0.526165 0.24687
-0.085634 0.526165 -0.572563
-0.245542 0.47713 0.177721
0.52774 0.47713 0.314347
0.529263 0.526165 0.515115
0.172171 0.47713 -0.566304
0.373936 0.47713 -0.050626
-0.225995 0.526165 -0.325809
-0.19611 0.478998 -0.600367
-0.109699 0.47713 -0.492827
0.149807 0.47713 0.37932
0.11206 0.47713 -0.348075
-0.019206 0.47713 0.36361
0.24383 0.47713 0.343868
-0.28127 0.526165 -0.194858
0.370968 0.47713 -0.470163
-0.256047 0.47713 0.128704
-0.364814 0.47713 -0.23395
-0.541568 0.506521 -0.060341
0.561718 0.49391 -0.551552
-0.281668 0.526165 0.024974
0.132582 0.526165 -0.064383
0.040344 0.47713 -0.543723
-0.002485 0.47713 0.316455
0.306779 0.526165 0.133434
0.209039 0.526165 0.44251
-0.418738 0.47713 0.243245
-0.279461 0.526165 -0.046501
0.194596 0.526165 -0.42549
0.561718 0.504821 -0.197396
-0.170855 0.47713 -0.445126
-0.023514 0.526165 -0.506454
-0.132525 0.47713 -0.363595
0.561718 0.504693 -0.599888
-0.324227 0.47713 0.409402
-0.083299 0.526165 -0.369729
-0.488586 0.499627 -0.600367
0.022075 0.47713 0.134499
-0.306205 0.526165 -0.272041
-0.218233 0.47713 0.371985
-0.430355 0.526165 -0.438146
0.376051 0.526165 -0.413418
-0.050547 0.47713 -0.379244
0.383796 0.526165 0.487801
-0.340089 0.526165 -0.449748
-0.397147 0.526165 0.245241
-0.36917 0.47713 0.241882
0.46042 0.47713 0.12766
0.233894 0.47713 -0.318846
0.386865 0.526165 -0.071761
0.280088 0.495465 -0.600367
-0.127465 0.47713 -0.31107
-0.235697 0.47713 0.262735
-0.305722 0.526165 0.496138
-0.536152 0.526165 -0.555642
0.370213 0.526165 0.042724
0.311621 0.47713 0.47987
-0.294402 0.526165 -0.31376
0.457299 0.47713 0.491324
0.079274 0.526165 0.133331
0.297562 0.526165 0.087957
0.043723 0.47713 0.422276
0.207001 0.526165 -0.092636
0.337615 0.526165 -0.026306
-0.423286 0.526165 -0.175571
0.197773 0.47713 -0.154956
0.536316 0.47713 -0.146226
0.07524 0.47713 0.204019
-0.51212 0.526165 -0.417069
0.484457 0.526165 -0.391171
-0.084457 0.526165 -0.197359
-0.328375 0.526165 0.057847
-0.434826 0.526165 -0.065425
0.270164 0.47713 -0.332871
0.023227 0.526165 -0.476077
-0.352484 0.526165 -0.329624
-0.089583 0.526165 -0.298752
0.232081 0.526165 0.086616
0.171326 0.526165 0.464814
-0.036467 0.47713 -0.480673
-0.187987 0.526165 -0.045894
0.064245 0.47713 -0.352056
0.369735 0.47713 -0.171202
-0.091728 0.526165 -0.091364
-0.475535 0.526165 0.143499
0.427324 0.47713 -0.54739
-0.117079 0.526165 -0.42886
0.271688 0.47713 -0.262845
-0.161451 0.47713 -0.065652
-0.220747 0.47713 0.479229
0.002723 0.526165 0.317748
-0.257789 0.526165 -0.298826
0.492499 0.47713 -0.101684
0.33674 0.47713 0.033129
-0.415551 0.526165 0.473066
-0.00847 0.47713 0.081399
0.199996 0.47713 0.210603
0.127387 0.526165 0.250231
0.561718 0.523117 0.189524
-0.096025 0.486414 -0.600367
-0.002112 0.47713 -0.353502
0.376281 0.526165 -0.337789
0.478956 0.526165 0.345535
-0.389708 0.47713 0.114652
-0.205161 0.47713 0.323608
0.004014 0.47713 -0.31963
-0.030816 0.47713 0.510433
0.373534 0.526165 -0.370638
0.158614 0.526165 0.288735
-0.516314 0.47713 -0.08088
-0.482337 0.47713 0.084854
0.306395 0.47713 -0.485695
-0.122073 0.526165 -0.059847
-0.393377 0.47713 -0.074389
0.540809 0.526165 0.009859
-0.360578 0.47713 -0.509988
-0.095887 0.526165 0.08477
0.109789 0.47713 -0.400124
-0.271207 0.47713 -0.067586
0.151109 0.47713 -0.098336
0.135671 0.526165 0.34019
0.189773 0.47713 0.430402
-0.402394 0.47713 -0.467924
0.276465 0.526165 0.25209
-0.005554 0.526165 -0.580101
0.191942 0.47713 -0.000391
0.259689 0.47713 -0.412648
-0.297597 0.47713 -0.581525
0.369893 0.526165 -0.470685
-0.21005 0.526165 0.368358
0.268739 0.526165 0.380777
-0.048861 0.47713 0.398803
0.507815 0.47713 -0.504638
0.31381 0.526165 -0.420379
0.26606 0.526165 0.478103
0.044744 0.47713 -0.399002
-0.443223 0.47713 0.140669
-0.077843 0.526165 0.475263
-0.108048 0.47713 0.298087
-0.183148 0.526165 0.100315
0.409814 0.47713 0.465812
0.127075 0.526165 0.074879
-0.222548 0.526165 -0.186792
0.2244 0.47713 0.087617
0.337094 0.47713 0.098291
-0.01489 0.496359 -0.600367
0.518797 0.526165 -0.109234
0.448242 0.526165 0.294384
0.51962 0.47713 -0.021663
-0.045351 0.47713 0.448028
0.382594 0.526165 -0.523589
0.198675 0.526165 0.281042
0.21403 0.526165 -0.46048
-0.466958 0.47713 0.021991
0.499759 0.526165 -0.52179
0.043056 0.47713 -0.223014
-0.064566 0.47713 -0.308357
-0.210455 0.526165 0.062495
-0.496152 0.47713 -0.043724
-0.479745 0.526165 -0.182711
0.119971 0.47713 -0.105641
-0.541568 0.495195 0.31342
0.421672 0.526165 0.136581
-0.284563 0.47713 -0.42105
-0.453514 0.526165 0.276928
-0.338163 0.526165 -0.018966
0.126407 0.47713 -0.506894
0.416307 0.526165 -0.349152
0.235073 0.526165 -0.210096
0.01774 0.47713 -0.377099
0.236429 0.47713 0.177716
0.314103 0.526165 -0.517241
0.492922 0.47713 -0.145433
0.476888 0.526165 -0.483768
0.090395 0.47713 0.020395
-0.153374 0.47713 0.025137
0.200222 0.526165 -0.302554
-0.497596 0.526165 -0.234184
0.561718 0.481381 -0.325996
0.385592 0.47713 0.144405
0.561718 0.521684 -0.288729
-0.541568 0.484371 0.065996
0.450376 0.47713 -0.127443
0.054128 0.526165 0.460756
0.264388 0.47713 0.045996
-0.087897 0.526165 0.417496
-0.175177 0.47713 0.312898
0.543592 0.47713 -0.351833
-0.172093 0.526165 0.411889
-0.487889 0.526165 0.320573
-0.177354 0.526165 0.341238
0.475444 0.526165 0.311762
-0.182716 0.47713 -0.362998
-0.113858 0.526165 -0.189612
-0.541568 0.493262 0.217314
-0.43908 0.47713 0.085099
-0.437648 0.485658 -0.600367
-0.318662 0.47713 -0.367018
-0.256438 0.47713 0.483725
0.435527 0.47713 -0.280748
0.582138 0.147593 0.527436
0.580249 -0.22631 0.527436
0.576009 -0.375158 0.527436
0.582882 -0.547043 0.527436
0.581634 -0.09982 0.527436
0.592056 -0.344042 0.527436
0.565876 -0.162712 0.527436
-0.550835 0.326922 0.527436
-0.574496 0.194844 0.527436
-0.577764 0.343201 0.527436
-0.386512 -0.574679 0.527436
-0.052953 -0.585124 0.527436
-0.297898 -0.575425 0.527436
-0.160015 -0.571993 0.527436
0.336879 -0.545088 0.527436
-0.104877 -0.542589 0.527436
-0.085474 -0.569864 0.527436
-0.066279 0.492727 0.527436
0.385049 0.525132 0.527436
0.167322 0.479565 0.527436
-0.164015 0.497727 0.527436
0.268612 0.517711 0.527436
-0.294758 0.513782 0.527436
-0.10527 0.490229 0.527436
0.030991 0.503673 0.527436
0.448476 0.509097 0.527436
-0.331634 0.485631 0.527436
-0.003392 0.494907 0.527436
-0.130063 0.512435 0.527436
0.223836 0.51367 0.527436
0.324382 0.479829 0.527436
0.54929 -0.431574 0.160721
0.54333 -0.436256 0.087268
0.555589 -0.491279 0.195756
0.544669 -0.491707 0.525138
0.548507 -0.489007 0.021074
0.552524 -0.469131 0.373748
0.549853 -0.431574 0.305661
0.553511 -0.431574 0.420687
0.552369 -0.434383 -0.222951
0.550666 -0.476812 0.159112
0.544678 -0.434383 0.382455
0.552524 -0.457204 -0.45334
0.555589 -0.489182 -0.109187
0.552524 -0.461625 -0.288612
0.546772 -0.491707 -0.40533
0.554219 -0.431574 0.118523
0.550923 -0.491707 -0.336781
0.545993 -0.479928 0.494296
0.547143 -0.491707 0.08998
-0.535264 -0.491707 -0.125218
-0.527677 -0.434383 0.366235
-0.532374 -0.468991 -0.179272
-0.532374 -0.46511 -0.309519
-0.535208 -0.491707 -0.486191
-0.531975 -0.431574 -0.214902
-0.522313 -0.431574 0.324898
-0.525471 -0.434383 -0.457042
-0.532374 -0.453398 -0.497247
-0.529794 -0.446082 0.252225
-0.530805 -0.476619 -0.216455
-0.52318 -0.482302 -0.454993
-0.526928 -0.491707 -0.330378
-0.535439 -0.433722 -0.331188
-0.524911 -0.489007 0.38676
-0.52318 -0.440868 0.397238
-0.535439 -0.431598 0.463903
0.552524 -0.150117 0.076714
0.539085 -0.182826 -0.296617
0.552524 -0.143805 0.153976
0.552278 -0.182826 -0.223906
0.552524 -0.155616 -0.054441
0.552524 -0.148757 0.388954
0.54333 -0.176757 0.460488
0.545175 -0.122692 -0.335871
0.552524 -0.139628 0.33989
0.554257 -0.125502 -0.387801
0.538332 -0.122692 -0.210905
0.544643 -0.122692 0.114574
0.54647 -0.182826 0.038043
0.550371 -0.137484 0.465243
0.54333 -0.127916 -0.434338
0.544472 -0.133552 -0.146338
