0.628382 -0.046329 -0.226266
0.451286 -0.071785 0.335944
-0.417117 -0.046329 -0.162543
0.402762 -0.071785 0.254259
-0.46389 -0.046329 -0.105979
0.201551 -0.071785 -0.167171
0.198904 -0.071785 -0.296214
-0.281375 -0.071785 -0.330583
0.459639 -0.046329 -0.023396
0.709585 -0.046329 0.208903
0.132904 -0.071785 0.057007
0.63284 -0.046329 -0.3308
-0.322486 -0.071785 -0.091434
-0.40365 -0.046329 -0.325983
0.205649 -0.046329 -0.064534
-0.11555 -0.071785 -0.145194
0.002124 -0.071785 -0.324317
0.244477 -0.071785 0.001106
-0.189962 -0.046329 -0.236252
0.57025 -0.046329 0.054062
0.185819 -0.071785 0.235295
0.620562 -0.046329 0.223482
-0.049512 -0.071785 -0.047491
-0.213863 -0.046329 0.261399
-0.619997 -0.046329 -0.020928
0.423042 -0.046329 0.136112
0.067399 -0.071785 0.264899
0.650795 -0.046329 -0.113046
-0.153245 -0.071785 -0.052376
-0.067669 -0.071785 -0.201896
0.333758 -0.071785 -0.225963
-0.289978 -0.046329 -0.273956
-0.602864 -0.071785 0.231791
0.33156 -0.071785 0.184793
-0.086754 -0.046329 -0.26307
-0.328878 -0.071785 0.014203
-0.36175 -0.046329 -0.040884
0.693622 -0.071785 -0.221364
-0.32128 -0.046329 0.320478
0.615266 -0.071785 0.086648
-0.00902 -0.071785 0.302464
-0.628811 -0.046329 -0.087682
0.678361 -0.071785 0.163823
0.30193 -0.071785 0.331706
0.101993 -0.046329 0.155287
0.396926 -0.071785 -0.22173
-0.363714 -0.046329 0.05552
-0.357854 -0.046329 -0.150886
-0.558498 -0.046329 0.334928
-0.153537 -0.046329 0.265167
0.116366 -0.071785 -0.342208
-0.026829 -0.071785 -0.375864
0.557762 -0.046329 0.175712
0.428309 -0.046329 -0.317791
0.554572 -0.046329 -0.101087
-0.363375 -0.046329 -0.377827
-0.383481 -0.046329 0.29416
0.657496 -0.071785 0.32164
-0.525706 -0.046329 -0.107505
0.004229 -0.046329 0.10466
-0.621044 -0.046329 -0.354051
-0.44697 -0.071785 0.362242
0.033566 -0.046329 -0.171636
-0.292015 -0.071785 0.117481
-0.428453 -0.046329 -0.03535
0.628121 -0.046329 -0.03011
-0.054872 -0.046329 0.158771
-0.556096 -0.046329 -0.039854
-0.168738 -0.046329 -0.3468
-0.051035 -0.046329 0.05232
0.446951 -0.046329 0.207276
-0.624031 -0.046329 0.178635
0.047141 -0.071785 -0.067494
0.329271 -0.071785 -0.144233
-0.513083 -0.046329 0.081366
0.06794 -0.071785 -0.378511
0.217592 -0.071785 -0.11333
0.053132 -0.046329 0.192128
0.335726 -0.046329 0.092565
-0.510982 -0.071785 0.282028
-0.601377 -0.071785 0.058341
-0.322391 -0.046329 0.213274
0.328668 -0.046329 -0.010345
0.534307 -0.071785 -0.299263
-0.410969 -0.071785 0.246538
-0.274885 -0.071785 0.352607
-0.489135 -0.046329 -0.292684
0.049774 -0.071785 -0.257486
-0.347868 -0.046329 0.109252
-0.245128 -0.071785 -0.160277
0.24715 -0.046329 0.142296
-0.048662 -0.046329 0.238905
-0.542691 -0.071785 -0.373161
0.15635 -0.046329 -0.317581
-0.436745 -0.071785 0.136938
-0.310888 -0.071785 -0.232104
0.702416 -0.046329 -0.094358
-0.620994 -0.071785 0.283262
-0.138226 -0.046329 -0.002425
0.477776 -0.046329 -0.369264
0.364459 -0.071785 0.042792
0.221395 -0.046329 -0.385689
0.367604 -0.046329 -0.046043
-0.162012 -0.071785 -0.104251
-0.322055 -0.071785 -0.180761
0.229683 -0.071785 -0.211386
0.200417 -0.071785 0.038656
0.115642 -0.071785 0.006534
0.512897 -0.046329 0.085196
0.109264 -0.071785 0.342361
-0.400464 -0.071785 -0.238421
0.711307 -0.046329 -0.331303
-0.064518 -0.046329 -0.128225
-0.621937 -0.071785 0.113847
0.113771 -0.046329 -0.139131
0.366157 -0.046329 0.147537
0.150123 -0.071785 -0.047881
-0.190758 -0.071785 0.057899
-0.551245 -0.071785 -0.272113
0.524439 -0.046329 -0.030714
-0.463532 -0.046329 -0.200079
0.271286 -0.071785 0.068711
-0.111678 -0.071785 0.243801
-0.128996 -0.046329 0.198807
-0.32487 -0.046329 -0.343616
0.019247 -0.046329 -0.221046
0.516724 -0.046329 0.22471
0.323393 -0.046329 0.228642
-0.247707 -0.071785 -0.023664
-0.435829 -0.046329 0.031966
0.679959 -0.046329 -0.011237
-0.199923 -0.071785 0.166973
0.433976 -0.071785 0.017018
0.207646 -0.071785 0.123163
0.234496 -0.071785 0.327888
-0.543135 -0.046329 0.225441
0.47004 -0.046329 -0.101241
0.411747 -0.046329 -0.126246
0.42562 -0.071785 -0.272504
-0.169946 -0.071785 0.103169
0.670748 -0.071785 -0.362029
-0.130604 -0.071785 -0.256931
0.507043 -0.071785 -0.140508
-0.615641 -0.071785 0.332716
0.102593 -0.046329 -0.235956
0.600774 -0.071785 0.177076
-0.381931 -0.071785 0.142043
-0.173552 -0.071785 -0.170488
0.217395 -0.046329 -0.334123
0.095875 -0.046329 0.079362
-0.457788 -0.071785 0.092623
-0.495263 -0.071785 -0.000576
-0.420536 -0.071785 0.318306
-0.103999 -0.071785 0.052414
0.477962 -0.046329 -0.188032
0.297859 -0.046329 -0.278408
-0.107514 -0.071785 0.159205
0.070193 -0.071785 -0.015258
0.322103 -0.046329 -0.185063
0.275892 -0.071785 -0.09388
-0.214214 -0.046329 -0.194804
0.131578 -0.071785 0.249333
0.586754 -0.046329 -0.202546
-0.635628 -0.071785 0.019704
0.549017 -0.046329 0.268712
0.197097 -0.071785 -0.021909
0.706236 -0.071785 -0.166188
-0.261067 -0.046329 0.083583
-0.12837 -0.06541 0.362877
0.373024 -0.071785 0.107018
-0.234512 -0.046329 -0.325794
0.159853 -0.071785 0.177998
-0.565638 -0.046329 -0.336976
-0.341086 -0.046329 -0.257792
-0.010483 -0.071785 0.21607
0.312333 -0.071785 -0.363658
-0.442391 -0.071785 -0.07309
0.228759 -0.046329 0.232044
0.018601 -0.046329 0.016244
-0.546068 -0.071785 0.124584
-0.188621 -0.071785 0.299215
0.343919 -0.071785 -0.271437
0.446686 -0.071785 0.167059
0.050687 -0.046329 0.068582
0.699677 -0.071785 0.302189
-0.361628 -0.071785 0.193243
-0.220383 -0.071785 0.223121
0.356559 -0.071785 0.249893
0.575161 -0.046329 -0.32219
0.173784 -0.071785 0.300903
-0.262535 -0.046329 -0.094163
0.007628 -0.046329 -0.286256
0.429107 -0.046329 0.28655
0.664152 -0.046329 0.201597
0.460947 -0.071785 -0.061486
0.611648 -0.071785 0.00985
-0.568052 -0.046329 -0.204474
0.553254 -0.071785 -0.062733
-0.066202 -0.046329 -0.36856
-0.537765 -0.046329 0.043126
-0.238193 -0.046329 0.1462
-0.582036 -0.046329 -0.250008
0.279854 -0.046329 0.015675
0.668912 -0.046329 0.11982
-0.015575 -0.071785 -0.00642
-0.252636 -0.071785 -0.273467
-0.604633 -0.071785 -0.136813
0.139113 -0.071785 -0.223491
-0.4638 -0.046329 0.326938
-0.195973 -0.071785 0.356241
0.433573 -0.071785 -0.195652
-0.195907 -0.046329 -0.089546
0.489607 -0.046329 -0.25057
-0.116906 -0.046329 0.090962
0.378395 -0.071785 -0.111275
-0.453247 -0.071785 0.180108
0.497388 -0.071785 -0.00657
0.177251 -0.071785 0.076358
-0.425507 -0.071785 -0.197746
0.316376 -0.071785 -0.313862
0.164236 -0.046329 -0.270866
0.09036 -0.071785 -0.089295
0.039559 -0.071785 0.225312
-0.057671 -0.046329 0.319352
-0.524052 -0.046329 -0.171314
-0.501292 -0.071785 -0.081438
-0.409079 -0.071785 0.05563
0.27613 -0.046329 0.176811
-0.359451 -0.046329 -0.091612
-0.029928 -0.046329 -0.205887
0.27127 -0.046329 0.261001
0.219788 -0.046329 -0.267567
0.577495 -0.046329 -0.03707
-0.137859 -0.071785 -0.363792
0.481981 -0.071785 0.203514
-0.503853 -0.046329 -0.343048
-0.318173 -0.071785 0.36218
0.138288 -0.046329 -0.080858
-0.327351 -0.071785 0.281836
0.299057 -0.046329 -0.120035
0.36341 -0.071785 -0.310623
-0.394627 -0.071785 -0.052268
-0.09453 -0.071785 0.324826
-0.16519 -0.071785 0.023208
0.341252 -0.071785 0.300672
-0.03794 -0.046329 0.096781
-0.173059 -0.071785 -0.274128
-0.375709 -0.046329 -0.293502
0.275226 -0.046329 -0.346135
-0.589785 -0.046329 0.146106
0.514819 -0.071785 0.26538
0.468161 -0.046329 0.060579
0.279408 -0.046329 -0.186727
-0.290458 -0.046329 -0.370505
0.102612 -0.071785 0.290842
0.113755 -0.071785 0.118574
-0.374521 -0.071785 -0.18076
-0.037173 -0.046329 -0.09156
-0.116832 -0.071785 0.286684
0.388728 -0.046329 -0.333457
-0.270166 -0.046329 0.318935
-0.295113 -0.046329 0.180439
-0.383673 -0.046329 0.21885
0.027718 -0.046329 -0.362554
0.529112 -0.046329 -0.332546
-0.457206 -0.046329 -0.149323
-0.238633 -0.071785 0.284177
0.631206 -0.071785 0.255404
-0.260583 -0.071785 0.235844
0.571385 -0.071785 0.337731
0.154899 -0.046329 -0.148263
-0.592033 -0.071785 -0.039371
-0.230669 -0.046329 0.188977
0.480214 -0.046329 0.319343
0.636254 -0.046329 0.294333
-0.328532 -0.071785 -0.039667
0.02511 -0.071785 -0.130032
-0.407326 -0.071785 -0.279587
-0.636129 -0.046329 -0.229577
0.521012 -0.046329 0.126045
-0.491946 -0.071785 -0.242892
-0.519671 -0.046329 0.180603
-0.443251 -0.071785 0.220501
0.562531 -0.046329 -0.159395
0.077715 -0.046329 -0.34737
0.323134 -0.046329 -0.060429
-0.602576 -0.046329 0.016556
-0.458871 -0.071785 -0.022063
0.527403 -0.071785 0.052243
-0.090101 -0.071785 -0.040216
0.301002 -0.071785 0.097298
-0.453873 -0.046329 -0.314236
-0.197304 -0.046329 0.134693
0.672566 -0.071785 0.030138
0.650425 -0.046329 0.083059
-0.597518 -0.071785 -0.376354
0.619393 -0.071785 0.345773
0.395465 -0.071785 0.350523
-0.404648 -0.046329 -0.370491
0.691997 -0.046329 0.333314
-0.068521 -0.071785 -0.161
0.560919 -0.046329 -0.276582
-0.179204 -0.046329 -0.307374
0.266954 -0.046329 0.336644
0.615363 -0.071785 -0.176348
-0.03823 -0.071785 -0.283084
0.236599 -0.071785 0.172193
-0.62208 -0.071785 -0.275702
-0.052164 -0.046329 0.004295
0.685119 -0.071785 0.235528
-0.497256 -0.046329 0.252709
-0.273465 -0.046329 -0.00227
0.059621 -0.046329 0.137325
-0.122312 -0.046329 -0.047094
0.627831 -0.071785 -0.363366
-0.097765 -0.071785 -0.33713
0.61227 -0.071785 -0.108933
0.36632 -0.046329 -0.215575
0.231768 -0.071785 -0.047608
0.254299 -0.071785 -0.275721
-0.040317 -0.071785 0.131306
0.3993 -0.071785 -0.155956
-0.567707 -0.046329 -0.117876
-0.0922 -0.046329 -0.220828
0.68572 -0.071785 -0.13179
0.401581 -0.046329 0.022991
-0.60575 -0.071785 -0.17674
-0.101226 -0.046329 -0.180257
0.243432 -0.046329 0.049705
0.454762 -0.046329 -0.281704
0.126317 -0.071785 -0.380874
0.206172 -0.046329 0.008752
-0.154451 -0.046329 -0.146875
0.070992 -0.046329 -0.158801
-0.520873 -0.071785 -0.030681
0.166833 -0.046329 0.048017
0.591875 -0.046329 0.123168
0.030467 -0.071785 0.27871
0.103761 -0.046329 -0.314887
0.195853 -0.071785 0.33551
0.601747 -0.046329 0.321485
0.298129 -0.071785 -0.041133
-0.277341 -0.071785 -0.068147
-0.001817 -0.046329 -0.066545
-0.02559 -0.046329 0.27764
-0.224243 -0.046329 -0.264281
0.304307 -0.046329 0.064809
-0.386499 -0.071785 -0.143447
-0.235177 -0.069311 0.362877
0.360363 -0.071785 -0.363242
-0.528011 -0.071785 -0.200412
-0.035593 -0.071785 -0.333194
-0.566142 -0.071785 0.074262
0.399575 -0.071785 0.164372
0.14089 -0.046329 0.155997
0.602264 -0.046329 0.257781
-0.240865 -0.046329 -0.131562
-0.026294 -0.046329 0.184717
0.535217 -0.071785 0.157614
0.165296 -0.071785 -0.181673
-0.564565 -0.071785 0.301341
-0.543519 -0.071785 -0.147294
0.640154 -0.071785 0.168294
-0.627536 -0.071785 -0.054168
0.473014 -0.071785 0.027324
0.023546 -0.046329 0.311546
-0.063726 -0.071785 -0.245924
0.506479 -0.071785 -0.369822
0.379619 -0.046329 -0.082426
-0.223055 -0.071785 -0.222041
-0.60238 -0.046329 0.261569
0.415798 -0.071785 0.108508
0.630897 -0.071785 -0.275973
0.544076 -0.046329 0.017195
-0.161649 -0.071785 -0.233462
0.02796 -0.046329 -0.090356
0.179714 -0.046329 0.144953
0.352571 -0.046329 0.2043
-0.638708 -0.070645 0.362877
-0.228002 -0.046329 0.000174
-0.539223 -0.046329 -0.002147
0.327222 -0.071785 0.12688
0.351654 -0.071785 -0.190391
-0.58675 -0.046329 0.359936
-0.628526 -0.046329 0.221032
-0.012173 -0.046329 -0.126534
0.533589 -0.071785 0.202708
-0.098359 -0.071785 -0.288211
0.264919 -0.071785 0.121152
-0.214807 -0.046329 -0.049738
0.435255 -0.046329 -0.354653
-0.44825 -0.046329 0.247924
-0.158335 -0.046329 0.351166
0.244118 -0.071785 0.254741
0.107379 -0.046329 0.043332
-0.215508 -0.046329 0.086137
0.092122 -0.046329 0.253618
-0.422899 -0.046329 0.349751
-0.283468 -0.046329 0.215758
0.503388 -0.071785 -0.273881
0.05649 -0.046329 0.289677
0.091823 -0.071785 -0.176143
0.37821 -0.071785 0.28205
0.624566 -0.046329 -0.075629
-0.439748 -0.071785 -0.128899
0.568882 -0.046329 -0.234957
-0.616066 -0.071785 0.152996
-0.399106 -0.046329 -0.202366
-0.107196 -0.046329 0.126561
0.267555 -0.046329 0.299768
0.683938 -0.046329 0.062476
-0.368428 -0.071785 -0.25667
0.421013 -0.046329 0.322498
0.443801 -0.046329 0.105705
-0.261275 -0.046329 -0.181406
-0.008728 -0.071785 -0.183294
-0.590284 -0.046329 -0.066701
0.502681 -0.071785 0.333338
0.12125 -0.046329 0.187022
0.303168 -0.071785 0.000116
0.149852 -0.046329 0.230332
0.1335 -0.046329 0.326119
-0.591774 -0.071785 -0.333674
-0.301508 -0.071785 -0.010992
0.24655 -0.046329 -0.151859
0.048895 -0.071785 0.019616
-0.089876 -0.071785 -0.109883
-0.311209 -0.046329 0.135151
-0.086379 -0.046329 0.237453
0.671827 -0.046329 -0.235675
0.244012 -0.071785 -0.335435
0.47711 -0.071785 0.242189
-0.381527 -0.071785 -0.358645
0.578917 -0.071785 0.087763
0.018549 -0.046329 0.210064
-0.296823 -0.046329 -0.106224
0.088146 -0.071785 -0.135178
0.651009 -0.071785 0.000892
-0.300138 -0.071785 0.03643
-0.154237 -0.071785 0.209241
0.328403 -0.046329 0.323152
-0.3949 -0.046329 0.164438
0.185026 -0.046329 -0.112866
0.596758 -0.071785 0.055471
-0.255033 -0.046329 -0.055231
0.365519 -0.046329 0.008349
-0.174293 -0.046329 0.165214
-0.370491 -0.071785 0.080265
0.193294 -0.071785 -0.259992
0.025345 -0.071785 0.350641
-0.099856 -0.046329 0.026916
-0.30381 -0.071785 -0.302405
-0.645618 -0.071785 -0.019182
-0.028773 -0.046329 -0.032832
0.239509 -0.046329 -0.076557
0.494208 -0.071785 0.294801
-0.57835 -0.046329 0.218379
-0.007259 -0.046329 0.332905
0.400361 -0.071785 0.216448
-0.494707 -0.071785 0.177077
-0.459221 -0.046329 0.125704
0.290971 -0.071785 -0.209002
-0.340671 -0.046329 -0.012039
-0.297129 -0.071785 0.246596
0.200403 -0.071785 0.26786
-0.371272 -0.071785 0.031685
-0.57541 -0.046329 -0.007773
0.252427 -0.071785 -0.240177
0.076636 -0.071785 0.183354
-0.179494 -0.046329 -0.051666
-0.48364 -0.056496 0.362877
-0.074097 -0.071785 0.141551
0.175922 -0.046329 0.257582
-0.35869 -0.071785 -0.330922
0.232744 -0.046329 0.197092
-0.301408 -0.046329 -0.071191
0.474793 -0.071785 -0.229242
-0.633273 -0.071785 -0.111385
0.381941 -0.046329 0.242393
-0.187651 -0.071785 -0.370871
0.025768 -0.046329 -0.32236
0.657156 -0.071785 -0.33006
0.047763 -0.046329 -0.022713
-0.29757 -0.071785 0.156958
0.614703 -0.046329 -0.139726
-0.170037 -0.071785 -0.018833
-0.015038 -0.046329 -0.344667
-0.063292 -0.046329 -0.288574
0.559732 -0.046329 0.317319
-0.096617 -0.046329 0.180004
0.698059 -0.046329 0.151056
0.021229 -0.071785 0.088476
-0.275965 -0.046329 0.032264
-0.358668 -0.071785 -0.122853
-0.261645 -0.071785 -0.120784
0.084951 -0.071785 -0.301036
0.09609 -0.046329 0.313272
0.606596 -0.071785 -0.234509
-0.347294 -0.046329 0.293791
0.451386 -0.071785 0.301469
0.553487 -0.046329 0.089806
-0.324032 -0.071785 -0.146426
-0.404734 -0.046329 -0.072994
0.578758 -0.071785 -0.101518
-0.538503 -0.071785 -0.088384
-0.14347 -0.071785 0.160805
0.600633 -0.046329 0.029957
-0.435942 -0.071785 -0.234532
-0.154349 -0.046329 -0.082695
0.457849 -0.046329 0.147102
0.307036 -0.046329 0.191429
0.247979 -0.046329 -0.297648
0.654189 -0.071785 -0.250152
0.210048 -0.071785 0.300632
-0.030811 -0.071785 0.252944
-0.553573 -0.071785 0.205314
0.340109 -0.071785 -0.029894
-0.287466 -0.046329 -0.226941
-0.274482 -0.046329 0.131723
0.38984 -0.071785 -0.042088
0.289428 -0.046329 0.230267
-0.321574 -0.071785 0.08077
-0.030265 -0.071785 0.068917
-0.187467 -0.046329 0.026067
0.071785 -0.046329 0.22047
0.322535 -0.046329 0.285714
-0.175619 -0.071785 0.140242
-0.508821 -0.071785 0.126556
-0.542714 -0.071785 0.162665
-0.294937 -0.046329 -0.176801
0.449067 -0.071785 -0.108802
0.471231 -0.071785 -0.324067
-0.553829 -0.067222 0.362877
0.406633 -0.046329 -0.241754
0.677501 -0.046329 -0.158835
0.316579 -0.046329 -0.240008
-0.468738 -0.046329 -0.233434
-0.38674 -0.071785 0.272243
-0.165428 -0.046329 -0.211648
-0.212229 -0.071785 -0.167668
-0.568444 -0.071785 -0.226558
-0.296319 -0.046329 0.357822
-0.335075 -0.046329 0.256266
0.41066 -0.071785 -0.331715
0.503572 -0.071785 -0.039633
0.630352 -0.071785 0.054246
-0.453142 -0.071785 0.30775
-0.369035 -0.071785 0.310602
-0.355121 -0.046329 0.162486
0.134262 -0.046329 -0.251691
0.570774 -0.071785 0.270908
0.099985 -0.071785 -0.030686
-0.470303 -0.046329 0.0657
-0.524839 -0.071785 0.02557
0.655725 -0.046329 -0.298631
-0.610235 -0.046329 -0.115486
-0.214424 -0.071785 -0.026469
-0.118753 -0.046329 -0.31516
-0.452228 -0.071785 0.010624
0.250595 -0.046329 0.089794
-0.126279 -0.046329 0.309446
0.029078 -0.071785 -0.287295
0.356931 -0.046329 -0.110946
-0.618619 -0.046329 0.308648
-0.308899 -0.046329 0.098515
-0.607496 -0.071785 -0.085658
0.335468 -0.046329 0.053193
0.132263 -0.046329 -0.294652
0.015127 -0.071785 -0.051534
0.539091 -0.071785 -0.131674
0.649297 -0.046329 -0.373391
0.595568 -0.071785 -0.315998
0.440438 -0.046329 0.254632
0.552721 -0.046329 0.135697
0.505741 -0.046329 0.19345
0.040565 -0.046329 0.110225
-0.248905 -0.071785 0.315659
-0.112946 -0.071785 -0.066
-0.562131 -0.046329 -0.290144
-0.406558 -0.046329 -0.258514
0.0697 -0.046329 -0.233393
0.474659 -0.046329 0.351958
-0.519606 -0.071785 -0.260819
-0.122157 -0.071785 -0.180766
-0.250338 -0.071785 0.16325
-0.553369 -0.046329 -0.073737
0.135081 -0.071785 0.215646
0.051433 -0.071785 -0.149751
0.591341 -0.071785 0.215632
-0.628865 -0.071785 0.200362
0.337812 -0.046329 0.165091
-0.399774 -0.046329 0.024944
-0.352941 -0.046329 0.357162
-0.527301 -0.046329 0.116019
0.357982 -0.046329 -0.25508
0.588327 -0.046329 0.193526
0.515064 -0.071785 -0.108741
0.247417 -0.071785 0.295362
-0.490057 -0.071785 -0.327745
-0.569193 -0.071785 -0.179413
0.022083 -0.071785 -0.011713
0.000575 -0.071785 -0.151635
0.008403 -0.071785 0.124727
-0.319776 -0.071785 0.184954
0.674528 -0.046329 -0.340882
-0.03065 -0.071785 -0.135224
0.583188 -0.046329 0.15526
0.169057 -0.071785 -0.08367
0.484074 -0.046329 -0.045617
-0.067853 -0.071785 0.269499
0.154841 -0.071785 -0.252059
0.69629 -0.071785 -0.035157
-0.138639 -0.046329 -0.23795
0.134758 -0.071785 -0.145689
0.164572 -0.071785 0.027839
-0.016083 -0.071785 0.103269
0.210627 -0.046329 -0.204523
0.58871 -0.046329 -0.120179
-0.246442 -0.071785 -0.195048
0.127298 -0.046329 -0.360811
0.633126 -0.046329 -0.167043
0.16047 -0.071785 0.330446
-0.469691 -0.071785 -0.287888
0.135039 -0.046329 0.08672
-0.400666 -0.071785 0.208417
0.532819 -0.071785 0.085164
-0.59063 -0.071785 -0.282971
0.570733 -0.071785 -0.177301
0.021654 -0.071785 -0.241874
0.359911 -0.046329 0.274974
0.083772 -0.046329 0.352662
-0.588095 -0.046329 0.322423
0.036311 -0.071785 -0.211435
0.498747 -0.071785 -0.171525
0.612005 -0.071785 -0.041193
-0.25338 -0.046329 0.271351
0.292507 -0.071785 0.210291
-0.617716 -0.046329 -0.192165
0.04076 -0.071785 0.176353
-0.215537 -0.046329 0.054106
-0.083949 -0.046329 -0.058638
0.718449 -0.046329 -0.208657
-0.460284 -0.071785 0.263061
0.691719 -0.046329 0.027527
0.472257 -0.046329 0.008043
0.144828 -0.071785 -0.00643
-0.598287 -0.071785 -0.002238
-0.519898 -0.071785 0.239987
-0.506269 -0.071785 0.060375
-0.432826 -0.046329 -0.003796
-0.632968 -0.046329 -0.295808
-0.164494 -0.046329 0.313223
-0.634096 -0.071785 0.057655
0.312433 -0.071785 -0.266224
0.169868 -0.071785 0.12874
0.304399 -0.046329 0.355248
0.258302 -0.071785 0.037959
-0.003675 -0.046329 0.073937
0.529557 -0.046329 -0.06197
-0.063538 -0.071785 0.066401
-0.427549 -0.071785 0.286774
-0.141566 -0.071785 0.119161
0.537521 -0.046329 -0.378114
0.107018 -0.046329 -0.2701
-0.220179 -0.071785 0.141547
0.223767 -0.046329 -0.236303
-0.276311 -0.071785 -0.164618
-0.318963 -0.046329 -0.286172
0.683341 -0.071785 0.131319
0.484944 -0.071785 -0.117735
0.282788 -0.046329 0.100181
-0.396105 -0.071785 -0.309164
-0.10299 -0.046329 -0.131703
-0.375226 -0.046329 0.249113
0.098893 -0.071785 0.061236
-0.483102 -0.046329 -0.079448
-0.171679 -0.071785 0.264795
0.079006 -0.071785 -0.268472
0.572525 -0.071785 0.304714
0.283816 -0.071785 0.248171
0.237902 -0.071785 0.105658
-0.209019 -0.046329 0.292154
0.589926 -0.046329 -0.261871
0.502947 -0.046329 -0.206464
0.328176 -0.071785 0.350292
-0.549502 -0.071785 -0.018678
0.699151 -0.046329 0.10652
0.437731 -0.071785 -0.30105
0.083982 -0.071785 0.12935
-0.150181 -0.046329 -0.177543
-0.177679 -0.046329 0.245795
0.306358 -0.071785 -0.099215
0.399725 -0.071785 0.319896
0.028484 -0.046329 -0.263446
0.377731 -0.046329 0.059639
-0.068037 -0.046329 -0.090694
0.324891 -0.046329 -0.098398
0.368877 -0.071785 0.166447
-0.338327 -0.071785 0.312452
-0.514186 -0.046329 0.324475
-0.226491 -0.071785 -0.102562
-0.348051 -0.071785 0.128218
0.132013 -0.049966 0.362877
0.293386 -0.046329 -0.013879
-0.130335 -0.046329 0.030013
0.16884 -0.071785 -0.30198
-0.397476 -0.046329 0.070055
0.62824 -0.071785 0.126021
0.335113 -0.071785 0.005364
-0.536628 -0.071785 0.082314
0.416549 -0.046329 0.211367
-0.488341 -0.071785 0.093959
0.499947 -0.046329 -0.094921
-0.185483 -0.046329 0.080451
-0.073521 -0.046329 0.087261
0.571731 -0.046329 -0.361968
0.18666 -0.046329 -0.32087
-0.386264 -0.046329 -0.022758
-0.401056 -0.046329 -0.13515
-0.597996 -0.046329 0.195116
-0.431069 -0.071785 -0.349361
0.540373 -0.071785 -0.170476
0.529945 -0.071785 0.008332
0.66719 -0.046329 0.151485
-0.526662 -0.046329 -0.363159
-0.273187 -0.046329 -0.299298
-0.343197 -0.071785 -0.219476
0.4304 -0.046329 0.033241
0.127975 -0.071785 0.145553
0.6193 -0.071785 0.203787
-0.588484 -0.071785 0.270553
-0.416734 -0.046329 0.126669
0.725234 -0.071785 0.005697
-0.283025 -0.071785 0.088527
0.180994 -0.046329 -0.186489
0.161058 -0.046329 -0.224327
-0.275939 -0.071785 -0.362935
-0.201164 -0.046329 -0.361783
0.654483 -0.071785 -0.034147
0.688433 -0.046329 -0.311653
-0.132337 -0.071785 0.086149
-0.358953 -0.071785 -0.056754
0.599688 -0.046329 0.08291
-0.125641 -0.046329 -0.10349
-0.425203 -0.046329 -0.22275
0.4486 -0.071785 -0.253165
-0.643594 -0.046329 0.005907
0.582584 -0.046329 -0.066661
0.273693 -0.071785 0.321524
-0.248066 -0.046329 0.045549
-0.513164 -0.051146 0.362877
-0.518777 -0.071785 0.204327
-0.403647 -0.071785 -0.17084
0.617512 -0.046329 -0.305046
0.688611 -0.046329 -0.20593
0.052824 -0.071785 0.052926
-0.586362 -0.071785 0.130723
0.706764 -0.071785 -0.077923
-0.412185 -0.071785 0.361289
-0.622845 -0.046329 0.135643
0.112457 -0.046329 -0.021138
-0.472859 -0.071785 0.156654
0.573287 -0.071785 0.036978
0.393637 -0.046329 0.279449
-0.321446 -0.046329 -0.196363
-0.355497 -0.071785 -0.016932
0.696341 -0.071785 0.263181
0.441629 -0.046329 0.075969
0.211607 -0.071785 -0.348511
-0.049743 -0.071785 -0.011002
0.166773 -0.046329 0.287146
0.311669 -0.071785 -0.173683
0.490725 -0.046329 0.105054
0.409147 -0.046329 -0.295017
-0.566271 -0.046329 0.028187
0.496312 -0.046329 0.251854
0.396404 -0.071785 -0.192024
0.709242 -0.071785 0.066476
-0.60798 -0.046329 -0.269853
0.101941 -0.046329 -0.18756
0.573168 -0.046329 0.219307
0.451662 -0.071785 -0.010571
-0.47337 -0.046329 -0.354811
0.086777 -0.071785 0.012948
0.394206 -0.046329 0.335224
0.16977 -0.046329 -0.347844
0.055747 -0.046329 -0.07978
0.386897 -0.071785 -0.262409
-0.376329 -0.071785 0.109188
-0.14006 -0.071785 -0.026002
0.152269 -0.071785 0.091947
0.633994 -0.071785 -0.089069
-0.409546 -0.046329 0.26121
0.710382 -0.071785 -0.291713
-0.236122 -0.046329 -0.355138
0.094763 -0.071785 -0.362091
0.324205 -0.046329 -0.376922
0.378091 -0.046329 -0.143587
0.37777 -0.046329 -0.306254
0.144747 -0.071785 0.304906
0.240543 -0.071785 0.063921
-0.171444 -0.046329 0.120939
-0.205367 -0.071785 -0.26451
0.431713 -0.046329 -0.10308
0.620297 -0.046329 -0.377152
0.606115 -0.071785 -0.204076
-0.538404 -0.046329 -0.133895
-0.195651 -0.071785 0.118987
-0.483972 -0.071785 -0.214807
-0.430132 -0.071785 0.083282
0.396883 -0.046329 -0.207478
0.506845 -0.046329 0.348086
-0.426009 -0.046329 0.222865
-0.199148 -0.071785 -0.344099
0.104328 -0.046329 0.223372
-0.211362 -0.046329 0.356072
0.213811 -0.071785 0.227237
0.20286 -0.046329 0.05616
0.687498 -0.046329 0.29499
0.367349 -0.071785 0.327797
-0.644169 -0.071785 0.132622
0.650959 -0.046329 -0.142144
-0.266375 -0.046329 -0.352642
-0.26095 -0.046329 0.350968
0.347422 -0.071785 0.217297
0.475097 -0.071785 0.161066
0.475287 -0.071785 -0.352817
0.214673 -0.046329 -0.162514
-0.061645 -0.046329 -0.023128
0.312318 -0.071785 0.242751
-0.157197 -0.071785 -0.339056
-0.101913 -0.046329 0.213008
0.435732 -0.071785 -0.224526
0.348375 -0.046329 0.118608
-0.18992 -0.071785 0.196936
-0.035703 -0.046329 -0.319415
-0.209412 -0.046329 0.214916
0.280915 -0.071785 0.287208
0.080425 -0.046329 0.116155
-0.469737 -0.046329 -0.013811
-0.524505 -0.046329 -0.078668
-0.073843 -0.046329 0.116117
-0.331004 -0.046329 0.027626
0.542217 -0.071785 -0.329067
-0.013715 -0.046329 -0.379062
-0.496913 -0.046329 -0.106441
0.294631 -0.071785 -0.340926
-0.276608 -0.071785 -0.03938
0.388295 -0.071785 0.024791
0.516033 -0.046329 -0.130588
0.655898 -0.071785 0.095217
-0.322301 -0.046329 0.171159
0.570438 -0.071785 0.171659
0.480556 -0.046329 -0.130269
0.408862 -0.071785 0.13723
-0.181278 -0.046329 0.284848
0.571672 -0.071785 -0.298889
0.291519 -0.071785 -0.38338
0.050625 -0.046329 0.359141
0.474454 -0.071785 -0.381949
-0.247884 -0.071785 0.131122
0.341768 -0.071785 -0.117257
-0.624462 -0.071785 -0.23947
-0.234425 -0.071785 0.081968
-0.592847 -0.046329 -0.177466
-0.028154 -0.046329 0.352336
-0.550501 -0.071785 0.041254
0.710264 -0.046329 -0.041118
-0.120624 -0.046329 0.164623
-0.167643 -0.071785 0.176157
0.063707 -0.046329 -0.186335
-0.536093 -0.071785 0.268643
0.290968 -0.071785 -0.237455
-0.231047 -0.071785 -0.337985
0.45057 -0.046329 -0.068761
0.270826 -0.046329 -0.123381
-0.47531 -0.071785 -0.373077
-0.412009 -0.046329 0.309051
-0.025934 -0.046329 0.221895
0.595688 -0.071785 -0.017965
0.440746 -0.046329 0.006478
0.562148 -0.046329 -0.187763
-0.199765 -0.046329 -0.166469
-0.570858 -0.071785 -0.35283
-0.009571 -0.046329 0.004546
0.674165 -0.046329 -0.269982
0.509203 -0.071785 0.181458
-0.5555 -0.046329 -0.260421
0.317464 -0.071785 0.063485
-0.20346 -0.071785 -0.054544
-0.086146 -0.071785 0.295185
-0.119476 -0.046329 0.274724
0.068972 -0.071785 0.236714
0.429119 -0.071785 0.244211
0.264374 -0.046329 -0.090084
0.634836 -0.046329 -0.19518
-0.61106 -0.065177 0.362877
-0.546425 -0.046329 0.297171
0.314715 -0.071785 -0.069011
-0.058086 -0.046329 0.351288
-0.12695 -0.046329 -0.288251
-0.458253 -0.071785 -0.189337
0.282243 -0.071785 -0.272676
-0.151935 -0.046329 0.182566
0.246186 -0.046329 -0.039061
-0.154093 -0.046329 -0.370756
0.333567 -0.046329 -0.210687
-0.217101 -0.046329 -0.303554
-0.253276 -0.071785 -0.234351
0.225497 -0.071785 0.026096
0.605079 -0.046329 -0.166808
0.497271 -0.046329 0.279875
0.101699 -0.046329 -0.08622
0.257614 -0.071785 0.344489
0.009849 -0.071785 0.327304
-0.098156 -0.046329 0.062539
0.508166 -0.046329 0.318295
0.229516 -0.071785 -0.167555
-0.608187 -0.046329 0.111855
-0.420887 -0.071785 -0.0267
0.046355 -0.071785 0.301675
-0.237528 -0.071785 -0.303191
0.713291 -0.046329 -0.366083
-0.171147 -0.046329 -0.111111
-0.064417 -0.046329 -0.234526
0.599001 -0.071785 0.149235
0.287513 -0.071785 0.177568
0.542388 -0.071785 -0.103157
0.392956 -0.046329 -0.031143
0.622797 -0.046329 0.067335
0.645011 -0.046329 0.261343
0.295418 -0.071785 0.146234
0.211625 -0.071785 0.071844
0.639622 -0.071785 -0.302392
0.214003 -0.071785 0.000709
0.411523 -0.046329 0.247273
-0.124784 -0.071785 -0.330597
-0.508584 -0.046329 -0.259292
-0.511709 -0.046329 -0.024403
0.173558 -0.071785 -0.004579
-0.341614 -0.046329 -0.311338
-0.593969 -0.046329 -0.347948
0.120817 -0.046329 0.24679
0.661524 -0.071785 -0.11048
0.133037 -0.071785 -0.069717
-0.537749 -0.046329 -0.327007
-0.533543 -0.071785 -0.235852
-0.638481 -0.046329 0.339234
0.636541 -0.046329 -0.003762
0.240567 -0.046329 0.022199
0.662198 -0.071785 0.261954
0.124635 -0.071785 0.09117
0.469292 -0.071785 -0.089968
-0.417434 -0.071785 0.115949
-0.001315 -0.046329 -0.191053
-0.010666 -0.071785 -0.072519
0.605941 -0.046329 0.000866
-0.059944 -0.071785 -0.319121
0.572782 -0.046329 0.348265
0.218238 -0.046329 0.122896
0.274155 -0.046329 0.147766
-0.108954 -0.046329 -0.246781
0.575985 -0.071785 -0.383956
0.368977 -0.046329 -0.3574
-0.29575 -0.071785 -0.188773
0.40545 -0.071785 0.285793
-0.274121 -0.071785 0.142614
-0.113969 -0.046329 -0.015294
0.152325 -0.046329 -0.107166
0.606819 -0.046329 -0.096525
-0.342116 -0.071785 0.348852
0.543131 -0.046329 0.199287
0.42868 -0.071785 -0.152029
-0.413828 -0.071785 -0.145259
0.646212 -0.046329 -0.058869
0.299362 -0.046329 0.322021
0.497388 -0.046329 -0.282538
0.13857 -0.071785 0.347748
-0.233126 -0.071785 0.257391
0.118952 -0.046329 0.015911
0.546203 -0.046329 -0.014189
0.18967 -0.046329 -0.028477
0.006823 -0.071785 -0.264814
0.081258 -0.046329 0.174601
-0.520456 -0.046329 0.279359
-0.231064 -0.071785 -0.132238
-0.169939 -0.071785 -0.304153
-0.348999 -0.071785 0.099521
-0.41973 -0.071785 0.015768
0.326762 -0.046329 -0.265302
-0.638138 -0.071785 -0.304045
-0.110746 -0.071785 -0.366493
0.242864 -0.046329 -0.345005
-0.056778 -0.071785 -0.370251
-0.443176 -0.071785 0.037988
0.329365 -0.046329 0.016798
0.387914 -0.071785 0.05644
-0.319048 -0.046329 -0.236777
0.317278 -0.046329 0.114773
0.169981 -0.071785 0.274072
0.028393 -0.046329 -0.138661
-0.046766 -0.071785 0.099337
0.301825 -0.046329 -0.305157
0.706085 -0.071785 0.218452
-0.557634 -0.046329 0.071055
0.622058 -0.071785 -0.145058
-0.568628 -0.071785 -0.060939
-0.552034 -0.071785 0.328632
-0.479343 -0.071785 0.323904
0.127768 -0.071785 0.281132
0.372348 -0.071785 0.080082
0.026135 -0.046329 0.079645
0.48922 -0.071785 0.048828
-0.024029 -0.071785 0.019137
0.473946 -0.071785 -0.037943
0.681101 -0.046329 -0.061117
-0.428213 -0.046329 -0.30624
0.280181 -0.071785 -0.1204
0.503211 -0.046329 -0.067203
0.048171 -0.046329 0.165731
0.279244 -0.046329 0.055169
-0.445334 -0.071785 -0.314188
0.426546 -0.071785 0.316049
0.032247 -0.071785 -0.097678
0.528597 -0.071785 0.129667
0.33937 -0.071785 -0.346576
-0.039667 -0.046329 -0.372334
-0.503182 -0.046329 0.002038
0.548515 -0.071785 -0.261816
0.711311 -0.071785 -0.318446
0.050407 -0.071785 0.332262
0.577708 -0.071785 -0.257434
-0.316138 -0.071785 -0.258307
-0.427683 -0.071785 0.196038
0.435408 -0.067327 0.362877
0.202924 -0.046329 0.225371
-0.459774 -0.046329 0.013241
0.453726 -0.046329 -0.153777
-0.375475 -0.046329 -0.112935
0.461459 -0.071785 0.064879
-0.387237 -0.046329 -0.049417
0.244788 -0.071785 -0.082447
-0.429669 -0.071785 0.167726
-0.148675 -0.071785 0.278188
0.597253 -0.071785 0.263703
0.64631 -0.046329 0.172965
0.409615 -0.046329 -0.361682
0.163164 -0.071785 -0.212178
-0.095056 -0.071785 -0.162406
0.221562 -0.046329 -0.294826
0.528537 -0.046329 -0.106353
0.435002 -0.071785 0.141889
-0.326398 -0.046329 -0.084983
-0.303115 -0.071785 -0.047333
0.220757 -0.046329 -0.013423
-0.58003 -0.071785 0.207211
-0.265625 -0.046329 -0.26345
-0.060105 -0.071785 -0.071792
-0.448871 -0.046329 -0.174484
0.697425 -0.071785 -0.195144
-0.194276 -0.046329 0.330694
-0.348155 -0.071785 -0.185311
0.307159 -0.046329 0.249911
-0.447923 -0.046329 -0.06846
0.203889 -0.071785 0.183281
-0.59138 -0.046329 -0.225262
-0.061448 -0.071785 0.221928
-0.047758 -0.071785 0.15847
0.043209 -0.046329 0.003325
0.330947 -0.071785 0.087338
-0.548696 -0.046329 0.199614
0.086297 -0.046329 -0.372355
0.035313 -0.046329 -0.290618
-0.38303 -0.046329 -0.181405
-0.160592 -0.046329 0.011584
0.095665 -0.071785 -0.235358
0.116322 -0.071785 -0.210203
0.101324 -0.071785 -0.058518
0.071205 -0.046329 -8.7e-05
-0.289986 -0.071785 -0.10703
-0.480561 -0.046329 -0.127093
-0.034797 -0.046329 0.127473
-0.368035 -0.046329 0.086371
0.019165 -0.071785 0.19134
0.026293 -0.046329 0.273681
0.569874 -0.046329 0.293099
0.170008 -0.071785 -0.155841
-0.191472 -0.071785 -0.15132
-0.389643 -0.071785 0.16799
-0.267119 -0.071785 -0.297571
0.137306 -0.071785 0.031158
-0.459384 -0.046329 0.181094
0.596856 -0.071785 0.325232
0.027783 -0.071785 0.142323
0.707993 -0.071785 -0.243236
-0.23347 -0.071785 0.002635
-0.522786 -0.046329 0.019937
-0.148146 -0.071785 0.051444
0.715495 -0.054081 0.362877
-0.209811 -0.071785 -0.199524
-0.011194 -0.046329 -0.094199
0.445729 -0.046329 0.337564
0.539318 -0.071785 -0.21812
-0.218646 -0.046329 -0.117903
0.711455 -0.046329 0.284623
-0.267229 -0.046329 -0.120535
-0.076061 -0.071785 0.043551
-0.05926 -0.046329 0.184434
0.380895 -0.071785 -0.137544
-0.023328 -0.071785 -0.032935
0.415152 -0.071785 -0.240463
-0.374857 -0.071785 -0.288156
-0.359714 -0.046329 0.02981
-0.464262 -0.071785 -0.236405
-0.268416 -0.071785 -0.003979
0.654658 -0.071785 0.295795
0.303353 -0.046329 -0.040269
-0.358441 -0.071785 0.055435
-0.402118 -0.071785 -0.212483
-0.479997 -0.071785 -0.040406
0.189769 -0.071785 -0.110797
0.108389 -0.071785 -0.317176
-0.550796 -0.046329 0.10495
-0.023907 -0.046329 -0.246554
0.658813 -0.046329 0.055968
-0.56365 -0.071785 -0.120734
-0.553686 -0.071785 -0.329627
0.298452 -0.046329 -0.357618
-0.557132 -0.071785 -0.297344
-0.435033 -0.046329 -0.129317
-0.408978 -0.071785 -0.37238
-0.065189 -0.071785 -0.284275
0.061381 -0.071785 0.077324
0.482786 -0.046329 0.20794
-0.6479 -0.071785 0.174378
-0.045476 -0.071785 -0.215077
-0.222323 -0.071785 0.324526
0.669919 -0.071785 -0.211194
-0.434292 -0.046329 0.173121
0.149518 -0.046329 0.267167
-0.112527 -0.046329 0.240023
-0.518096 -0.046329 0.236646
0.022013 -0.071785 0.014805
0.171787 -0.071785 0.200754
0.066737 -0.071785 -0.120077
0.204573 -0.046329 0.152173
-0.158983 -0.071785 0.35377
0.479701 -0.046329 0.12815
0.045826 -0.071785 -0.024443
-0.322238 -0.071785 0.210849
-0.033836 -0.071785 -0.160589
-0.46939 -0.071785 0.214527
-0.385338 -0.046329 0.193347
0.535811 -0.071785 -0.37785
0.531187 -0.046329 -0.2038
-0.600641 -0.046329 0.057085
-0.360787 -0.071785 -0.091904
0.200901 -0.046329 0.268819
-0.318471 -0.046329 -0.369597
0.441572 -0.046329 0.182382
0.242027 -0.046329 0.262988
-0.51853 -0.071785 -0.142639
0.351142 -0.071785 -0.244507
-0.590086 -0.071785 -0.106895
-0.483528 -0.046329 -0.253912
-0.338907 -0.046329 0.085657
0.578339 -0.046329 0.265751
0.513296 -0.071785 0.031354
0.155783 -0.071785 0.242313
-0.49317 -0.046329 0.096752
0.594017 -0.046329 0.233308
0.222028 -0.071785 -0.371357
0.688042 -0.046329 -0.363636
0.548614 -0.071785 0.032369
-0.014691 -0.071785 0.167509
0.638155 -0.046329 -0.249317
-0.245213 -0.046329 0.320865
0.62986 -0.055497 0.362877
0.560436 -0.071785 -0.038776
0.533653 -0.046329 0.24899
-0.467505 -0.071785 0.28729
-0.397107 -0.071785 0.077562
-0.528337 -0.071785 -0.294454
0.051707 -0.046329 -0.369339
-0.149105 -0.071785 -0.002786
0.289824 -0.071785 -0.070048
-0.343941 -0.046329 -0.111093
-0.50857 -0.071785 -0.218552
-0.040765 -0.046329 -0.066942
0.005845 -0.046329 0.294068
0.045922 -0.071785 0.125308
0.030184 -0.046329 0.232025
0.354483 -0.046329 -0.151338
0.136311 -0.071785 0.1702
0.265341 -0.071785 0.267545
-0.14794 -0.046329 0.241025
0.306946 -0.046329 -0.081311
-0.160166 -0.046329 -0.323222
-0.353427 -0.046329 -0.064183
0.459249 -0.071785 0.259308
-0.481359 -0.071785 -0.065096
-0.370212 -0.071785 -0.23201
-0.241458 -0.071785 0.203921
0.606943 -0.071785 -0.259227
0.233273 -0.071785 0.196674
-0.249089 -0.046329 -0.012684
0.408902 -0.071785 0.008079
0.537444 -0.046329 0.040952
-0.614192 -0.046329 -0.330358
-0.593954 -0.071785 0.346448
-0.035454 -0.046329 -0.118531
-0.2754 -0.046329 -0.069017
-0.090843 -0.071785 0.256857
-0.416259 -0.046329 0.151229
-0.276034 -0.071785 0.216748
-0.179116 -0.071785 -0.121864
-0.118032 -0.046329 0.351414
0.115633 -0.046329 0.277373
-0.149152 -0.071785 -0.172653
0.672739 -0.071785 0.070654
-0.418771 -0.046329 0.283889
0.263041 -0.071785 0.176976
0.545415 -0.046329 -0.241633
-0.32098 -0.071785 0.056378
-0.646845 -0.046329 -0.167466
-0.059796 -0.071785 0.01208
-0.56818 -0.046329 0.308151
0.20656 -0.046329 0.29506
0.339674 -0.046329 0.246747
0.294987 -0.071785 0.355881
-0.058607 -0.046329 0.280994
0.671727 -0.046329 -0.125412
-0.09996 -0.071785 0.025246
-0.387044 -0.046329 -0.09157
0.147514 -0.071785 -0.290354
-0.375631 -0.071785 -0.20501
0.026288 -0.071785 -0.326588
-0.617834 -0.046329 -0.138533
-0.356698 -0.046329 -0.278444
0.628411 -0.046329 0.093223
0.200374 -0.046329 -0.283062
0.267333 -0.046329 -0.00506
0.539997 -0.046329 -0.150513
-0.184572 -0.046329 -0.283762
-0.001104 -0.046329 0.030293
0.605348 -0.071785 0.108705
0.104489 -0.071785 0.029416
0.048831 -0.071785 -0.301243
-0.632886 -0.071785 0.226708
0.626261 -0.071785 0.32266
-0.611842 -0.046329 -0.246071
-0.59265 -0.071785 -0.198374
0.449385 -0.046329 -0.258305
-0.624904 -0.046329 0.269769
0.089878 -0.046329 -0.29535
-0.01733 -0.071785 -0.34871
0.354824 -0.071785 -0.21456
-0.11057 -0.071785 -0.311332
0.099303 -0.064528 0.362877
-0.112614 -0.071785 -0.241193
-0.452351 -0.046329 -0.035031
-0.589792 -0.046329 -0.026861
-0.518833 -0.071785 0.161976
-0.316458 -0.071785 0.322048
-0.466977 -0.046329 0.303278
-0.002024 -0.071785 0.028351
0.608991 -0.046329 -0.331399
-0.256779 -0.046329 0.161145
-0.402874 -0.046329 -0.231106
0.605196 -0.046329 -0.220751
0.435767 -0.046329 -0.210304
-0.645535 -0.046329 -0.057325
0.064852 -0.071785 -0.183958
-0.49735 -0.046329 0.345752
0.544458 -0.046329 -0.314356
-0.015912 -0.071785 -0.223689
0.297237 -0.071785 0.304522
-0.477913 -0.071785 0.115315
0.706602 -0.046329 0.185332
0.13945 -0.071785 -0.336597
-0.300518 -0.071785 -0.381675
0.24481 -0.046329 -0.370503
0.634237 -0.071785 -0.06538
-0.434562 -0.071785 0.244397
-0.08232 -0.071785 -0.183292
0.240539 -0.046329 0.340673
-0.015406 -0.046329 -0.291706
0.659547 -0.046329 0.001792
0.078495 -0.071785 0.159771
0.080907 -0.046329 -0.097696
-0.627966 -0.071785 -0.168724
0.365772 -0.046329 -0.327919
-0.182402 -0.071785 -0.222204
-0.603492 -0.046329 0.167028
-0.198163 -0.046329 -0.321401
0.016228 -0.071785 0.221965
-0.569438 -0.071785 0.114322
-0.012666 -0.046329 0.309983
0.051062 -0.046329 0.030167
-0.275421 -0.046329 0.263088
-0.642893 -0.071785 -0.260253
-0.053966 -0.071785 -0.132253
0.520106 -0.071785 -0.321113
0.101033 -0.071785 -0.260295
-0.320808 -0.046329 0.000501
0.362059 -0.071785 -0.038249
0.677476 -0.071785 -0.247112
0.633639 -0.071785 -0.191092
0.617738 -0.046329 0.164788
-0.239487 -0.046329 0.360406
-0.108529 -0.071785 -0.267086
0.414885 -0.071785 0.198052
-0.613733 -0.046329 0.239211
0.291326 -0.071785 -0.298943
-0.581349 -0.071785 -0.139394
0.631992 -0.071785 -0.242686
-0.57046 -0.071785 0.343047
-0.48474 -0.071785 -0.265137
0.159186 -0.046329 -0.247631
-0.044479 -0.046329 -0.175483
0.519363 -0.071785 -0.014366
-0.520064 -0.046329 0.15031
0.344305 -0.046329 -0.045589
-0.426484 -0.046329 -0.081345
0.550932 -0.071785 0.187155
-0.348244 -0.046329 0.140229
-0.159354 -0.071785 0.298984
-0.237807 -0.046329 0.024656
0.680434 -0.046329 0.353515
-0.543838 -0.046329 0.248701
0.346887 -0.046329 -0.364629
0.433139 -0.071785 0.093057
0.290599 -0.046329 -0.207073
0.111149 -0.071785 0.2383
0.374188 -0.071785 -0.19873
0.56451 -0.071785 -0.119832
0.062884 -0.046329 0.100968
0.384743 -0.046329 -0.229672
0.573846 -0.071785 -0.341035
0.240545 -0.046329 -0.257235
0.55642 -0.071785 0.054199
0.428313 -0.071785 0.282072
0.179133 -0.071785 0.149944
0.011164 -0.046329 0.346863
-0.435812 -0.071785 -0.005632
0.014623 -0.071785 -0.203481
0.365293 -0.071785 -0.280173
-0.119661 -0.046329 -0.07265
-0.096558 -0.071785 0.136327
0.598705 -0.046329 0.280564
0.346924 -0.046329 0.033187
0.510164 -0.046329 -0.240138
0.550435 -0.046329 0.35668
-0.537332 -0.071785 0.185059
0.329368 -0.071785 0.280944
0.692904 -0.046329 -0.244928
-0.347777 -0.046329 -0.333496
0.34454 -0.071785 0.325006
0.373661 -0.071785 0.305701
-0.485959 -0.046329 -0.205047
-0.20468 -0.046329 0.192439
-0.029911 -0.071785 -0.192146
0.531855 -0.071785 -0.349548
0.425769 -0.071785 -0.362508
-0.193311 -0.046329 -0.213553
0.129142 -0.071785 0.32685
0.492387 -0.046329 -0.00291
0.358487 -0.046329 0.332608
0.072237 -0.071785 -0.075312
-0.301527 -0.046329 -0.254195
-0.474534 -0.046329 0.148387
0.091909 -0.046329 -0.145776
-0.602536 -0.071785 -0.245802
-0.491418 -0.046329 -0.231071
-0.14687 -0.046329 0.079601
-0.096566 -0.046329 0.101253
-0.54504 -0.046329 -0.238864
-0.283903 -0.071785 0.300996
0.424926 -0.071785 0.173705
-0.509479 -0.046329 -0.321007
-0.453066 -0.046329 0.346978
-0.207917 -0.046329 0.11459
-0.27486 -0.046329 0.2967
-0.363124 -0.046329 -0.355103
-0.172865 -0.071785 0.080659
-0.581839 -0.071785 0.152952
0.186615 -0.046329 0.036947
-0.232502 -0.046329 -0.208172
0.447939 -0.071785 -0.032917
0.639916 -0.071785 0.190927
0.343823 -0.071785 0.111502
0.651808 -0.071785 0.148898
-0.299837 -0.071785 -0.070332
0.32028 -0.046329 -0.341595
0.493718 -0.071785 0.018293
0.080682 -0.071785 0.346316
-0.30263 -0.071785 -0.139296
-0.129482 -0.046329 0.33175
0.553119 -0.071785 0.324538
-0.502802 -0.046329 0.195539
0.222534 -0.046329 0.041293
-0.482784 -0.071785 0.270777
0.083164 -0.071785 0.095346
0.32923 -0.046329 0.187871
0.688218 -0.071785 -0.270008
0.645535 -0.071785 0.075283
0.289046 -0.046329 -0.140134
0.219916 -0.071785 0.350626
-0.413776 -0.071785 -0.112027
0.027829 -0.046329 -0.200312
0.380291 -0.046329 -0.253021
0.352754 -0.071785 0.061892
0.603683 -0.046329 0.142432
-0.00831 -0.046329 -0.017799
-0.32517 -0.071785 -0.206212
0.630643 -0.046329 0.244222
0.535782 -0.046329 0.103434
0.649499 -0.046329 -0.036536
0.209388 -0.046329 0.204012
0.153458 -0.046329 0.174404
-0.612556 -0.071785 0.014883
0.638368 -0.071785 -0.162141
0.617463 -0.046329 0.122345
-0.022039 -0.071785 0.047617
-0.329573 -0.071785 -0.124874
-0.589214 -0.046329 0.237795
-0.399263 -0.071785 -0.021464
0.006627 -0.046329 -0.143242
-0.112339 -0.071785 0.33812
0.640874 -0.071785 0.35253
0.112436 -0.071785 -0.086867
-0.523355 -0.071785 0.345653
-0.003831 -0.046329 0.219759
0.382364 -0.046329 0.354003
-0.505127 -0.046329 0.116792
-0.391948 -0.046329 -0.161122
-0.350914 -0.071785 0.016177
-0.467248 -0.071785 -0.164891
-0.604112 -0.046329 -0.049454
-0.252943 -0.046329 -0.160942
0.014979 -0.071785 -0.381327
-0.170857 -0.071785 0.223781
0.062927 -0.046329 -0.330975
-0.508723 -0.071785 0.316103
-0.345836 -0.071785 0.208664
0.383568 -0.046329 0.035736
0.359147 -0.071785 0.021393
-0.379452 -0.046329 -0.315218
-0.608061 -0.071785 -0.318847
-0.540472 -0.046329 -0.155815
0.469172 -0.046329 -0.349011
0.384538 -0.046329 0.220556
-0.404138 -0.071785 0.303697
-0.346349 -0.046329 -0.236476
0.209339 -0.046329 -0.042896
-0.51031 -0.046329 -0.298412
0.596167 -0.046329 -0.025561
0.486659 -0.071785 0.354031
-0.577756 -0.046329 0.164421
-0.08588 -0.046329 -0.19985
0.708573 -0.046329 0.319021
-0.500092 -0.071785 -0.103278
-0.56927 -0.046329 -0.226305
0.146953 -0.046329 0.343349
-0.511205 -0.071785 -0.06196
-0.436865 -0.071785 0.105958
0.247011 -0.071785 -0.313793
-0.3315 -0.046329 0.361365
0.008996 -0.071785 0.282731
0.559103 -0.071785 -0.083772
-0.104833 -0.046329 0.313539
-0.176076 -0.046329 -0.080423
0.723026 -0.046329 0.132636
0.002226 -0.046329 0.195617
0.258458 -0.046329 0.164095
0.046645 -0.046329 -0.060036
-0.149743 -0.046329 0.205269
0.674587 -0.071785 0.335057
0.544933 -0.071785 0.35738
-0.264498 -0.046329 0.105011
0.072316 -0.046329 0.069975
0.337662 -0.046329 -0.235001
-0.23185 -0.046329 0.166903
-0.071793 -0.046329 0.137663
-0.405347 -0.071785 0.182875
0.189717 -0.046329 0.352804
-0.377531 -0.071785 -0.067841
-0.479707 -0.071785 -0.186637
-0.633596 -0.071785 -0.330526
0.194017 -0.046329 -0.082743
0.325032 -0.071785 0.315726
-0.189896 -0.046329 0.353672
0.283584 -0.071785 -0.008956
0.657204 -0.046329 0.28921
-0.474741 -0.071785 -0.007194
0.276442 -0.046329 -0.276487
0.314281 -0.071785 0.221345
0.186417 -0.071785 -0.239626
-0.641629 -0.046329 0.118653
0.067981 -0.071785 0.286366
-0.134139 -0.071785 -0.069108
0.575652 -0.419341 -0.426279
0.148037 -0.609397 -0.426279
-0.286128 -0.604473 -0.426279
-0.549967 -0.520697 -0.426279
0.407786 -0.60993 -0.426279
-0.088604 -0.48264 -0.426279
0.15854 -0.42264 -0.426279
0.579807 -0.610483 -0.426279
0.276743 -0.517589 -0.426279
-0.391958 -0.502727 -0.426279
0.430337 -0.474496 -0.426279
0.031108 -0.546827 -0.426279
-0.216412 -0.460971 -0.426279
-0.097673 -0.610441 -0.426279
-0.451654 -0.602667 -0.426279
0.686537 -0.526474 -0.426279
-0.563898 -0.411856 -0.426279
0.524879 -0.526511 -0.426279
0.179457 -0.516002 -0.426279
-0.624473 -0.578779 -0.426279
0.00249 -0.455505 -0.426279
0.338983 -0.44756 -0.426279
-0.29765 -0.50494 -0.426279
-0.177037 -0.565788 -0.426279
0.248169 -0.419889 -0.426279
0.099758 -0.493143 -0.426279
0.655856 -0.43829 -0.426279
-0.336408 -0.433548 -0.426279
-0.46735 -0.448731 -0.426279
0.333727 -0.57497 -0.426279
0.604262 -0.525238 -0.426279
0.485933 -0.605663 -0.426279
0.655547 -0.601828 -0.426279
-0.361444 -0.607482 -0.426279
0.50336 -0.411207 -0.425131
-0.558703 -0.607132 -0.426279
-0.459834 -0.525456 -0.426279
-0.636141 -0.411207 -0.426251
-0.40762 -0.411207 -0.421244
-0.038172 -0.55202 -0.426279
0.723495 -0.590152 -0.426279
0.389556 -0.534758 -0.426279
0.060343 -0.607264 -0.426279
0.057105 -0.416599 -0.426279
0.228946 -0.56415 -0.426279
-0.273683 -0.411207 -0.416236
-0.163199 -0.423988 -0.426279
-0.241504 -0.537287 -0.426279
-0.105826 -0.546529 -0.426279
-0.60752 -0.465285 -0.426279
0.504676 -0.470749 -0.426279
0.456522 -0.556059 -0.426279
-0.324129 -0.555801 -0.426279
0.331747 -0.50547 -0.426279
-0.176845 -0.500612 -0.426279
-0.412506 -0.555283 -0.426279
-0.522831 -0.449439 -0.426279
-0.029256 -0.411207 -0.424038
-0.232858 -0.595951 -0.426279
-0.520254 -0.565444 -0.426279
0.120646 -0.542087 -0.426279
0.424726 -0.416788 -0.426279
-0.009756 -0.506706 -0.426279
0.279793 -0.461918 -0.426279
0.279816 -0.576846 -0.426279
0.538886 -0.576808 -0.426279
0.214981 -0.459972 -0.426279
0.597115 -0.466577 -0.426279
0.100003 -0.440202 -0.426279
0.641097 -0.554579 -0.426279
-0.050835 -0.60612 -0.426279
0.551068 -0.46016 -0.426279
-0.126224 -0.453134 -0.426279
0.390102 -0.452496 -0.426279
-0.427451 -0.470848 -0.426279
0.698757 -0.418775 -0.426279
-0.160455 -0.607762 -0.426279
-0.371052 -0.462892 -0.426279
0.17061 -0.466264 -0.426279
0.062676 -0.46922 -0.426279
0.078137 -0.552532 -0.426279
-0.12907 -0.497506 -0.426279
-0.258142 -0.450088 -0.426279
0.161586 -0.569108 -0.426279
-0.574298 -0.555413 -0.426279
0.639814 -0.477141 -0.426279
-0.364507 -0.534233 -0.426279
-0.589215 -0.50709 -0.426279
0.366285 -0.60814 -0.426279
-0.049075 -0.472363 -0.426279
0.48405 -0.525424 -0.426279
0.415342 -0.566144 -0.426279
-0.567523 -0.472778 -0.426279
0.025171 -0.586921 -0.426279
-0.283922 -0.559806 -0.426279
-0.083017 -0.437821 -0.426279
-0.49329 -0.503463 -0.426279
-0.648108 -0.464767 -0.426279
0.312766 -0.540196 -0.426279
0.19761 -0.420009 -0.426279
0.575418 -0.563668 -0.426279
0.375913 -0.411207 -0.42463
-0.508911 -0.602072 -0.426279
-0.130856 -0.575273 -0.426279
-0.462057 -0.411207 -0.426111
0.699845 -0.480276 -0.426279
0.449816 -0.509643 -0.426279
-0.625875 -0.499096 -0.426279
0.463889 -0.458293 -0.426279
0.300715 -0.431096 -0.426279
-0.122945 -0.411207 -0.420719
-0.333495 -0.511566 -0.426279
-0.46782 -0.570118 -0.426279
-0.196706 -0.606426 -0.426279
-0.254286 -0.503745 -0.426279
-0.593942 -0.431253 -0.426279
-0.061459 -0.505553 -0.426279
0.114616 -0.597952 -0.426279
0.459889 -0.419651 -0.426279
0.538558 -0.411995 -0.426279
0.568947 -0.49049 -0.426279
-0.16065 -0.469413 -0.426279
-0.417156 -0.609119 -0.426279
0.132702 -0.481382 -0.426279
0.621177 -0.435569 -0.426279
0.690311 -0.599134 -0.426279
-0.155922 -0.538696 -0.426279
-0.299086 -0.470746 -0.426279
0.401905 -0.503108 -0.426279
0.21116 -0.527913 -0.426279
0.62186 -0.602018 -0.426279
-0.194742 -0.411207 -0.41296
-0.387452 -0.577421 -0.426279
-0.31889 -0.607714 -0.426279
0.33009 -0.416062 -0.426279
0.374034 -0.57651 -0.426279
-0.028736 -0.44628 -0.426279
0.697818 -0.567597 -0.426279
-0.464476 -0.488834 -0.426279
0.033268 -0.482569 -0.426279
0.642487 -0.509289 -0.426279
-0.006622 -0.545451 -0.426279
0.031266 -0.441371 -0.426279
0.070527 -0.506164 -0.426279
-0.515735 -0.415912 -0.426279
0.546664 -0.607425 -0.426279
-0.518647 -0.522476 -0.426279
-0.06039 -0.412165 -0.426279
-0.434632 -0.50703 -0.426279
0.241793 -0.5334 -0.426279
-0.102021 -0.516046 -0.426279
0.604208 -0.411207 -0.407477
-0.419166 -0.441318 -0.426279
-0.357161 -0.411207 -0.423747
-0.076165 -0.553219 -0.426279
0.30959 -0.467725 -0.426279
0.517371 -0.5999 -0.426279
0.570632 -0.534048 -0.426279
-0.55146 -0.44058 -0.426279
0.152741 -0.503006 -0.426279
-0.246554 -0.41673 -0.426279
0.482092 -0.576699 -0.426279
0.269781 -0.545832 -0.426279
0.358099 -0.517101 -0.426279
-0.393162 -0.531859 -0.426279
