-0.746939 -0.61832 -0.095646
-0.746939 -0.537293 -0.328236
-0.746939 -0.626009 -0.05929
-0.746939 -0.573002 -0.26941
-0.746939 -0.607809 -0.122048
-0.746939 -0.622025 -0.268448
-0.746939 -0.567623 0.190992
-0.746939 -0.555201 -0.097632
-0.746939 -0.515606 0.074951
-0.746939 -0.598746 -0.199272
-0.74107 -0.623849 0.212315
-0.746939 -0.530878 0.123181
-0.746939 -0.639649 -0.323289
-0.746939 -0.600839 -0.31023
-0.746939 -0.565893 -0.140847
-0.746939 -0.574574 0.071281
-0.746939 -0.494352 -0.124492
-0.746939 -0.523826 0.164975
-0.746939 -0.614238 -0.346961
-0.746939 -0.640527 -0.22539
-0.746939 -0.604153 0.037096
-0.746939 -0.496107 -0.300966
-0.746939 -0.53201 -0.018245
-0.746939 -0.589156 -0.016334
-0.746939 -0.494912 -0.185344
-0.746939 -0.566631 -0.167352
-0.746939 -0.489784 -0.238838
-0.746939 -0.557938 -0.201705
-0.746939 -0.526837 0.038805
-0.745197 -0.499299 0.212315
-0.746939 -0.573689 -0.063267
-0.746939 -0.489876 -0.320789
-0.746939 -0.487955 0.114969
-0.746939 -0.568535 -0.334012
-0.022695 -0.610881 0.212315
0.318699 -0.631984 0.212315
-0.427023 -0.645235 0.212315
0.528387 -0.647324 0.212315
-0.226711 -0.583966 0.212315
-0.598683 -0.551824 0.212315
0.14732 -0.58086 0.212315
0.548504 -0.492057 0.212315
-0.11143 -0.488929 0.212315
-0.353981 -0.536459 0.212315
0.425774 -0.569911 0.212315
0.294186 -0.503964 0.212315
0.661449 -0.642199 0.212315
-0.136465 -0.651538 0.212315
-0.473911 -0.545389 0.212315
-0.52777 -0.637058 0.212315
-0.699427 -0.556002 0.212315
0.608989 -0.563076 0.212315
-0.022293 -0.514309 0.212315
0.239322 -0.576996 0.212315
0.065831 -0.633263 0.212315
0.076111 -0.49939 0.212315
-0.640682 -0.624963 0.212315
-0.275001 -0.508784 0.212315
-0.277859 -0.649558 0.212315
0.512076 -0.566803 0.212315
0.202901 -0.493139 0.212315
-0.090032 -0.566377 0.212315
-0.542257 -0.494668 0.212315
0.436473 -0.492943 0.212315
-0.351193 -0.646941 0.212315
-0.163418 -0.550776 0.212315
0.246948 -0.646435 0.212315
0.414567 -0.638067 0.212315
-0.406271 -0.492024 0.212315
0.651349 -0.494435 0.212315
0.357928 -0.566673 0.212315
0.179342 -0.640953 0.212315
0.039984 -0.571204 0.212315
-0.202565 -0.644336 0.212315
0.588615 -0.629129 0.212315
-0.40164 -0.577505 0.212315
-0.287983 -0.575809 0.212315
-0.537525 -0.576804 0.212315
-0.219403 -0.485041 0.212315
-0.688892 -0.496617 0.212315
-0.586129 -0.651307 0.212315
0.477031 -0.615326 0.212315
-0.495772 -0.454816 0.212315
-0.468781 -0.603615 0.212315
-0.601148 -0.493482 0.212315
0.133005 -0.509993 0.212315
0.663983 -0.580424 0.212315
-0.697705 -0.618486 0.212315
0.353996 -0.484146 0.212315
0.489271 -0.512273 0.212315
-0.165219 -0.606127 0.212315
0.090541 -0.554861 0.212315
-0.45907 -0.492611 0.212315
0.304825 -0.581452 0.212315
-0.169001 -0.496605 0.212315
-0.020938 -0.460381 0.212315
0.182193 -0.539777 0.212315
-0.063602 -0.640514 0.212315
-0.32501 -0.49536 0.212315
0.13052 -0.627639 0.212315
-0.373146 -0.455329 0.212315
-0.594877 -0.60082 0.212315
-0.230663 -0.532574 0.212315
0.020529 -0.49159 0.212315
0.546987 -0.603947 0.212315
-0.652336 -0.557775 0.212315
0.566253 -0.543732 0.212315
0.605168 -0.498844 0.212315
0.101626 -0.460752 0.212315
0.256776 -0.477684 0.212315
0.501904 -0.463833 0.212315
0.194861 -0.584017 0.212315
-0.038644 -0.555904 0.212315
-0.06577 -0.465619 0.212315
0.399283 -0.464923 0.212315
0.373209 -0.607258 0.212315
0.468344 -0.561644 0.212315
-0.513544 -0.527098 0.212315
0.392259 -0.541059 0.212315
-0.129794 -0.583396 0.212315
0.054896 -0.46325 0.212315
-0.123035 -0.540178 0.212315
0.164342 -0.469431 0.212315
0.639468 -0.535052 0.212315
-0.290596 -0.454143 0.212315
0.630854 -0.615698 0.212315
-0.306333 -0.539737 0.212315
-0.434178 -0.540933 0.212315
-0.658021 -0.471285 0.212315
0.461179 -0.461983 0.212315
-0.395954 -0.616438 0.212315
-0.319755 -0.598765 0.212315
0.260719 -0.524094 0.212315
0.110085 -0.592007 0.212315
-0.060937 -0.510365 0.212315
0.587717 -0.46288 0.212315
0.31049 -0.544177 0.212315
-0.632312 -0.51399 0.212315
-0.099757 -0.647568 0.212315
0.430323 -0.533372 0.212315
-0.573665 -0.52545 0.212315
-0.052562 -0.590193 0.212315
-0.091215 -0.602623 0.212315
0.528391 -0.521816 0.212315
-0.573235 -0.459477 0.212315
0.281476 -0.637982 0.212315
0.270723 -0.561221 0.212315
-0.237683 -0.644337 0.212315
0.469543 -0.649395 0.212315
-0.386489 -0.523812 0.212315
0.621411 -0.648843 0.212315
0.32082 -0.47576 0.212315
0.015743 -0.525407 0.212315
-0.025333 -0.644602 0.212315
-0.284888 -0.609379 0.212315
0.129026 -0.552642 0.212315
-0.532845 -0.459194 0.212315
0.630917 -0.462353 0.212315
-0.262446 -0.471777 0.212315
-0.357935 -0.4934 0.212315
0.225517 -0.547213 0.212315
0.256616 -0.615296 0.212315
-0.710796 -0.648206 0.212315
-0.554462 -0.604488 0.212315
0.449509 -0.591792 0.212315
-0.679302 -0.581151 0.212315
0.560242 -0.644318 0.212315
0.210647 -0.611821 0.212315
0.682801 -0.515889 0.212315
0.038574 -0.616976 0.212315
0.590298 -0.597432 0.212315
-0.255598 -0.597543 0.212315
-0.484443 -0.630996 0.212315
-0.542944 -0.545834 0.212315
0.430393 -0.456405 0.212315
-0.17205 -0.638061 0.212315
-0.195604 -0.582652 0.212315
0.602466 -0.53264 0.212315
0.167686 -0.512245 0.212315
-0.431129 -0.473398 0.212315
-0.128319 -0.614297 0.212315
-0.621182 -0.584679 0.212315
-0.724113 -0.502237 0.212315
-0.666402 -0.64194 0.212315
-0.130122 -0.46446 0.212315
0.510081 -0.623058 0.212315
-0.708478 -0.589359 0.212315
-0.243693 -0.503058 0.212315
-0.514191 -0.483557 0.212315
-0.001499 -0.5897 0.212315
-0.175765 -0.462749 0.212315
0.537291 -0.464703 0.212315
0.48678 -0.587468 0.212315
0.093739 -0.6241 0.212315
-0.5747 -0.568545 0.212315
0.409753 -0.594256 0.212315
-0.656493 -0.600798 0.212315
0.236467 -0.5085 0.212315
0.381838 -0.634757 0.212315
-0.14052 -0.494654 0.212315
0.100504 -0.51403 0.212315
-0.299057 -0.481259 0.212315
-0.560957 -0.638256 0.212315
-0.448292 -0.565306 0.212315
-0.468504 -0.462662 0.212315
0.619185 -0.589091 0.212315
-0.325539 -0.460928 0.212315
0.515497 -0.497213 0.212315
-0.657398 -0.530488 0.212315
-0.624942 -0.479198 0.212315
-0.613122 -0.627556 0.212315
-0.006382 -0.485517 0.212315
0.392374 -0.568564 0.212315
-0.4237 -0.515572 0.212315
0.054252 -0.515852 0.212315
-0.62569 -0.547807 0.212315
0.027727 -0.465229 0.212315
0.520731 -0.597164 0.212315
0.28023 -0.602646 0.212315
-0.451913 -0.520924 0.212315
-0.716324 -0.459042 0.212315
0.148032 -0.647646 0.212315
-0.14934 -0.528432 0.212315
0.532877 -0.550597 0.212315
-0.254285 -0.623807 0.212315
-0.404754 -0.542709 0.212315
0.481268 -0.480023 0.212315
0.479934 -0.538199 0.212315
-0.08592 -0.517854 0.212315
0.580951 -0.565246 0.212315
-0.19164 -0.608286 0.212315
0.353566 -0.50987 0.212315
-0.186181 -0.53888 0.212315
0.463808 -0.513554 0.212315
0.562201 -0.5187 0.212315
0.429899 -0.618073 0.212315
0.65757 -0.552401 0.212315
-0.393126 -0.470885 0.212315
0.682465 -0.629191 0.212315
-0.087837 -0.476501 0.212315
-0.299288 -0.512542 0.212315
-0.243343 -0.56594 0.212315
-0.158033 -0.574544 0.212315
-0.32286 -0.557637 0.212315
0.575173 -0.483742 0.212315
0.067182 -0.609018 0.212315
0.200013 -0.457701 0.212315
0.651539 -0.601066 0.212315
0.112701 -0.49339 0.212315
0.070909 -0.568603 0.212315
0.083748 -0.53103 0.212315
-0.631987 -0.456532 0.212315
-0.722303 -0.561885 0.212315
0.279943 -0.473138 0.212315
0.62888 -0.501482 0.212315
-0.449705 -0.589877 0.212315
-0.674445 -0.454286 0.212315
-0.119034 -0.510984 0.212315
-0.701032 -0.51643 0.212315
-0.348106 -0.455847 0.212315
-0.500912 -0.647138 0.212315
-0.529622 -0.614074 0.212315
-0.505203 -0.505645 0.212315
-0.029167 -0.488676 0.212315
-0.413845 -0.458441 0.212315
0.140458 -0.607093 0.212315
-0.206858 -0.529526 0.212315
0.505808 -0.648214 0.212315
-0.056165 -0.612491 0.212315
0.299774 -0.61394 0.212315
0.665813 -0.477179 0.212315
-0.235009 -0.612436 0.212315
0.150771 -0.557252 0.212315
0.189106 -0.517889 0.212315
-0.079984 -0.546825 0.212315
0.039197 -0.54932 0.212315
-0.389337 -0.595472 0.212315
-0.677224 -0.559543 0.212315
-0.548714 -0.51532 0.212315
0.073079 -0.474938 0.212315
0.040897 -0.484483 0.212315
0.566447 -0.594823 0.212315
-0.276029 -0.530147 0.212315
-0.557319 -0.479682 0.212315
0.21471 -0.47301 0.212315
0.089957 -0.644914 0.212315
-0.069086 -0.567216 0.212315
0.168144 -0.582581 0.212315
0.547756 -0.624819 0.212315
0.036925 -0.596229 0.212315
-0.483728 -0.589143 0.212315
0.383697 -0.589294 0.212315
-0.57494 -0.607868 0.212315
0.286374 -0.547952 0.212315
0.62275 -0.547869 0.212315
-0.278671 -0.628843 0.212315
-0.493826 -0.482635 0.212315
-0.14871 -0.592626 0.212315
-0.517247 -0.578229 0.212315
0.64149 -0.646854 0.212315
0.622875 -0.482226 0.212315
0.438323 -0.514907 0.212315
-0.6204254934015357 0.11707299999999998 1.0286330689783385
-0.7452685457801194 -0.0063489999999999935 0.38471753258493985
-0.6535778031075256 -0.271679 0.7571914216189877
-0.6780118241017604 0.16519300000000003 0.6861859233244663
-0.7173340814704472 -0.343289 0.4268130178978764
-0.6376375018739063 -0.03762599999999999 0.8397924047946222
-0.6406840206878522 -0.456587 0.9236396549887478
-0.68194765489118 -0.08152999999999999 0.6101818001863295
-0.6927576204464752 -0.463521 0.6403262096297626
-0.7052167997635976 0.15107499999999996 0.4896035114859734
-0.6870659837699024 -0.253567 0.58365915225123
-0.6324151465419624 0.16129300000000002 0.866854106991397
-0.754772819802697 0.16155600000000003 0.33708756671991164
-0.6265379361602309 -0.1846 0.8973091999501923
-0.6292768860359947 -0.059582000000000024 0.9879380266091426
-0.7167807210206572 -0.147258 0.48528953151841125
-0.6192757907209477 -0.318126 0.9349408823417451
-0.6708131556421298 0.034607000000000054 0.7234886746091681
-0.7550097251739512 -0.452436 0.33560662754321635
-0.6978236526436151 0.05434300000000003 0.5835230882826258
-0.6553074086904138 -0.137075 0.7482287853702246
-0.7070007185496673 0.2730250000000001 0.5359684871870853
-0.6623553691831244 0.252555 0.7673160444163316
-0.6920291256446387 -0.373447 0.5579406672310886
-0.6328347839743078 0.04752500000000004 0.9202886467800522
-0.7126878769594842 -0.029832000000000025 0.5064982237810409
-0.6774412892189738 -0.362285 0.6891423757505208
-0.6492124131752042 -0.362171 0.8354214755607996
-0.7188224745306562 0.239356 0.41910031985514695
-0.7540606706615111 -0.29816 0.3403609267063335
-0.6868347453064084 0.26632 0.6404664632399839
-0.7191976519029304 -0.240428 0.4171561897310726
-0.6429930641213597 0.075237 0.8120404382154113
-0.7120916408852401 0.057638999999999996 0.4539787997881621
-0.6860735900011431 -0.177033 0.6444106908704924
-0.6873187547873841 0.17056000000000004 0.5823493191272324
-0.6365488504763008 0.25933699999999993 0.9010427404356169
-0.713991334102855 -0.282959 0.49974384442573394
-0.6458248267804981 -0.273566 0.8529755959437296
-0.7466565448102456 -0.11319699999999999 0.40755933997166754
-0.6128774442929449 0.17617799999999995 0.9602540774776276
-0.6750551232346057 -0.06366499999999997 0.701507239716414
-0.6317852532399062 -0.243486 0.9816687459510176
-0.6536768344217456 -0.194743 0.8122873089682155
-0.670625067072875 -0.278851 0.6688542726934326
-0.6755590284853232 -0.002143000000000006 0.6432869977940525
-0.7195638671871438 0.12769600000000003 0.4074161295995534
-0.6245989512862502 -0.08570899999999998 0.9073568179096131
-0.649002534000994 0.17230999999999996 0.7808999902936846
-0.6781240257169788 -0.392279 0.7632207543023917
-0.7315758923189913 -0.398612 0.4906032362762006
-0.6405106405081454 -0.118809 0.8249040992030368
-0.6830280213624749 0.09240000000000004 0.6601925108120315
-0.6915194149722056 -0.140216 0.5605819349249068
-0.7073670024013271 0.31412299999999993 0.47061901442609044
-0.7509717673888407 0.06333600000000006 0.35214002168736186
-0.6198080077217246 0.20438200000000006 1.0342182472597568
-0.6809470464665536 -0.462497 0.7148636277247356
-0.6566669529561043 0.11069700000000005 0.7411837683802076
-0.6797803423739719 -0.336001 0.6214125882465127
-0.6511531719683232 -0.04808499999999999 0.7697556080167935
-0.6350543939434087 -0.382677 0.9087868587631799
-0.7144728802980531 -0.056925 0.4416394648036961
-0.7301343949092084 -0.368026 0.3526407542957085
-0.7010743110198309 -0.21580699999999997 0.5110694573306773
-0.6310818719182933 0.11769399999999997 0.9293720547486441
-0.708409528530909 0.094835 0.5286681803827961
-0.6477791598197082 0.22494400000000003 0.8428484453883242
-0.6605970306724371 -0.199536 0.7208185143885781
-0.6589283379800173 -0.431356 0.8290256151661992
-0.6353596641011936 0.2960229999999999 0.8437535526183223
-0.6755077993671122 0.23490699999999998 0.6991615190768112
-0.6254587956353214 -0.346523 1.0024718577177074
-0.7169334447388658 0.22714500000000004 0.4844981330941669
-0.7459612737322422 -0.179006 0.40343589685600667
-0.6258091825371165 -0.016788000000000025 0.9010855254336216
-0.6152550835188522 0.31596599999999997 0.9479333982872814
-0.6822590972328342 -0.11626000000000003 0.664176995682483
-0.6155218280236942 0.36836800000000003 0.9847550058617632
-0.7394609980236017 -0.47353 0.41538161147304226
-0.6170430359157553 -0.440925 1.0322649444383298
-0.7489255175275311 -0.235616 0.36271181063271496
-0.6365650530004062 0.00023600000000001398 0.9724636793434625
-0.6546864148283906 0.31557100000000005 0.7436043403631638
-0.7032688405966673 -0.308354 0.5553066906182191
-0.6577185179321539 0.018654000000000004 0.7913437253588689
-0.6974443066338711 -0.027378999999999987 0.5854888198525232
-0.7072399182409236 -0.429247 0.5788119683307518
-0.7408749508625904 -0.408321 0.423813281199088
-0.6300784586264608 0.07522200000000001 0.9857950897500137
-0.6519421813512272 -0.337716 0.7656670434528312
-0.7120675079105824 -0.09007700000000002 0.5097129116730709
-0.6199798398373261 -0.12023499999999998 1.035122182392412
-0.6305957257699539 0.08707699999999996 0.8762821562092566
-0.6359259646176961 -0.11210500000000001 0.959098456934573
-0.6191926573302142 -0.270078 1.0395390405178782
-0.7014081809844507 0.02796900000000002 0.5093393778970314
-0.6624603196575495 0.359634 0.8015562293807548
-0.7070480339191738 0.315337 0.5836747031998422
-0.7498302454254353 -0.11708600000000002 0.3441754348426434
-0.6961940943599999 0.11378100000000002 0.5919672898316357
-0.6924681877130677 0.29103100000000004 0.695429625836862
-0.6364436871219513 -0.243003 0.9015876860006984
-0.6980326529676648 -0.196617 0.5824400703397702
-0.7007198873446362 -0.406524 0.6350116488913338
-0.7483708303279494 -0.060085 0.3655755870050284
-0.7465521707745795 0.07630400000000004 0.4070024745833746
-0.7453587094437997 -0.287407 0.3979982112014019
-0.7118938200889502 -0.194289 0.4550038865808558
-0.7002727271570716 0.22395999999999994 0.5708322388615847
-0.6848944340477783 0.20762000000000003 0.6505209543867121
-0.7138326154794095 0.18811599999999995 0.4449572505053362
-0.7108099743468247 0.0024410000000000265 0.46062026249484844
-0.7171985321852352 -0.335842 0.48312447751660115
-0.6236423894476046 0.309561 1.0119106731921843
-0.6233153899126213 0.20230700000000001 0.9140080994553099
-0.6304490655244286 -0.319099 0.8770421343486676
-0.6709306585788879 0.29485399999999995 0.7989866686094054
-0.6940529501133167 0.33823899999999996 0.6470504706340812
-0.6677687239045897 0.20132400000000006 0.7392646032473009
-0.6332131786739579 -0.421937 0.9662581341216713
-0.621851787485086 -0.21023800000000004 1.0212210513591453
-0.6412575159818633 -0.12722699999999998 0.8766429254945826
-0.6386671010348717 0.24170500000000006 0.9691601354795492
-0.6703003970140831 -0.474541 0.7696640326542268
-0.742747157656381 0.284833 0.4225134863224695
-0.7162991224768303 -0.148293 0.4321760677653987
-0.6762824060967214 0.358552 0.7252926891503928
-0.6757636706883818 -0.235735 0.6422265631809211
-0.6658728203574019 -0.15704600000000002 0.693479920931708
-0.6423827376990894 -0.307322 0.8152030862606858
-0.663722371873594 -0.314002 0.704623321324698
-0.631966866159944 0.13057799999999997 0.9812923395917789
-0.695771425191313 0.14321300000000003 0.5385484601853974
-0.6173796291227923 -0.198917 0.944766594539529
-0.6925837439116319 -0.08025300000000002 0.555066693052722
-0.6571335823017446 0.12460499999999997 0.7943748009614031
-0.6315042992548301 0.035658999999999996 0.8715740229037331
-0.6714652370065435 0.043977000000000044 0.6645005994761872
-0.6867284126933474 -0.419051 0.6910904236379556
-0.6739906048116581 -0.014593000000000023 0.7070234634724998
-0.6523319660260072 -0.41411 0.8745697942349271
-0.7093667992807723 0.19870699999999997 0.5237077029147033
-0.7468979711050558 0.18600799999999995 0.40883621833086015
-0.6222087399730161 -0.394327 1.019366083186545
-0.6107288906443504 -0.287359 0.971387659031607
-0.6440878313402771 -0.2163 0.8619765256646336
-0.6785108027809228 0.15716200000000002 0.627991210383532
-0.7097799419247628 0.10428700000000002 0.4659577833809435
-0.6355700471724499 -0.16716600000000004 0.8505057400389534
-0.7198476100225562 0.31597 0.5168789331722894
-0.6754939670700537 -0.239558 0.6992331966015877
-0.6604929356517694 -0.226222 0.7769669812797291
-0.7150051395095269 -0.297338 0.43888135292565317
-0.7150663109783 -0.454598 0.5381930850777581
-0.6176922769330209 -0.04924099999999998 0.9431464861028004
-0.6226179554465449 0.0071330000000000005 1.017235016154229
-0.6452211322814752 -0.083733 0.8561038780524675
-0.6577619782259895 -0.09182999999999997 0.7355094613160533
-0.6473933713702384 0.12252399999999997 0.8448475610108571
-0.6851052082909664 0.2697860000000001 0.5938196868592713
-0.7268263915934696 -0.438288 0.3697824834401987
-0.62111397036157 -0.14798500000000003 0.9254156266176817
-0.7104059954793052 -0.240607 0.4627136389718821
-0.6203659955758317 0.260456 1.0289413805232674
-0.745065517207877 -0.341233 0.3899335560126915
-0.7115461178272717 0.2649969999999999 0.45680564353927827
-0.6928982865570739 0.018971000000000016 0.553436765776983
-0.6534881088344804 -0.253453 0.8132652653336591
-0.7241725367283234 0.3567389999999999 0.4882243258116965
-0.7471223433963611 -0.05312699999999998 0.4100273111378633
-0.6563714795788725 -0.151244 0.7983239380114168
-0.6801191389101467 0.07381400000000005 0.6196569798314395
-0.6927955179210555 -0.12484400000000001 0.6095783594808266
-0.6833665074990533 0.01677400000000001 0.6028294535352847
-0.684236547261649 -0.07289099999999998 0.6539300552911496
-0.7295708587118227 0.03633699999999995 0.41901236819769405
-0.7214766911302891 -0.11027999999999999 0.4609555027987471
-0.7439474236066581 0.329477 0.3884813880820052
-0.7490723672565779 0.19892699999999996 0.3619508506094031
-0.6567902381610573 -0.08936299999999997 0.7961539745901014
-0.6545346760761432 0.368355 0.8441460112282886
-0.7452646357209541 0.24808600000000003 0.3848064016540097
-0.6473468748392764 0.290663 0.9299138194396407
-0.7130672915366744 -0.385596 0.4489230795816677
-0.6494521941303931 -0.469876 0.8828480954392343
-0.6281307963154735 0.205001 0.9912804124864039
-0.6590866575237515 -0.365817 0.728645110963829
-0.6823991255551122 -0.319608 0.6634513834796087
-0.6583014378112746 0.15254 0.7327140378497705
-0.6673219903286912 0.12262099999999998 0.6859704728564955
-0.64011424098148 0.034223 0.8269582003240283
-0.6285236548965389 -0.260368 0.9426284692966886
-0.7412728888021038 0.027549000000000046 0.33117341082247154
-0.7088762264439956 -0.158192 0.5262498003345155
-0.638663355319074 -0.16573300000000002 0.960250008995059
-0.7548284190444768 -0.410115 0.3348098383067084
-0.7154244101797187 0.31647899999999995 0.42886636530184075
-0.6553482685635793 -0.023359999999999992 0.8036261110770742
-0.6557193383240112 -0.390633 0.8050492035663006
-0.6894878935723595 -0.038165000000000004 0.6267181248575147
-0.6815667930132653 0.22429 0.6121553868274354
-0.617371860298417 0.08129200000000003 0.944806851779472
-0.7048292480188683 0.35678199999999993 0.5880159258534969
-0.6533873721685681 -0.18271199999999999 0.7581782149395406
-0.724379957644423 0.14254 0.4459110776668948
-0.6225908049269765 0.16098199999999996 0.9177628234929163
-0.6266033796653564 -0.461238 0.9966146273655538
-0.6875283276172252 0.360433 0.6813617486966002
-0.6642452778250754 -0.010859000000000008 0.7575227343872821
-0.6611408483787133 0.276359 0.7180005075925713
-0.6977145787027634 -0.253111 0.5284792407801535
-0.6703163984165947 -0.03693000000000002 0.6704537615682393
-0.6886045213958231 -0.273274 0.6312956676041988
-0.7085643365678524 -0.338448 0.5278659812356401
-0.6036289430993435 0.14828600000000003 1.0081788488038628
-0.6944357558493126 -0.03516799999999998 0.5454697598038822
-0.6715419214701333 0.3054049999999999 0.6562608579454691
-0.6102172851367038 -0.371557 0.9740387455644357
-0.6857744640883767 -0.29735 0.590351672920771
-0.6643851852312783 0.06798800000000005 0.7011886914388332
-0.6753164895779944 -0.376337 0.6445438091873936
-0.7451683475184827 0.15116399999999997 0.386693340598985
-0.6243208610049725 -0.296372 1.0083843491364795
-0.6798655535960224 0.320515 0.6131286619402473
-0.727797292951981 -0.021299999999999986 0.4282028015115002
-0.6553446683766736 0.23022699999999996 0.8036447668711941
-0.6785335408034849 0.11706700000000003 0.6278733843154063
-0.7469323230521998 -0.400938 0.3730086720857748
-0.6415003129401596 0.16622199999999998 0.8197757195878648
-0.6201165291051804 0.23840400000000006 0.9305842634727967
-0.7477378864340498 -0.15964299999999998 0.3688448814284743
-0.6301600345869227 0.00812099999999999 0.934148919927241
-0.69325129435735 -0.22069 0.5516075160693312
-0.7294552859686879 -0.324483 0.3561598261970634
-0.6530108684116445 0.07655900000000004 0.7601292182509223
-0.6351593678142369 -0.342286 0.9082428950819995
-0.7149190454233876 0.27267299999999994 0.49493654084620453
-0.6571355457044044 -0.2338 0.7387555694929169
-0.6404741911045999 0.22221899999999994 0.8807020335415136
-0.6199836636496583 -0.16114700000000004 1.0349915402152283
-0.6251901398728641 -0.279642 0.9042933401383444
-0.6843659767116205 -0.393424 0.5898079374064642
-0.7028039166027191 -0.37609 0.5021068210819143
-0.6713984036995219 0.342963 0.7644598065524195
-0.6585244035533471 -0.403728 0.7237162819474434
-0.707708508069358 -0.07052199999999997 0.4766917381871967
-0.6266527068116121 0.294153 0.8888720997553635
-0.7198583809418799 -0.086115 0.41373236056811935
-0.6721120651809882 -0.273236 0.7167578604674864
-0.7051315321789899 0.06722300000000003 0.49004535924144477
-0.7185480542204169 -0.418669 0.5265896083144783
-0.6887086489773857 -0.472928 0.6792827365545604
-0.6912486430201955 0.08469000000000004 0.5619850470195039
-0.6881081431373307 -0.341881 0.5782587907954679
-0.6417586675382523 -0.419052 0.9241189661057954
-0.6217816785821861 0.345747 1.0215843484025329
-0.6737438972668596 -0.11182199999999998 0.7083018763116639
-0.6020780693786971 -0.474326 1.0213872688343817
-0.6001566575705937 -0.331258 1.0261718712905614
-0.6330628012179388 0.254189 0.8634980278176161
-0.6298502975969607 0.126834 0.8801448874759782
-0.7432348743320875 0.36666599999999994 0.39651185242295767
-0.6932063304002327 0.31829700000000005 0.5439981440030855
-0.6333033889274968 -0.43881 0.8544089567124916
-0.7067540795723151 0.191874 0.4816374873967737
-0.630815716138242 -0.045211 0.8751421890001404
-0.7279845148759645 0.3558760000000001 0.3637812090369954
-0.6425098247793584 0.32419200000000004 0.8067021636122889
-0.6538840800060931 0.33342800000000006 0.8551908228950231
-0.7454550068913599 -0.215416 0.3994202192188172
-0.6035563709106662 0.23245300000000002 1.0085549103379643
-0.6241287591806173 -0.028590000000000004 1.0093850783151683
-0.642689063985667 -0.374231 0.8692247926221675
-0.7061285259008905 0.059316000000000035 0.5404880987836078
-0.7102160644234656 0.23500299999999996 0.5193068992702076
-0.6632383745975072 0.329113 0.6992889742571797
-0.608511743961027 0.027993000000000046 0.9828766825577656
-0.7296091465880246 -0.028301999999999994 0.3553625364694126
-0.6577371558846925 -0.03870800000000002 0.7356380881070905
-0.7191218584943901 -0.19899699999999998 0.4175489432914917
-0.672286458588077 0.23973699999999998 0.6602451146490467
-0.7277469303163014 -0.474938 0.45510461452856144
-0.6677583708783617 0.011853999999999976 0.6837091942323827
-0.6768475877964687 0.2845230000000001 0.7608000363851027
-0.7090545990050328 -0.03201999999999999 0.46971643495415405
-0.702998895146189 0.11678900000000003 0.5010964625477363
-0.6454235692497238 -0.346791 0.7994458134166729
-0.7211278641723717 0.20848100000000003 0.39931165988030604
-0.6886532186608101 0.04130299999999998 0.6310433234416296
-0.7521458927229893 -0.0027209999999999734 0.3458077836391114
-0.5998028918362321 0.031769999999999965 1.0280050485338172
-0.659065366801914 -0.303648 0.7843644945902222
-0.6520925626997333 -0.06320799999999999 0.8204968402648751
-0.7008935437404624 -0.123079 0.5120061745722768
-0.6464912403250882 -0.005386999999999975 0.849522310263745
-0.6334154495147899 -0.390633 0.9426222714865368
-0.6157315014540848 0.21014500000000003 0.9533070207108416
-0.6457754401488719 0.270906 0.7976224550124273
-0.6693855867922744 -0.163703 0.7308861879196611
-0.7312166633524585 0.3534999999999999 0.4545194712488423
-0.7323076114625036 -0.417113 0.45694614988870974
-0.7383536088829713 -0.374726 0.4164705060001724
-0.7167382889167637 0.36188 0.4220579823319762
-0.7415673547906843 -0.474938 0.35738607855739646
-0.6921368732008409 0.18464100000000006 0.6129913879208683
-0.6398893481682338 0.36836800000000003 0.8799169935808857
-0.6341722816114617 0.34260099999999993 0.9573616996361445
-0.7177789887785784 0.08046900000000001 0.4245075544982165
-0.6507440770457273 0.21931100000000003 0.7718754953591556
-0.6702724382396414 0.274888 0.6706815586332824
-0.682030390622564 -0.21196899999999996 0.6653621295510475
-0.7455021039876777 -0.253774 0.39983057743247746
-0.6952956320692016 -0.18902399999999997 0.5410139706609279
-0.754836107298828 -0.334342 0.33675961749696165
-0.6266459448494608 0.263537 0.9964996090839542
-0.7009650999440866 0.282099 0.5672444350871566
-0.6574796477791771 0.23262499999999997 0.7369724683286143
-0.6183696805218493 -0.08530599999999999 0.939636251156555
-0.6684431643245228 0.20907399999999998 0.6801606658139965
-0.6815103269239028 -0.367493 0.6124479882299476
-0.6807676846411727 -0.433388 0.6084539126873594
-0.7351691309818447 0.30320499999999995 0.45124813487991683
-0.6647885392856765 -0.447246 0.6912561820627088
-0.6799819528406889 -0.19786899999999996 0.620367863775798
-0.7032830518607686 0.17813800000000002 0.5552330493256405
-0.6736844680086017 0.13685100000000006 0.6530007752271171
-0.6351722526936887 0.08445900000000006 0.9081761269767282
-0.6225331012952741 0.176747 1.0176799990449248
-0.6208240605739035 -0.230644 0.9269179089862847
-0.7294717710350453 -0.284553 0.3560744022976723
-0.6302823961357237 -0.133689 0.9852977221874247
-0.6136403049499024 -0.14300800000000002 0.9563010128920096
-0.6801829948568419 -0.15779100000000001 0.6193260849567864
-0.6553884390701056 0.194303 0.803417951690052
-0.7164231216613302 0.35695199999999994 0.5207338857613399
-0.6399682701025938 0.18777 0.8833236635573108
-0.6044585019558164 -0.424362 1.0038801610850763
-0.7423305137637904 0.10730600000000001 0.41704649868147664
-0.6767519848649287 -0.434809 0.736675885704105
-0.7247761676875671 -0.262157 0.4438579584298041
-0.6887260095282989 -0.397472 0.715100911698072
-0.6577782738088256 -0.30775 0.7354250193005631
-0.6981987090998142 -0.009004000000000012 0.5259705274129767
-0.7453494181823291 0.11176300000000006 0.3833643420386527
-0.7159443407574156 -0.197409 0.48962356705763566
-0.6350472584070239 -0.307691 0.9751884443924713
-0.6100556556929917 0.28347600000000006 0.9748762925320293
-0.6159579342620988 0.031710000000000016 0.9521336694490896
-0.7473020305831709 -0.1481 0.41093276213868896
-0.7510890576885567 0.10201300000000002 0.3515322355526134
-0.7250605824531143 -0.221159 0.44238415069433157
-0.7224142677988209 0.020233999999999974 0.3926456500760934
-0.6899438594921753 -0.10866700000000001 0.5687462995621182
-0.673413885540113 -0.14497099999999996 0.6544029054378131
-0.7472580796916958 -0.09198499999999998 0.3713259125629005
-0.6091021746135555 0.32759099999999997 0.9798171323221011
-0.7027180120001011 -0.276952 0.5581610271185646
-0.6694207098111705 -0.18476400000000004 0.6750951267684916
-0.6406797960123963 0.15620299999999998 0.9652588316042471
-0.603308715948261 0.2796989999999999 1.0098382325966333
-0.7414274651041666 -0.445492 0.4015659384810721
-0.629044732796295 -0.391785 0.9886132701750483
-0.6225214539581623 -0.117668 0.9181221930006996
-0.6152013411182831 0.133224 0.9550990282494258
-0.6387473495971273 0.05945100000000003 0.9603161222407387
-0.6683876681576005 -0.427258 0.7809846881706524
-0.720523666060484 -0.392142 0.5427924871592202
-0.6333215793455464 -0.400329 0.8543146958579909
-0.6620244598328588 0.30348299999999995 0.8298909558345822
-0.7276462867903537 0.22464700000000004 0.3655338718003654
-0.7209281485408682 -0.411062 0.4003465655120103
-0.6904785819894267 0.129969 0.5659754231933617
-0.6539727005931274 0.36836800000000003 0.7662595268773019
-0.6211789068468361 0.304816 0.9172367618888283
-0.6274580681399093 0.059226 0.8925411717267049
-0.7251422498508164 0.21637099999999998 0.4419609587329801
-0.7240830491713557 -0.304292 0.38399819855956674
-0.6308143897535925 -0.257233 0.8751490621874477
-0.7484082391110173 -0.152461 0.33255038757212635
-0.6129615749764246 -0.014276000000000011 0.9598181210255624
-0.6876291287953564 -0.16809600000000002 0.5807409932973164
-0.6494362040405639 0.316578 0.8812949282502209
-0.6067808119934893 0.179655 0.9918461919938361
-0.6265952147218884 -0.192952 0.9966833247723329
-0.61544462340276 -0.348665 0.9547935929370278
-0.6306124003198328 0.005672999999999984 0.8761957504259644
-0.7075927336378128 0.02757299999999996 0.4772916692507367
-0.7094742364373781 -0.301601 0.5231509747428091
-0.606579580493815 -0.009377999999999997 0.9928889526967487
-0.6568312351691153 0.012840999999999991 0.7403324750379994
-0.7219274846324713 -0.022411999999999987 0.3951681098178849
-0.677608861219294 -0.10121800000000003 0.632664977752519
-0.7286170108702328 0.08403700000000003 0.36050368057529825
-0.6206244166326595 -0.362449 1.027596991979212
-0.6683843558654579 0.06695700000000004 0.7360744624527971
-0.6655895582262169 -0.469524 0.79922595300651
-0.7242446786150677 -0.171643 0.3831606515919731
-0.6403400735493457 -0.279614 0.9623803122542862
-0.6154682744580502 0.23329100000000003 1.0410109974539092
-0.6913874658738992 -0.239147 0.6168747387495118
-0.7176758533804065 -0.43606 0.41719962078959233
-0.5992126506672251 -0.410489 1.031063616885581
-0.6520412812328935 0.12845400000000007 0.7651535181725833
-0.6618576645399826 0.09873799999999999 0.7142860407949081
-0.6996730803794432 -0.06428100000000003 0.5183304887789248
-0.7231740845145478 -0.322786 0.45215978681316205
-0.7460115192230744 -0.369973 0.3777643492518856
-0.6049191363962197 0.11440799999999995 1.0014932013216293
-0.6235192596250211 0.086422 1.0125539966308919
-0.7214698819284096 0.09233000000000002 0.3975393594389151
-0.6268054868923779 -0.21552300000000002 0.895922779881913
-0.6592444287295903 0.09375599999999995 0.7834366143037321
-0.6451580342688653 -0.302882 0.8564308453915164
-0.6122693916729308 -0.231076 0.9634049429160895
-0.6247409115055125 -0.099045 1.0062024136248302
-0.6200185661246421 0.26775799999999994 0.9310918974496383
-0.6985264304802795 -0.474672 0.5246364570637125
-0.6801208687130068 0.31905399999999995 0.7208810936631139
-0.7462355961180963 -0.311102 0.4150339886054549
-0.6907368679387484 -0.446987 0.6642446185923695
-0.719210480419825 -0.12279000000000001 0.4092473430750073
-0.6493962359119794 0.284064 0.8737863284107903
-0.6344880276980918 -0.042430999999999996 0.9117217097434114
-0.6688874346146436 -0.338979 0.7334675606955154
-0.6187345337390693 0.15471199999999996 1.0404405657672395
-0.7452706472509041 0.28933 0.3846802554629944
-0.7063744877164927 -0.407521 0.4757621222997781
-0.7155998597156003 -0.25532 0.49140863198974033
-0.6492226452853571 -0.326812 0.8353684538301429
-0.6405759446474077 0.367078 0.8188396083448198
-0.6895245324594265 -0.003736000000000017 0.5709192086351367
-0.6972818140732329 0.364252 0.634999979252882
-0.6935042548583531 0.25199799999999994 0.5502967010614326
-0.7236542479625393 -0.462134 0.38622020182763755
-0.6590452150085908 0.342797 0.8284727455973209
-0.6496550588859682 0.30451800000000007 0.7696763035876826
-0.5985901972995884 -0.303748 1.0342891055005223
-0.6488414044403996 -0.238506 0.837344004239051
-0.7038209532048094 -0.416609 0.6050993557072453
-0.6528194214876342 0.0062389999999999946 0.8167303336204563
-0.6105096582101478 0.23831400000000003 0.9725236987051191
-0.6565151080880562 -0.277083 0.7975796700144226
-0.6532541088905015 -0.409532 0.7510264007711831
-0.7462385073035052 0.15288199999999996 0.4150294581529923
-0.664352594065606 0.19074599999999997 0.7013575754698134
-0.7202227013908798 -0.326762 0.4040021192756108
-0.6586333443732346 -0.115952 0.7866031898846109
-0.7167332292242444 0.27671899999999994 0.42992657174809856
-0.7543389025388041 -0.19646399999999997 0.3393360808533108
-0.6610078508971085 -0.40203 0.8491390251214418
-0.6058400263099837 -0.314195 0.9967212455625377
-0.7473918658438427 0.259301 0.4114858033902607
-0.7076838752115825 -0.2981 0.4768193830943328
-0.7035374684613909 -0.474938 0.5695149901318939
-0.6477367155109257 0.27074299999999996 0.8430683873821587
-0.6389853276405628 0.11296600000000001 0.9605025932863265
-0.6110644659606623 -0.405021 0.9696487426428516
-0.6806080063952312 -0.304035 0.6171237193667365
-0.6326362052439323 -0.197973 0.9213176611083502
-0.6260271554920539 -0.474938 0.9608953483876392
-0.6013718153930151 0.36470899999999995 1.0198750498331428
-0.6951621671027246 0.081036 0.5973146295567413
-0.650655898640853 -0.16085099999999997 0.8279414840026185
-0.6660671124948513 0.33373699999999995 0.7920596155932625
-0.6833507803667812 -0.05478700000000003 0.6029109498990716
-0.697913892092808 0.29696199999999995 0.6547556431844529
-0.7173505665368047 0.012674999999999992 0.4267275939984852
-0.7162113916064449 0.11677800000000005 0.4326306800115838
-0.6909359266425208 -0.004176000000000013 0.6192145680857084
-0.690042580406799 -0.056082999999999994 0.5682347380496724
-0.6374241229116655 0.366787 0.9445324540948709
-0.7031624194251145 -0.319484 0.500249096741132
-0.6356032067886863 -0.132955 0.85033391035627
-0.64904687314499 -0.009579000000000004 0.7806702294608394
-0.7049060467885827 -0.008494000000000002 0.49121380108369156
-0.732394933318921 -0.392623 0.3409268793562099
-0.6885905118201321 0.36555899999999997 0.5679168358326065
-0.749454927349534 -0.02927200000000002 0.33275237700588606
-0.6484546685733231 0.18384100000000003 0.8393480292810891
-0.713729135702567 -0.415585 0.5548433502492791
-0.7300171046094924 0.04555699999999996 0.35324854043045706
-0.6973475172510895 -0.434705 0.6299519788475314
-0.7115332183912465 0.3401080000000001 0.5564748158976587
-0.6249030723380179 0.025993000000000044 0.9057808942484317
-0.7138297732265892 -0.08385199999999998 0.44497197876385186
-0.6433448664530614 -0.18817499999999998 0.8658264924406415
-0.6657583723105062 -0.088009 0.6940729788079407
-0.6897990940818635 0.19904299999999997 0.5694964588625185
-0.62910724553068 0.04833299999999996 0.9884318282889257
-0.6599421070552032 0.04297700000000004 0.7798213177800746
-0.6386817481555459 0.32992299999999997 0.9339571704700239
-0.6108149161630436 -0.260387 0.9709418837405314
-0.6654614516325497 -0.288674 0.6956115908808825
-0.6438388621981115 -0.449545 0.7998152299303405
-0.6500543570280111 -0.250972 0.7754495527589691
-0.6632702641916514 -0.040103 0.7069660963125977
-0.6504837393390205 0.29671099999999995 0.9010615123202743
-0.7059932346666462 0.11851 0.5411891638889559
-0.6587570771126765 -0.19351200000000002 0.7859620196972268
-0.6543235785389382 -0.455393 0.8529556072366073
-0.6632781661369909 0.29518 0.6990827786379596
-0.6865046650122156 0.17840999999999996 0.642176904995609
-0.6854070555404779 -0.228274 0.5922555458049024
-0.6703142577353027 0.34035400000000005 0.6626224837403568
-0.7201719198071579 -0.04748600000000003 0.4042652641610915
-0.634205507767758 -0.313939 0.9131856986398734
-0.6832556596390632 0.14787400000000006 0.6034038556173975
-0.638588042978903 -0.227899 0.9601916818879991
-0.6335766625244296 -0.474938 0.9037149701747582
-0.644975061754687 0.05067100000000002 0.8017699326104526
-0.7471584841037621 -0.08664899999999998 0.41020945901533795
-0.7451271106653623 -0.03903899999999999 0.38749810610641233
-0.7022161387194896 -0.173039 0.5051526249429642
-0.7060284786016174 0.22016199999999997 0.5410065334833609
-0.6349489901361537 0.19265299999999996 0.958909920830829
-0.6978172787713355 0.16746799999999995 0.5279470597057856
-0.6537234473679978 0.10509000000000002 0.8120457655285578
-0.630742196531958 -0.345541 0.8755231599537467
-0.6378749247261586 0.14636499999999997 0.8385621042666096
-0.6394427113818135 -0.093026 0.8304379968693414
-0.6916309521988347 0.282976 0.6156130179366655
-0.6400592221928421 -0.282779 0.882852359284808
-0.6189873404388949 -0.434836 0.9285932310883457
-0.6258539006481552 0.10788500000000001 0.9008538008329744
-0.6414625493568537 -0.411503 0.8121290359333793
-0.7452425702372795 -0.344069 0.4160105174580896
-0.7458481334581041 0.07672800000000002 0.3788643174749744
-0.6865851955087897 -0.297371 0.6417596043376638
-0.7080152818904247 0.12878900000000004 0.47510206815140044
-0.7492584745408385 -0.428005 0.36099173952160085
-0.6370521872764543 0.09860800000000003 0.8428254441649585
-0.6306725997170651 0.33121200000000006 0.8680414327946373
-0.7216425014163599 -0.276577 0.39664486320506065
-0.7032749162742395 0.333205 0.49182377915311587
-0.6270614645731492 0.33980999999999995 0.9941986589847068
-0.6456465227869072 0.04848699999999995 0.8538995486946156
-0.7459582743535749 0.025340999999999947 0.37804025862808
-0.6558754802874229 0.038336999999999954 0.7452850974348837
-0.6774164668776769 0.03887099999999999 0.689271002541558
-0.6687258737383779 -0.3844 0.6786956950336334
-0.7341077307448375 -0.390991 0.46302843001785293
-0.697504195631507 -0.404386 0.5217270533595224
-0.7300034617959552 -0.07357199999999997 0.3533192360713325
-0.6879509927306848 -0.136658 0.6346821851789122
-0.623748500219561 -0.17185 1.0113608182075975
-0.6355006795386241 -0.366171 0.9743746168447571
-0.630606078796182 -0.367318 0.9318375652241748
-0.6257590925503678 -0.22569 1.0009104728315203
-0.6581386714664345 -0.259557 0.7335574761207705
-0.7079995547581526 -0.177601 0.47518356451518734
-0.6491414254221439 -0.389145 0.7801802693942167
-0.6249592925813018 -0.41042 0.8976471961790264
-0.6354973893861726 -0.025372000000000006 0.9743811110650217
-0.682448201787142 -0.248972 0.6631970755492373
-0.720604308997991 0.078963 0.4654760962791705
-0.713340079239973 -0.351433 0.5031185793936348
-0.6714174185917169 0.17074900000000004 0.720357446848727
-0.7184853269836162 0.29584600000000005 0.4130050127643168
-0.656392201850146 0.281419 0.7426075000367268
-0.7069268885437868 0.252969 0.4807420092790182
-0.7168135702372971 0.16801599999999994 0.42951025297405426
-0.6870764053635767 -0.130338 0.5836051486366725
-0.7186205468118735 -0.474938 0.42990479278057875
-0.682583303537865 0.012959999999999972 0.6624969923277904
-0.7469158379858423 -0.302506 0.3730940959851659
-0.7250459922219703 0.24910500000000002 0.44245975575471225
-0.750822819838341 -0.221383 0.34191353452767703
-0.7169042642765778 -0.12202099999999999 0.4846493432149282
-0.6953888579617061 -0.12541000000000002 0.5405308837816125
-0.6844880040993703 0.32680700000000007 0.5891756041741896
-0.6310586340126134 -0.15898400000000001 0.8738834138389973
-0.6960614558950545 -0.322824 0.5926546085623691
-0.6563525997941837 -0.06778800000000001 0.7428127137720457
-0.636063003049824 0.26645399999999997 0.9733658937565155
-0.6527227848917454 -0.219314 0.8172310944099905
-0.6527370647232928 0.18781899999999996 0.7615480404879362
-0.7507507951366517 0.25143800000000005 0.35327979941295695
-0.7006187926345041 0.281937 0.5134299062287959
-0.7459694538813345 -0.265884 0.37798232747791827
-0.7183342964122108 -0.360033 0.4772390654137215
-0.6638279141949862 -0.17949899999999996 0.7040764119918144
-0.6285149386545568 0.150158 0.9426736359561368
-0.722933740096527 0.284064 0.47434108408272524
-0.645145919528388 0.297392 0.7930421947809136
-0.6007878271802126 -0.261321 1.0229012160161717
-0.7121949094043762 0.032644000000000006 0.4534436730620911
-0.6405344468643894 -0.08204100000000003 0.8803897944609804
-0.6521350070085158 0.279447 0.8202768982710404
-0.6922711126861817 -0.414271 0.6674351323527181
-0.7387052624008642 -0.091702 0.3306779114141397
-0.7034049514395846 0.309806 0.6075030762674041
-0.6119298372026705 -0.03957500000000003 0.9651644788667669
-0.6861875381649211 -0.366608 0.588211166016487
-0.6888423917825642 0.25413700000000006 0.5744539906789081
-0.6476433687023461 0.24764799999999998 0.7879430435158995
-0.6117312584722951 -0.10581499999999999 0.9661934931950649
-0.6157267080034938 0.28729000000000005 0.9454894892575738
-0.6496009401544951 -0.402504 0.9072615570459035
-0.7163558989657891 -0.231057 0.48749091522456023
-0.7253771852504867 -0.474786 0.4814172695508705
-0.6270326090670311 -0.300631 0.9503549137140327
-0.7469861363722633 0.3109120000000001 0.3727298170578772
-0.6007618679377875 0.10345099999999996 1.023035734110615
-0.7006881436033183 0.07415899999999997 0.5130705367210124
-0.6986805093320516 -0.428029 0.5156315181018185
-0.7093287130929808 -0.363643 0.5239050615788138
-0.7042310379180856 -0.101354 0.5503206841686991
-0.7021842491253455 0.36191799999999996 0.49747550288754616
-0.6839052091502531 -0.10364600000000002 0.6000379576046062
-0.6841874044895593 0.34307299999999996 0.6981885345351085
-0.6338913440893587 0.22587800000000002 0.9148136621478105
-0.6713456729045713 0.175524 0.6651201682177483
-0.7513310626116158 0.128363 0.3502834687140021
-0.6113568390341063 0.08484500000000006 0.968133695783535
-0.7206787882267708 0.325476 0.401638724725789
-0.6748950218639534 0.354529 0.6388854404325295
-0.7451798048443725 -0.270301 0.33192736575392556
-0.7461130555474583 0.127764 0.404623165688483
-0.6845710542442791 0.20597100000000002 0.5965876175763247
-0.6049710548810697 -0.400296 1.0012241651327423
-0.6660510557835465 -0.11067499999999997 0.7481653808102979
-0.6626008189107198 -0.342233 0.7104350921349991
-0.7321597742943701 0.32705000000000006 0.4495532058762261
-0.6404925710061709 -0.231936 0.880606790803112
-0.6402669609291884 0.08548699999999998 0.9666223070143931
-0.6933423673636734 0.05848299999999995 0.606744642542403
-0.7450798368988918 -0.415922 0.39167481416312444
-0.7122060883242929 0.3139449999999999 0.5579805924591718
-0.6183312153670151 0.05784900000000004 0.9398355735884676
-0.7254978866185474 -0.423231 0.4870878696231511
-0.6041185685185134 -0.356947 1.0056416608035557
-0.7348178449552987 0.22190299999999996 0.4157881758397889
-0.6238220198258451 -0.06252599999999997 1.0109798472539913
-0.7148485575534451 0.174076 0.4953018016573943
-0.603027711886098 -0.12038899999999997 1.011294366421887
-0.7086140498178926 -0.21159300000000003 0.47199931502408976
-0.70054046737274 0.10525099999999998 0.5694448369094044
-0.7206724299258945 0.2875019999999999 0.548929860727152
-0.6985532182116877 0.338724 0.6237358268872257
-0.7161338093570505 0.336406 0.5326244769741683
-0.6947581882352051 -0.269567 0.599408006033775
-0.68934920383962 -0.396229 0.5639853726928117
-0.6454445333531474 0.20145000000000002 0.8549462369331324
-0.7353725018651638 -0.434517 0.43291046323698956
-0.7452722147374191 0.193257 0.38465102289577857
-0.677790507348823 0.2552829999999999 0.6873327637208899
-0.6723600991104361 0.20796799999999993 0.715472574441015
-0.6257121006370728 -0.273912 1.0011539800389802
-0.6397074448395542 -0.14215699999999998 0.9613151428238446
-0.6304319434400608 -0.06618000000000002 0.9327399165292377
-0.634205507767758 -0.163346 0.9131856986398734
-0.6875460664455586 0.08821900000000005 0.636780471075451
-0.6627690117102328 -0.20597900000000002 0.7651725918603445
-0.6694619548149531 0.311095 0.7820200036674138
-0.6257994503100813 -0.323811 0.9567450141420509
-0.7484875521771014 -0.200859 0.36497074652198297
-0.6692840236248305 0.12788100000000002 0.7314124776906227
-0.6289020656935651 -0.397985 0.8772161559660266
-0.6789746584411891 -0.05906 0.6255875585937674
-0.6030123637208686 -0.200442 1.011373899017872
-0.671511470985753 -0.011709000000000025 0.6642610198043317
-0.6429143598925529 0.06679999999999997 0.8680573326638218
-0.6798488668412545 -0.07042799999999999 0.6766665589038092
-0.7546197171174457 -0.06342799999999998 0.3378809289119582
-0.7249978634075473 -0.17963600000000002 0.44270915426557833
-0.7413219829971562 0.180716 0.33118288499853904
-0.7290399398743002 -0.390633 0.43293600989762165
-0.6866763370825593 -0.205191 0.6412873181812598
-0.6623992084440027 -0.380993 0.7114798166057138
-0.6727671097142972 0.148737 0.7133634878215647
-0.6505761260783645 -0.02224900000000002 0.8283548571249595
-0.7480319993254803 -0.33745 0.367326096517075
-0.6740579557624179 0.3651249999999999 0.7553435977008878
-0.7130928032446104 0.047236000000000056 0.5043999378845019
-0.7486586902631752 -0.018662999999999985 0.3640892042623636
-0.6104958259130893 -0.07314199999999998 0.9725953762298956
-0.6179226041082648 -0.293065 1.0410803081174258
-0.7162252239035035 0.049292 0.4325590024868073
-0.6582409925679638 -0.008931000000000022 0.7330272588142047
-0.7251727689026429 -0.416293 0.3783513842446416
-0.6728050749860136 -0.339639 0.6575576984118793
-0.6565007195453226 -0.451211 0.7342028020106325
-0.6134390734502281 0.009477999999999986 0.9573437735949223
-0.6261279825001431 -0.412055 0.9989936459731539
-0.6759758922322945 0.020706999999999975 0.6411268532117477
-0.6691688176438493 0.260042 0.7320094631024597
-0.6818884674650724 -0.09217900000000001 0.6660975605929322
-0.6545838920384509 -0.12424999999999997 0.8075870307339004
-0.7405875338391726 0.13614300000000001 0.3310411513245688
-0.7063940608817489 0.08914699999999998 0.48350306680876426
-0.6726380836411465 -0.459647 0.6505806595779082
-0.630515083684082 0.09809599999999996 0.9847305374689785
-0.6369007899428952 -0.06018600000000002 0.8436099694018956
-0.6956598193972375 -0.292869 0.5391267898031143
-0.6520014211259636 0.20853500000000003 0.8209691264212791
-0.7180950472921912 -0.313334 0.422869772151269
-0.610633011982547 0.19791000000000003 0.9718844922855371
-0.7118280007395952 0.15774699999999997 0.5109540129239951
-0.7465322888723344 -0.132996 0.3750763300978598
-0.7232142550210741 -0.03015699999999999 0.45195162742614
-0.65863792883657 -0.454653 0.8305990926936531
-0.6274189224990192 -0.064048 0.9574567717055913
-0.6766858869867952 0.22436100000000003 0.6374477342345221
-0.6969818459257007 -0.318308 0.5322761858255047
-0.6386900828350088 0.07674499999999995 0.8343380397243025
-0.7246289389914777 0.09940400000000005 0.44462088222091817
-0.6817241852520614 -0.364545 0.6669488539351405
-0.6838707525476051 0.29092300000000004 0.7402128508834759
-0.6301678004104717 -0.47313 0.8713802683191972
-0.725206295281033 -0.358449 0.4416290819744259
-0.6052842711418623 -0.468154 0.9996011110443106
-0.7183259591372714 -0.094968 0.4772822683053676
-0.6133385682766778 -0.20241600000000004 1.0406000076960997
-0.6407008819635814 0.234981 0.8239182877663849
-0.7190517351561763 -0.385807 0.4127456389374623
-0.6024459974755517 0.33669400000000005 1.0143087499981034
-0.6229923404184393 -0.328129 1.0152897146627322
-0.6889881046104829 0.028027000000000024 0.5736989219590025
-0.6185809125996526 -0.404085 1.0406349791040364
-0.7050533206561699 -0.467613 0.5929344891044079
-0.6204718107077127 -0.180541 0.9287432311583322
-0.7311348679019396 0.21011800000000003 0.3474564072981769
-0.7094407062073452 0.28426700000000005 0.5879688686975164
-0.6285871961053202 0.01192399999999999 0.9899497869824293
-0.7450680329229713 0.057309000000000054 0.3901896725314433
-0.6283367662007379 -0.08321499999999998 0.9906775182947217
-0.6748416121648665 -0.454904 0.7466332908955622
-0.7024065696584469 -0.14407199999999998 0.5041658316224112
-0.6926289741106775 -0.470567 0.5469899442495778
-0.6173528414731635 -0.042603999999999975 1.0306595642601168
