-0.66156 0.238274 -0.035152
-0.66156 -0.055235 0.134897
-0.66156 0.166494 0.011238
-0.638471 0.099523 -0.139129
-0.66156 -0.230647 0.12668
-0.638471 0.129821 -0.208737
-0.66156 0.325017 -0.148188
-0.638471 -0.220119 0.19371
-0.66156 -0.059388 0.055566
-0.66156 -0.393627 0.107729
-0.638471 -0.0185 -0.013376
-0.66156 0.648654 -0.187869
-0.66156 -0.195211 -0.045771
-0.66156 0.599629 0.073332
-0.66156 0.526434 0.106204
-0.638471 0.611842 0.084291
-0.638471 0.157996 0.055757
-0.638471 -0.604256 0.051887
-0.638471 -0.566248 -0.054452
-0.66156 0.638722 0.227638
-0.638471 -0.61409 -0.012787
-0.66156 -0.532124 -0.105405
-0.638471 -0.119595 0.079478
-0.66156 -0.491862 -0.197555
-0.66156 -0.052798 0.019328
-0.638471 0.382277 0.241767
-0.638471 -0.486232 -0.170072
-0.66156 0.221878 -0.205214
-0.638471 0.01103 0.083082
-0.638471 0.45829 -0.017623
-0.638471 -0.212233 0.112295
-0.66156 -0.22947 0.047944
-0.638471 0.192656 0.226903
-0.638471 -0.412543 0.124613
-0.638471 0.351002 0.138827
-0.66156 -0.565228 -0.114979
-0.66156 -0.367573 -0.093499
-0.66156 -0.574906 0.156078
-0.66156 0.310668 0.008333
-0.638471 0.52335 -0.154766
-0.638471 0.180075 -0.014008
-0.638471 0.256861 0.135659
-0.638471 -0.387008 0.211132
-0.638471 -0.315265 0.226308
-0.638471 -0.521714 -0.154387
-0.638471 0.683337 -0.153983
-0.66156 0.221527 0.195323
-0.638471 0.35877 0.08784
-0.66156 0.603499 -0.037346
-0.66156 0.650745 -0.131301
-0.66156 -0.42805 -0.102286
-0.638471 0.489923 -0.150366
-0.638471 -0.352656 -0.170463
-0.66156 0.075457 0.09426
-0.638471 -0.587404 0.220487
-0.66156 0.564707 0.004772
-0.66156 -0.179095 0.087432
-0.638471 -0.604156 -0.039688
-0.66156 -0.345527 0.178662
-0.638471 0.279578 -0.040955
-0.638471 -0.556522 -0.078953
-0.638471 0.408752 -0.14496
-0.638471 -0.0605 -0.095361
-0.638471 -0.247244 0.105948
-0.638471 -0.274836 0.155969
-0.638471 0.487708 0.204422
-0.66156 0.402077 0.113143
-0.66156 0.217938 0.227994
-0.66156 -0.515869 -0.135599
-0.638471 -0.545817 -0.008249
-0.638471 0.3187 0.050815
-0.66156 -0.101406 -0.03378
-0.66156 -0.165225 0.145995
-0.66156 -0.151082 -0.007204
-0.638471 -0.438682 -0.219144
-0.638471 -0.088011 -0.030259
-0.66156 -0.076463 -0.083554
-0.638471 -0.44265 -0.021143
-0.638471 -0.33395 -0.133789
-0.638471 -0.022709 0.051808
-0.638471 0.146231 -0.127536
-0.66156 0.016521 0.09373
-0.66156 -0.077126 0.198946
-0.638471 -0.028961 -0.054048
-0.66156 0.293038 0.030669
-0.638471 0.285642 -0.012209
-0.638471 -0.526945 -0.122142
-0.638471 -0.554678 -0.142031
-0.66156 0.313007 -0.120057
-0.66156 0.329854 -0.015287
-0.66156 -0.185035 -0.082308
-0.66156 0.17242 -0.219933
-0.66156 -0.413896 0.190984
-0.66156 -0.621078 -0.032113
-0.638471 0.389547 -0.047194
-0.638471 0.455018 0.011736
-0.638471 0.012569 -0.095302
-0.638471 0.22803 0.110192
-0.638471 -0.438162 -0.149124
-0.638471 -0.545986 0.174989
-0.638471 -0.1851 0.201983
-0.66156 -0.16632 -0.213908
-0.638471 0.051664 -0.020914
-0.638471 0.044132 -0.202364
-0.66156 0.21611 0.140133
-0.66156 0.262278 -0.241732
-0.638471 0.146551 0.160104
-0.66156 0.334129 -0.230324
-0.66156 -0.180961 -0.141959
-0.638471 -0.034351 -0.091844
-0.638471 0.541151 -0.010127
-0.638471 -0.575314 -0.208464
-0.638471 -0.56679 0.016719
-0.66156 0.035573 -0.02615
-0.66156 -0.03164 -0.162923
-0.66156 -0.110554 -0.194675
-0.66156 -0.592501 -0.069019
-0.66156 -0.566338 -0.006436
-0.638471 0.605102 -0.124775
-0.638471 0.615048 -0.183907
-0.638471 0.316007 0.140867
-0.66156 0.119325 0.137828
-0.66156 0.582353 -0.152863
-0.638471 -0.181442 -0.210046
-0.638471 0.197311 -0.160601
-0.66156 0.26075 -0.101827
-0.66156 0.673322 -0.047857
-0.66156 -0.439948 -0.171498
-0.638471 0.39255 0.218632
-0.66156 0.360084 0.166254
-0.66156 0.32484 0.099776
-0.66156 0.29503 0.170643
-0.638471 -0.519669 0.161684
-0.638471 0.388958 -0.011506
-0.638471 0.355 -0.031741
-0.638471 0.492271 -0.064013
-0.66156 -0.155241 0.041546
-0.66156 -0.609935 -0.214253
-0.66156 -0.56909 0.113382
-0.638471 0.131097 0.006286
-0.638471 -0.493532 0.178091
-0.66156 -0.132468 -0.09912
-0.638471 0.528009 -0.223947
-0.66156 0.521455 -0.079344
-0.66156 0.682385 0.076937
-0.638471 -0.335318 -0.008715
-0.638471 -0.117805 0.130776
-0.66156 0.467305 0.215068
-0.66156 0.559892 0.185609
-0.66156 -0.497407 0.23596
-0.66156 -0.356136 -0.070193
-0.66156 0.257884 0.076696
-0.66156 -0.277086 0.218064
-0.66156 -0.479136 0.120768
-0.66156 -0.04818 -0.005235
-0.638471 0.267332 0.218749
-0.638471 0.478324 -0.207651
-0.66156 -0.186023 0.213462
-0.66156 0.570579 -0.128309
-0.66156 -0.100995 0.092197
-0.66156 -0.229811 -0.22603
-0.66156 0.084224 0.001954
-0.66156 0.607068 0.216367
-0.638471 0.550822 -0.14679
-0.638471 0.307161 0.224139
-0.66156 0.561762 0.068404
-0.66156 -0.176705 -0.17404
-0.638471 0.487109 0.083848
-0.66156 -0.036691 -0.252609
-0.638471 -0.559911 -0.030551
-0.638471 -0.47268 -0.083415
-0.66156 0.006859 0.239691
-0.638471 0.376723 0.139219
-0.638471 0.080469 0.181297
-0.66156 0.662029 0.00984
-0.66156 -0.140457 0.219632
-0.66156 -0.526024 0.21837
-0.66156 -0.010516 0.158759
-0.66156 -0.508258 -0.250425
-0.638471 -0.483685 -0.117828
-0.638471 0.067548 0.06961
-0.638471 -0.200002 0.054327
-0.638471 -0.158347 0.023983
-0.638471 0.112733 -0.109153
-0.638471 -0.293622 0.203432
-0.638471 -0.048207 -0.160621
-0.66156 0.448011 0.008616
-0.66156 0.608029 0.179451
-0.66156 -0.399087 -0.022215
-0.638471 -0.006313 -0.24073
-0.66156 -0.393575 -0.209775
-0.638471 -0.38802 0.057687
-0.66156 0.438253 0.056227
-0.66156 -0.540557 -0.034649
-0.638471 -0.010642 0.210089
-0.66156 0.583476 -0.190124
-0.638471 0.332386 0.018723
-0.66156 -0.46779 -0.01522
-0.638471 -0.474307 -0.226871
-0.66156 -0.129478 -0.252467
-0.638471 0.648106 -0.092869
-0.638471 -0.042228 0.166444
-0.66156 -0.041846 -0.139286
-0.638471 0.449491 -0.172003
-0.638471 -0.302061 0.072741
-0.66156 0.568166 0.224347
-0.638471 0.432331 -0.226476
-0.638471 -0.502994 -0.040049
-0.638471 0.466655 0.189099
-0.638471 -0.144089 0.055539
-0.638471 -0.205237 -0.093911
-0.638471 0.397931 0.19222
-0.66156 0.045574 -0.10045
-0.208416 0.131168 -0.254083
-0.457103 -0.310681 -0.254083
0.390957 -0.314927 -0.254083
-0.228078 -0.151287 -0.236766
-0.270419 0.403573 -0.254083
0.465352 0.076868 -0.254083
-0.455829 0.044541 -0.254083
0.472992 -0.548529 -0.236766
0.272306 -0.101604 -0.254083
-0.457984 -0.55242 -0.254083
-0.489869 0.568466 -0.236766
0.29521 0.213272 -0.254083
0.477573 -0.128918 -0.254083
0.371816 0.497522 -0.254083
-0.068987 0.389435 -0.254083
-0.382329 0.223556 -0.236766
-0.149024 0.560161 -0.254083
0.20376 -0.275895 -0.254083
-0.170259 -0.559556 -0.254083
-0.408942 -0.130668 -0.254083
0.158281 0.092808 -0.254083
0.107726 0.408654 -0.236766
-0.0585 -0.187889 -0.236766
0.520143 0.586518 -0.254083
0.403553 0.333592 -0.236766
0.30586 -0.516121 -0.254083
-0.302576 0.004762 -0.236766
-0.33315 0.551091 -0.236766
0.313355 0.048341 -0.236766
0.541465 -0.410617 -0.254083
0.551402 0.20311 -0.236766
-0.529935 0.189537 -0.254083
-0.125407 -0.031562 -0.254083
-0.357315 -0.433475 -0.254083
-0.156612 -0.300319 -0.254083
-0.177922 0.276384 -0.254083
-0.422827 0.418002 -0.254083
-0.31447 -0.29603 -0.254083
-0.549289 -0.185106 -0.236766
-0.108297 -0.436276 -0.236766
0.197917 0.309088 -0.254083
-0.599325 -0.543677 -0.254083
-0.533327 -0.42773 -0.236766
0.28101 0.411259 -0.254083
0.267678 -0.389472 -0.254083
-0.067591 0.222009 -0.236766
0.413171 -0.439822 -0.236766
-0.561451 0.462593 -0.236766
0.150823 -0.085329 -0.236766
0.315677 -0.218384 -0.236766
0.429137 0.195915 -0.236766
0.12927 -0.380344 -0.254083
0.301294 0.628755 -0.236766
0.395894 -0.038828 -0.236766
0.600381 -0.545763 -0.254083
-0.326141 0.120153 -0.254083
0.508653 0.467782 -0.236766
-0.165474 0.448886 -0.236766
-0.499629 -0.060147 -0.254083
-0.268102 -0.508133 -0.236766
-0.047492 0.504613 -0.254083
0.151934 0.20803 -0.236766
0.056433 0.047291 -0.236766
-0.293138 0.29865 -0.254083
0.456285 -0.232951 -0.236766
0.0204 0.335407 -0.236766
0.416191 0.598139 -0.254083
-0.451671 0.300995 -0.254083
0.132786 0.613548 -0.236766
0.199978 -0.465938 -0.254083
0.584797 -0.16488 -0.236766
0.100677 -0.617362 -0.236766
0.119814 0.511102 -0.236766
0.297833 0.31195 -0.254083
-0.317197 -0.193648 -0.236766
0.494114 0.282842 -0.236766
-0.40285 0.61697 -0.254083
-0.049655 -0.09162 -0.236766
-0.441624 -0.218066 -0.236766
0.482686 -0.329506 -0.236766
-0.342597 -0.565357 -0.236766
0.360216 0.132204 -0.236766
-0.400398 -0.039488 -0.236766
-0.257231 0.628004 -0.254083
0.39182 -0.160453 -0.236766
-0.275695 -0.384901 -0.254083
0.085254 -0.295191 -0.236766
0.492189 -0.020241 -0.236766
-0.437111 0.14979 -0.236766
-0.138519 -0.135052 -0.236766
0.385035 -0.560323 -0.254083
-0.131374 0.083945 -0.254083
-0.039528 0.007912 -0.254083
-0.202854 -0.449793 -0.254083
0.428893 0.419041 -0.236766
-0.268152 0.196557 -0.254083
-0.440538 -0.403181 -0.254083
0.104341 0.314364 -0.254083
-0.310689 -0.08308 -0.236766
0.061999 -0.125072 -0.236766
0.551792 0.105954 -0.236766
0.286348 -0.303988 -0.254083
0.266853 -0.60205 -0.236766
-0.075699 -0.355559 -0.236766
-0.365892 0.341578 -0.236766
0.283012 0.50392 -0.254083
0.153316 -0.539586 -0.254083
-0.322524 0.467749 -0.236766
-0.142962 -0.219685 -0.236766
-0.399984 0.504229 -0.254083
-0.15266 0.190432 -0.236766
0.370008 0.259965 -0.254083
0.186756 0.391785 -0.254083
0.156158 -0.192542 -0.236766
0.162622 -0.005885 -0.254083
-0.536952 0.014053 -0.236766
-0.620574 -0.241422 -0.236766
0.598945 -0.464854 -0.236766
0.006373 -0.236152 -0.236766
-0.476455 0.479088 -0.254083
0.347362 -0.397184 -0.254083
0.2501 -0.00837 -0.254083
-0.370576 -0.350173 -0.236766
-0.37113 0.05433 -0.254083
-0.605372 -0.460448 -0.254083
-0.396779 -0.504518 -0.236766
0.620777 0.164522 -0.236766
0.483274 -0.470328 -0.254083
-0.595307 -0.367479 -0.236766
-0.240179 0.481349 -0.254083
-0.213164 -0.02335 -0.254083
0.234425 0.066869 -0.254083
0.319918 -0.031038 -0.236766
0.228361 -0.535129 -0.254083
-0.1283 0.338729 -0.254083
0.584734 0.46391 -0.236766
0.400651 0.040552 -0.254083
-0.47649 0.368192 -0.236766
0.34491 0.374602 -0.254083
-0.113144 -0.516787 -0.236766
-0.496896 0.107015 -0.254083
-0.240834 -0.579749 -0.254083
-0.522025 -0.517615 -0.254083
-0.478228 -0.152849 -0.254083
-0.507789 0.256478 -0.236766
0.003328 0.617514 -0.236766
-0.336145 0.6384 -0.236766
0.229391 0.184648 -0.254083
0.642983 0.559631 -0.236766
0.522704 -0.21278 -0.254083
0.386039 -0.243482 -0.236766
-0.26532 0.088421 -0.236766
-0.075799 0.143584 -0.236766
0.045144 0.502986 -0.236766
0.323192 0.562072 -0.254083
-0.366199 -0.244567 -0.236766
-0.514297 -0.273032 -0.236766
0.197189 -0.361541 -0.254083
0.496512 0.398407 -0.236766
-0.177339 0.627193 -0.236766
0.17155 0.460498 -0.254083
-0.522987 -0.589147 -0.254083
0.524985 -0.592029 -0.254083
-0.508219 0.63578 -0.236766
-0.01363 -0.583942 -0.236766
0.432003 -0.373825 -0.254083
0.097361 0.125773 -0.254083
-0.618088 0.061648 -0.236766
0.122876 -0.45572 -0.236766
0.634511 -0.21657 -0.236766
-0.19363 -0.090015 -0.236766
0.52945 -0.278164 -0.236766
0.558951 0.29268 -0.254083
-0.110435 0.637163 -0.236766
-0.416959 -0.618153 -0.254083
-0.507155 -0.365564 -0.236766
0.077892 -0.016123 -0.236766
-0.117089 0.495071 -0.236766
-0.455207 -0.472519 -0.236766
0.313323 -0.154047 -0.254083
-0.458487 0.210391 -0.254083
0.435516 0.484991 -0.236766
0.209081 -0.146667 -0.254083
0.419905 -0.618817 -0.254083
0.365293 0.64447 -0.236766
0.367018 -0.499624 -0.236766
0.534977 -0.103304 -0.236766
-0.531532 0.521449 -0.254083
-0.103302 -0.578824 -0.254083
-0.076767 0.570596 -0.236766
-0.039569 0.66604 -0.236766
-0.344191 0.402483 -0.236766
0.559585 -0.351366 -0.236766
0.452264 -0.067284 -0.254083
0.46466 0.14059 -0.254083
0.526925 0.650688 -0.254083
-0.290883 -0.444038 -0.236766
0.516173 0.03833 -0.236766
0.074938 0.185766 -0.236766
0.310658 -0.455681 -0.236766
0.332642 -0.092699 -0.236766
-0.230224 0.306658 -0.236766
0.485815 0.21672 -0.254083
0.147612 -0.300159 -0.236766
-0.335299 0.182377 -0.236766
0.465525 0.56174 -0.236766
-0.318317 0.24153 -0.254083
-0.255708 -0.325999 -0.254083
0.302522 0.106929 -0.254083
0.359215 0.436924 -0.254083
-0.179956 0.508943 -0.236766
0.34342 -0.602525 -0.236766
0.005421 0.090745 -0.236766
0.109318 0.251479 -0.236766
0.615679 0.399989 -0.236766
0.112898 0.030504 -0.254083
0.521417 0.526187 -0.254083
0.039221 0.402907 -0.236766
0.115891 -0.241313 -0.236766
-0.508478 0.426496 -0.254083
0.186556 0.146254 -0.236766
0.465831 0.332731 -0.254083
-0.268799 0.54353 -0.254083
-0.054527 -0.496941 -0.236766
-0.114199 0.280126 -0.254083
-0.245909 0.0227 -0.236766
0.588357 -0.603514 -0.254083
0.431965 -0.499081 -0.254083
0.130134 -0.142906 -0.254083
0.413895 0.104937 -0.254083
-0.141503 -0.356702 -0.254083
-0.253794 0.251385 -0.236766
-0.352284 -0.143817 -0.254083
0.571512 0.56629 -0.236766
-0.185532 -0.501988 -0.236766
-0.612639 -0.076958 -0.236766
-0.08836 0.045816 -0.254083
-0.104355 -0.088181 -0.254083
-0.094825 -0.26383 -0.236766
-0.436057 0.548776 -0.254083
-0.39776 0.28156 -0.254083
0.106735 0.564125 -0.254083
-0.045604 -0.404217 -0.236766
-0.172238 0.018819 -0.254083
0.16556 -0.592633 -0.236766
0.618575 -0.291986 -0.254083
0.408404 0.541156 -0.254083
-0.282266 -0.151267 -0.254083
-0.142251 0.399934 -0.254083
-0.571685 0.12458 -0.236766
0.094095 -0.561105 -0.236766
-0.438653 -0.080995 -0.236766
-0.41813 0.099581 -0.254083
-0.593731 0.193939 -0.236766
-0.216195 0.570751 -0.254083
0.150176 0.348934 -0.254083
0.080106 0.454569 -0.254083
0.651212 -0.392188 -0.236766
-0.5838 0.632401 -0.236766
0.226154 -0.068155 -0.254083
0.413229 -0.111934 -0.254083
0.421677 0.271128 -0.236766
0.525141 0.333263 -0.236766
0.591262 0.246413 -0.236766
-0.011434 0.441437 -0.236766
0.256607 -0.44728 -0.254083
-0.202496 0.076292 -0.254083
-0.098869 0.432383 -0.236766
0.011187 0.20219 -0.254083
-0.248353 -0.084042 -0.236766
0.374892 0.205165 -0.236766
-0.387993 -0.291794 -0.254083
0.53463 -0.487034 -0.236766
-0.315715 -0.609787 -0.254083
-0.270967 -0.036384 -0.254083
-0.182779 -0.181846 -0.236766
0.630329 0.304761 -0.236766
-0.149318 0.135477 -0.254083
-0.216113 0.406335 -0.254083
-0.614873 0.289345 -0.254083
-0.454017 0.612889 -0.236766
0.445447 -0.180133 -0.236766
-0.312951 0.063202 -0.236766
0.063241 0.610316 -0.236766
-0.30165 0.59118 -0.254083
0.011761 -0.076458 -0.236766
0.462887 -0.417838 -0.254083
0.03785 -0.448773 -0.236766
0.333634 0.175831 -0.254083
0.536663 0.154689 -0.254083
-0.337822 -0.037051 -0.236766
-0.316459 -0.493536 -0.254083
-0.423802 0.359677 -0.236766
0.462501 -0.282996 -0.254083
0.158967 0.550147 -0.236766
-0.161712 -0.415996 -0.254083
-0.295081 0.359727 -0.236766
-0.039947 0.060606 -0.236766
0.119535 -0.044296 -0.254083
-0.276759 0.147024 -0.236766
0.545886 0.432033 -0.254083
0.242917 0.471601 -0.236766
-0.016067 -0.313952 -0.236766
-0.267868 -0.214697 -0.236766
0.259375 0.55773 -0.254083
0.016435 0.282775 -0.236766
-0.579717 -0.589483 -0.236766
-0.407069 -0.450654 -0.254083
0.240708 0.267433 -0.254083
-0.416303 0.669419 -0.236766
-0.464855 -0.605084 -0.236766
-0.609736 0.367868 -0.236766
-0.546665 0.292296 -0.254083
0.048449 -0.262098 -0.254083
-0.389428 0.171338 -0.236766
0.364899 0.587949 -0.236766
-0.018265 0.138727 -0.236766
-0.612013 0.450723 -0.236766
0.3369 -0.29251 -0.254083
0.639892 0.2252 -0.236766
0.260379 -0.153331 -0.254083
0.62463 0.627129 -0.236766
-0.423024 -0.354575 -0.254083
-0.107315 -0.315685 -0.254083
-0.442752 -0.015567 -0.254083
0.474725 0.610985 -0.254083
0.462296 0.021754 -0.236766
-0.482851 -0.432285 -0.254083
0.573991 -0.22624 -0.236766
0.256836 0.652512 -0.254083
-0.50265 0.055713 -0.236766
-0.318194 -0.245281 -0.254083
-0.027411 0.352816 -0.236766
0.602412 0.038829 -0.236766
0.32776 0.479006 -0.236766
0.591556 0.678962 -0.254083
0.251122 -0.26963 -0.236766
0.203744 -0.224558 -0.254083
-0.392663 -0.573593 -0.254083
0.298522 0.365001 -0.236766
0.641056 -0.438429 -0.254083
-0.554159 -0.306941 -0.236766
0.130371 0.163765 -0.254083
0.18745 0.055666 -0.236766
0.150928 0.279645 -0.236766
-0.36568 0.004414 -0.254083
-0.413877 0.021662 -0.236766
0.176625 0.596382 -0.254083
0.073632 -0.391748 -0.236766
-0.617153 0.535539 -0.254083
0.085574 -0.169221 -0.236766
-0.490416 0.164238 -0.236766
-0.049928 -0.242032 -0.236766
0.53128 0.249534 -0.236766
-0.502011 0.323621 -0.254083
0.275476 0.166292 -0.254083
-0.17876 -0.248932 -0.254083
-0.593089 -0.139852 -0.236766
-0.426204 -0.264775 -0.236766
-0.276722 0.449177 -0.236766
0.163392 -0.433121 -0.254083
-0.169918 -0.042968 -0.236766
-0.295109 -0.565296 -0.254083
0.566519 0.61613 -0.236766
-0.483071 -0.237233 -0.254083
0.383045 -0.368707 -0.236766
0.534647 -0.152102 -0.236766
0.327126 -0.356314 -0.236766
-0.554501 0.242513 -0.236766
-0.205006 -0.311545 -0.254083
-0.427702 0.463159 -0.236766
0.230979 0.371624 -0.254083
0.219193 -0.589728 -0.254083
0.642426 0.099237 -0.236766
-0.542092 -0.043597 -0.236766
0.503436 0.109331 -0.236766
0.11319 0.661678 -0.254083
0.366015 -0.202951 -0.254083
0.521302 -0.543775 -0.254083
0.537015 -0.02568 -0.254083
0.456713 0.65241 -0.236766
-0.300932 -0.344133 -0.254083
-0.116727 0.217004 -0.254083
-0.375493 0.466858 -0.236766
0.468545 0.439552 -0.254083
-0.363063 0.59697 -0.236766
0.385279 0.399566 -0.236766
-0.086848 -0.009322 -0.236766
0.570814 0.509549 -0.236766
-0.109487 -0.190486 -0.254083
0.354173 0.065833 -0.254083
-0.607033 -0.416124 -0.236766
0.347235 0.297971 -0.236766
-0.54684 0.562996 -0.236766
-0.205404 -0.626542 -0.254083
0.476687 -0.595867 -0.236766
0.505899 -0.065771 -0.236766
0.475842 0.509976 -0.236766
0.360516 0.022124 -0.236766
0.183116 -0.044876 -0.236766
-0.083932 0.097053 -0.236766
0.361343 -0.442211 -0.254083
-0.335668 0.28828 -0.236766
0.292974 -0.257131 -0.254083
-0.37997 0.547277 -0.236766
-0.35611 -0.094902 -0.236766
0.222477 0.422141 -0.254083
0.397066 0.155392 -0.254083
-0.107394 0.538785 -0.254083
0.185821 0.51412 -0.254083
-0.470959 0.6591 -0.254083
-0.561557 0.057111 -0.236766
-0.48115 -0.106237 -0.254083
-0.507293 -0.197326 -0.254083
-0.074734 -0.543285 -0.236766
-0.459159 0.253697 -0.236766
0.51334 -0.360004 -0.254083
-0.486616 0.521094 -0.236766
-0.413545 -0.173555 -0.236766
-0.38522 -0.396322 -0.254083
0.423234 0.376367 -0.254083
-0.064893 0.46398 -0.236766
-0.484569 0.012539 -0.236766
0.626143 -0.151746 -0.254083
0.15505 0.683501 -0.254083
0.155607 -0.258088 -0.254083
0.313024 0.255751 -0.254083
-0.521187 0.379207 -0.236766
0.187381 0.248562 -0.254083
0.29436 0.003661 -0.254083
0.577182 0.339517 -0.236766
-0.167859 0.324011 -0.236766
0.028875 0.545567 -0.236766
-0.028941 0.252626 -0.236766
0.436262 -0.017985 -0.236766
-0.281035 0.668406 -0.236766
0.029271 -0.158184 -0.236766
0.418351 -0.272574 -0.254083
0.410482 0.639667 -0.236766
-0.122635 0.021688 -0.236766
-0.550716 -0.481211 -0.236766
0.50249 -0.43108 -0.236766
0.048654 -0.332583 -0.236766
-0.036623 0.5966 -0.236766
0.579498 0.169541 -0.254083
-0.248987 -0.620521 -0.236766
0.269086 -0.557183 -0.236766
-0.238485 0.368437 -0.236766
0.157774 -0.343885 -0.236766
0.406915 0.454047 -0.254083
0.162478 -0.495881 -0.254083
-0.137616 -0.469955 -0.236766
-0.103616 -0.390355 -0.236766
0.632612 -0.576096 -0.236766
0.421045 -0.538651 -0.236766
-0.00094 -0.192229 -0.236766
-0.595949 -0.500342 -0.236766
-0.151659 -0.096236 -0.254083
-0.065037 -0.14341 -0.236766
0.205231 -0.10316 -0.236766
0.252125 -0.497855 -0.254083
0.168194 -0.391905 -0.236766
0.091314 0.085669 -0.236766
0.043568 -0.554028 -0.236766
0.353887 -0.136827 -0.254083
0.626951 0.451351 -0.236766
-0.224408 -0.490732 -0.254083
-0.520903 0.479695 -0.236766
-0.37677 0.66087 -0.254083
-0.155112 -0.607078 -0.236766
-0.31204 0.506774 -0.254083
-0.36843 -0.184675 -0.254083
0.244468 0.127258 -0.254083
-0.569991 0.390715 -0.236766
-0.012842 -0.137647 -0.236766
-0.37847 0.118035 -0.254083
0.11642 -0.501461 -0.236766
-0.134888 -0.261808 -0.254083
-0.501873 -0.31492 -0.236766
-0.511714 -0.465078 -0.254083
-0.575499 0.32011 -0.236766
0.058654 0.247258 -0.236766
-0.258975 -0.270407 -0.254083
-0.000701 0.045678 -0.254083
0.59752 -0.104789 -0.236766
-0.188522 -0.133059 -0.236766
0.375592 -0.09837 -0.236766
-0.125205 0.600305 -0.254083
0.311629 0.442743 -0.254083
-0.464774 -0.36533 -0.254083
0.040702 -0.607235 -0.236766
0.58637 -0.385111 -0.236766
0.536632 0.382795 -0.236766
0.310596 -0.558852 -0.254083
0.578886 -0.287663 -0.236766
0.479133 -0.379285 -0.236766
-0.576331 0.522381 -0.254083
0.121965 0.471976 -0.254083
-0.151179 0.242058 -0.254083
-0.144415 0.667888 -0.254083
0.613213 -0.338926 -0.236766
-0.621107 -0.599108 -0.236766
0.177513 0.644858 -0.236766
0.567716 -0.002078 -0.236766
0.053832 0.363094 -0.236766
-0.531392 0.089693 -0.236766
-0.232667 -0.383433 -0.254083
0.379139 -0.624598 -0.236766
0.426636 -0.33597 -0.236766
0.285004 -0.1898 -0.236766
-0.010228 0.512887 -0.236766
0.34456 -0.534326 -0.254083
-0.372493 0.428038 -0.254083
0.078479 0.284118 -0.236766
0.194158 -0.323201 -0.236766
0.280726 0.275916 -0.236766
0.274222 0.062804 -0.236766
-0.028604 -0.366124 -0.236766
-0.35774 0.255108 -0.254083
0.484352 -0.508189 -0.236766
-0.049649 0.425057 -0.236766
0.158764 0.417136 -0.236766
-0.612366 0.245524 -0.254083
-0.195122 0.169856 -0.236766
-0.52176 -0.150074 -0.236766
0.143638 0.128506 -0.236766
-0.358594 0.506534 -0.254083
-0.444376 0.508233 -0.254083
-0.57904 0.588937 -0.236766
-0.384493 0.378449 -0.236766
-0.212784 0.256186 -0.236766
-0.363832 -0.474179 -0.254083
-0.60314 0.020495 -0.236766
-0.220851 0.649792 -0.254083
0.118202 -0.187292 -0.254083
-0.588922 -0.196041 -0.236766
0.421688 -0.219084 -0.254083
-0.425913 0.236851 -0.254083
-0.45372 0.088562 -0.236766
-0.208963 -0.214594 -0.254083
-0.534054 0.151004 -0.236766
-0.086531 -0.61895 -0.254083
0.50435 -0.249355 -0.254083
0.484035 0.17975 -0.236766
0.310442 -0.39805 -0.236766
-0.440139 -0.506231 -0.254083
0.334722 0.613136 -0.254083
0.568952 -0.437262 -0.236766
-0.223974 -0.114628 -0.254083
0.288035 -0.354185 -0.254083
-0.153924 -0.520742 -0.254083
-0.366562 -0.537525 -0.254083
0.564014 0.051697 -0.236766
-0.092162 0.320798 -0.236766
-0.600252 -0.327311 -0.236766
0.55398 -0.522572 -0.236766
0.169459 -0.134199 -0.254083
-0.566539 0.169827 -0.254083
0.445072 -0.457689 -0.254083
0.07766 0.542364 -0.236766
0.309426 -0.62407 -0.236766
0.52539 0.08055 -0.254083
-0.533578 -0.084965 -0.254083
-0.11187 0.160892 -0.236766
-0.422429 0.193888 -0.236766
0.599923 -0.502416 -0.254083
-0.090961 -0.054799 -0.236766
-0.462722 0.418858 -0.254083
-0.222844 0.531454 -0.254083
-0.258496 0.328714 -0.254083
-0.341461 -0.371015 -0.254083
-0.421149 0.581293 -0.236766
0.218451 -0.424261 -0.254083
-0.020123 0.184923 -0.236766
0.595063 0.206876 -0.236766
-0.050666 -0.281539 -0.236766
0.577493 0.409732 -0.236766
0.422027 0.068771 -0.236766
-0.614884 0.406892 -0.236766
0.12054 -0.103441 -0.254083
-0.05741 -0.578394 -0.236766
-0.178916 0.112339 -0.236766
-0.252026 0.122295 -0.254083
-0.550982 -0.615827 -0.236766
0.057159 0.011957 -0.254083
-0.09947 -0.148956 -0.254083
0.027477 0.441566 -0.236766
0.285637 0.46594 -0.236766
0.110763 -0.414495 -0.254083
0.450631 0.22822 -0.236766
-0.053587 0.53948 -0.236766
0.300634 -0.064706 -0.236766
0.320031 0.136853 -0.236766
0.494241 -0.18652 -0.254083
-0.33068 -0.455591 -0.236766
0.066641 0.668755 -0.236766
-0.444285 -0.119269 -0.236766
0.187314 0.180811 -0.254083
0.335739 -0.479437 -0.254083
0.528354 -0.324443 -0.254083
0.135673 0.066784 -0.236766
-0.115413 0.119306 -0.236766
0.380968 0.304899 -0.254083
0.10749 0.206314 -0.236766
0.247793 0.519456 -0.254083
-0.361259 -0.600976 -0.236766
-0.010616 0.387432 -0.236766
-0.152012 -0.16657 -0.254083
0.391392 -0.00076 -0.236766
-0.473148 -0.195453 -0.236766
0.232229 0.59626 -0.254083
-0.072099 0.355436 -0.236766
0.234745 -0.369991 -0.254083
-0.354154 -0.296083 -0.236766
0.005141 -0.550255 -0.236766
0.601704 -0.025606 -0.236766
-0.62776 0.149982 -0.254083
-0.006367 -0.419111 -0.236766
-0.234358 0.055524 -0.254083
-0.233066 -0.184773 -0.254083
-0.068071 -0.318316 -0.236766
0.189348 -0.527488 -0.254083
0.430694 0.151712 -0.236766
-0.283628 0.488421 -0.236766
0.387892 -0.473047 -0.254083
0.108246 -0.319907 -0.254083
-0.300608 0.176911 -0.254083
-0.025363 -0.062482 -0.236766
0.374269 0.350218 -0.254083
0.461025 0.378207 -0.254083
0.210436 0.218592 -0.254083
0.6021 -0.257821 -0.236766
0.099677 -0.359219 -0.236766
0.283133 0.595626 -0.236766
0.183607 0.351166 -0.236766
-0.057256 0.628167 -0.236766
-0.508107 -0.559146 -0.236766
-0.189252 0.551002 -0.236766
0.441872 -0.140732 -0.254083
-0.186012 0.381799 -0.254083
-0.05225 -0.449015 -0.236766
-0.315907 0.420022 -0.254083
-0.493969 -0.027396 -0.236766
0.333745 0.415617 -0.236766
0.352885 -0.243001 -0.254083
0.332291 0.00475 -0.254083
-0.569427 -0.418036 -0.236766
-0.315325 -0.153212 -0.236766
-0.230658 0.182736 -0.254083
-0.2689 0.597084 -0.236766
-0.412798 -0.31361 -0.236766
-0.525128 -0.229994 -0.236766
-0.12991 -0.067479 -0.236766
-0.343887 0.220908 -0.236766
0.140087 0.385049 -0.236766
-0.366525 0.086834 -0.236766
0.158714 -0.624731 -0.254083
-0.495769 0.287309 -0.254083
0.504657 0.432244 -0.254083
-0.024891 0.316068 -0.236766
0.445472 -0.565641 -0.254083
-0.178057 0.589917 -0.254083
-0.199023 0.315421 -0.254083
-0.283193 -0.303911 -0.236766
0.643018 -0.26182 -0.254083
0.14458 0.024941 -0.236766
0.314058 0.512849 -0.236766
-0.228119 -0.059112 -0.254083
0.376715 0.088653 -0.236766
-0.446733 -0.171168 -0.254083
-0.540948 -0.379102 -0.236766
-0.539965 0.420754 -0.236766
0.400057 0.224832 -0.254083
-0.096533 -0.470649 -0.236766
-0.320804 0.322147 -0.254083
0.341738 0.099918 -0.254083
0.449848 0.285991 -0.254083
-0.608531 0.658843 -0.236766
-0.1334 0.305409 -0.236766
0.12561 -0.564837 -0.254083
0.091003 -0.260857 -0.254083
0.040689 -0.497786 -0.254083
0.422011 -0.081688 -0.236766
0.521752 0.216593 -0.254083
-0.291022 0.034051 -0.254083
0.491448 0.655681 -0.254083
-0.485305 0.613841 -0.254083
0.380436 -0.274264 -0.254083
-0.155873 0.371771 -0.236766
-0.453742 0.332191 -0.236766
-0.403325 -0.075653 -0.236766
0.500881 0.313634 -0.254083
-0.03775 -0.164608 -0.254083
0.631964 0.511707 -0.236766
-0.139626 -0.574992 -0.236766
-0.603778 0.334354 -0.254083
0.323824 -0.427491 -0.254083
-0.624225 0.616365 -0.236766
-0.52672 0.605384 -0.236766
-0.483218 0.448756 -0.236766
0.41579 -0.408865 -0.254083
0.350534 0.520109 -0.236766
0.525381 0.279976 -0.254083
0.32343 -0.262776 -0.236766
0.352965 0.22889 -0.254083
-0.037803 -0.631745 -0.236766
-0.325409 -0.539755 -0.254083
-0.397119 0.344375 -0.254083
-0.253957 -0.121459 -0.236766
0.345383 -0.180157 -0.236766
-0.055446 0.27588 -0.236766
-0.22192 0.342688 -0.254083
-0.001512 -0.104241 -0.254083
-0.10768 -0.231118 -0.236766
0.002776 -0.001659 -0.236766
-0.332362 -0.415813 -0.236766
0.14027 -0.218583 -0.254083
0.094075 0.487277 -0.236766
0.529383 -0.445404 -0.254083
-0.309287 -0.118098 -0.236766
-0.085072 0.672304 -0.236766
0.117582 -0.286175 -0.254083
-0.305809 -0.388668 -0.236766
0.571719 0.140268 -0.236766
-0.200202 0.007188 -0.236766
-0.498742 -0.399344 -0.236766
-0.070714 -0.425145 -0.254083
-0.422799 0.055349 -0.254083
0.284545 0.678109 -0.254083
-0.278554 -0.479932 -0.254083
0.067408 0.12319 -0.236766
0.623141 0.588069 -0.236766
-0.279388 0.235687 -0.254083
-0.237366 0.27752 -0.254083
0.275819 -0.031491 -0.254083
0.455889 -0.096994 -0.236766
-0.25311 -0.011111 -0.236766
-0.57749 0.421964 -0.254083
0.538953 -0.060168 -0.254083
0.166129 0.491651 -0.236766
-0.377889 -0.060004 -0.254083
0.442206 -0.597163 -0.236766
0.497899 -0.107072 -0.236766
0.533862 0.499089 -0.236766
-0.17908 0.204228 -0.254083
-0.449721 -0.04835 -0.236766
0.617279 -0.610688 -0.236766
-0.365661 0.189306 -0.254083
0.455602 -0.342912 -0.254083
0.203234 0.582996 -0.236766
0.270617 0.333075 -0.254083
0.181947 0.110851 -0.236766
-0.345661 -0.266079 -0.254083
-0.108297 -0.118599 -0.236766
0.081197 -0.47358 -0.236766
-0.167298 -0.46871 -0.254083
0.430109 0.32029 -0.254083
0.271691 -0.216338 -0.254083
0.487264 0.541519 -0.254083
0.036322 -0.417783 -0.254083
0.523369 0.615947 -0.236766
0.619549 -0.078533 -0.236766
-0.6169 0.504384 -0.236766
0.033034 0.224577 -0.236766
-0.012512 0.222617 -0.236766
0.347535 -0.568386 -0.254083
-0.340408 0.01951 -0.236766
0.202871 -0.014613 -0.236766
-0.304316 -0.029057 -0.254083
0.505312 -0.302307 -0.236766
-0.315504 0.15155 -0.236766
0.024464 0.581342 -0.254083
-0.611037 0.120321 -0.254083
0.595801 0.491032 -0.254083
0.259788 0.296333 -0.254083
0.510413 -0.396978 -0.254083
0.649973 0.192841 -0.236766
-0.586444 0.231184 -0.236766
-0.167192 -0.387411 -0.236766
0.342106 -0.056584 -0.236766
-0.638152 0.669809 -0.254083
0.396025 -0.067876 -0.254083
0.065674 -0.584504 -0.236766
-0.106587 0.364583 -0.254083
-0.476598 -0.289343 -0.236766
-0.022071 0.281523 -0.254083
-0.636033 0.426565 -0.254083
-0.137308 0.055687 -0.236766
-0.392287 0.582088 -0.254083
-0.631296 -0.567054 -0.236766
0.460384 0.407015 -0.236766
0.492359 -0.15777 -0.236766
-0.412064 -0.202288 -0.254083
-0.240051 0.423448 -0.236766
0.175026 -0.223725 -0.236766
0.111112 -0.011547 -0.236766
0.121122 0.434022 -0.254083
-0.025959 0.106116 -0.236766
0.493961 -0.222716 -0.236766
0.586181 0.640338 -0.254083
-0.587206 -0.239911 -0.236766
-0.398118 -0.259729 -0.254083
-0.626128 0.183304 -0.254083
-0.23929 -0.431998 -0.254083
0.376274 -0.417922 -0.236766
0.584061 0.278977 -0.236766
0.231564 -0.248915 -0.254083
-0.085929 0.513287 -0.254083
-0.177975 0.051636 -0.254083
-0.577954 -0.283663 -0.236766
0.45385 0.108015 -0.254083
-0.565545 0.66011 -0.236766
0.427969 0.014131 -0.236766
-0.469043 -0.33632 -0.236766
0.611398 0.658827 -0.236766
-0.358013 -0.324066 -0.254083
-0.112315 -0.358396 -0.236766
0.294368 -0.133198 -0.236766
0.306596 0.167947 -0.236766
0.294841 -0.598922 -0.254083
-0.328894 -0.341218 -0.236766
0.404817 0.496774 -0.254083
0.517037 0.179783 -0.236766
0.036661 -0.365386 -0.236766
-0.270842 0.060134 -0.254083
-0.499799 -0.604956 -0.236766
-0.286073 -0.193357 -0.254083
0.449355 0.599021 -0.236766
0.071193 -0.241001 -0.236766
0.157722 0.169979 -0.236766
-0.568583 0.023282 -0.236766
-0.627663 -0.333063 -0.254083
0.089231 0.351567 -0.254083
0.399689 -0.503009 -0.236766
-0.569561 -0.557544 -0.254083
0.298775 0.536176 -0.254083
-0.063116 0.115571 -0.254083
0.450195 0.177701 -0.254083
0.458205 -0.488429 -0.236766
0.643439 0.355212 -0.236766
0.177011 -0.094527 -0.254083
0.084894 0.385262 -0.236766
0.539941 -0.252537 -0.254083
-0.285019 -0.093151 -0.254083
0.46862 0.262588 -0.236766
-0.136528 -0.395398 -0.254083
0.000289 -0.387268 -0.236766
0.110945 0.285928 -0.236766
0.143045 0.572586 -0.254083
0.014282 -0.32596 -0.254083
-0.508966 0.028955 -0.254083
-0.152703 0.505354 -0.254083
0.462501 0.480036 -0.254083
-0.398142 -0.372144 -0.236766
0.623594 -0.417319 -0.236766
-0.432192 -0.532449 -0.236766
-0.085728 0.28735 -0.236766
-0.464478 -0.071323 -0.254083
0.185309 0.284901 -0.236766
-0.209498 0.502058 -0.254083
-0.119257 0.244125 -0.236766
0.182145 0.219346 -0.236766
0.276317 -0.525768 -0.236766
-0.209165 -0.573739 -0.254083
0.51093 0.356427 -0.254083
0.165792 0.306753 -0.254083
-0.611282 0.562052 -0.236766
0.465134 -0.022439 -0.254083
-0.312273 0.091118 -0.254083
0.391128 -0.591912 -0.254083
-0.588148 0.487273 -0.254083
0.557537 -0.595061 -0.236766
0.393735 0.573801 -0.236766
0.182388 -0.185984 -0.254083
-0.194748 -0.053587 -0.254083
0.102384 -0.590022 -0.254083
0.447756 -0.305604 -0.236766
0.128207 0.106381 -0.254083
-0.026694 0.634154 -0.254083
0.012402 0.648249 -0.236766
-0.426228 0.638876 -0.254083
0.491962 -0.62803 -0.254083
-0.229529 0.448249 -0.254083
0.314689 0.077335 -0.254083
-0.50549 0.141956 -0.254083
0.004235 0.16419 -0.236766
0.353862 -0.353754 -0.254083
0.438937 0.451569 -0.254083
-0.13252 0.467145 -0.236766
-0.085101 0.180501 -0.236766
0.094878 -0.529226 -0.236766
-0.572661 -0.113131 -0.236766
-0.15969 -0.337089 -0.236766
0.271366 -0.327503 -0.236766
-0.564537 0.088811 -0.236766
-0.367078 -0.211339 -0.236766
-0.528747 -0.01135 -0.254083
0.081044 0.573953 -0.236766
0.314887 0.332391 -0.236766
-0.289066 -0.059838 -0.236766
-0.377452 0.317667 -0.254083
0.184193 0.670546 -0.254083
-0.410744 -0.403595 -0.236766
-0.159371 0.078375 -0.236766
-0.182939 -0.533518 -0.236766
-0.302773 -0.221796 -0.236766
0.223833 -0.040508 -0.236766
-0.271188 -0.534376 -0.254083
0.122194 0.363519 -0.254083
0.006507 -0.490107 -0.236766
-0.47922 0.226651 -0.236766
-0.185679 0.24583 -0.254083
-0.13682 -0.188078 -0.236766
0.08544 0.014472 -0.236766
0.156847 -0.046361 -0.254083
-0.398043 -0.537498 -0.254083
-0.474252 0.072159 -0.254083
0.269911 0.013238 -0.236766
0.088448 0.163252 -0.254083
-0.242925 0.205903 -0.236766
0.059775 -0.1833 -0.254083
0.620811 0.196342 -0.254083
0.136631 0.650155 -0.236766
0.269693 0.623951 -0.254083
-0.269049 0.361359 -0.254083
-0.278508 -0.585409 -0.236766
0.084408 0.243632 -0.254083
0.138282 0.239791 -0.236766
0.362636 -0.296152 -0.236766
-0.082496 0.634349 -0.254083
-0.152013 0.621407 -0.254083
0.224004 0.453296 -0.254083
-0.310238 0.62115 -0.254083
0.104673 -0.138072 -0.236766
-0.472832 -0.399235 -0.254083
-0.510291 -0.096319 -0.236766
0.140102 -0.421801 -0.236766
-0.454044 0.114455 -0.254083
0.289376 0.245236 -0.236766
0.389048 0.430459 -0.236766
-0.074105 -0.293204 -0.254083
0.2771 0.093764 -0.236766
-0.340035 -0.627198 -0.236766
-0.397888 0.250494 -0.254083
-0.303963 0.449847 -0.254083
-0.255758 0.568949 -0.236766
-0.083647 -0.240411 -0.254083
-0.016216 -0.282926 -0.236766
0.196595 -0.497284 -0.254083
-0.440886 0.399687 -0.236766
0.026246 -0.628509 -0.254083
-0.546539 -0.267275 -0.254083
-0.088546 0.474049 -0.254083
0.519241 -0.131584 -0.254083
-0.370195 -0.032753 -0.236766
-0.464757 0.18153 -0.236766
-0.064594 0.036192 -0.236766
-0.382504 0.02376 -0.236766
-0.097075 0.402403 -0.254083
-0.542154 0.214163 -0.236766
0.626613 0.25887 -0.236766
-0.635456 -0.269121 -0.236766
-0.118266 -0.292565 -0.236766
-0.004037 0.678236 -0.236766
-0.6341 -0.526778 -0.254083
-0.137295 -0.434825 -0.254083
0.573246 -0.498515 -0.236766
0.250164 -0.295084 -0.254083
0.612124 0.333683 -0.254083
0.014862 0.257028 -0.254083
-0.03928 -0.476672 -0.254083
-0.526653 0.659701 -0.254083
-0.421808 -0.099936 -0.254083
0.306461 -0.089369 -0.254083
-0.178572 0.144642 -0.254083
0.202137 0.437157 -0.236766
0.238439 -0.564053 -0.254083
0.250564 0.407943 -0.254083
-0.391351 0.403923 -0.254083
0.572937 -0.080365 -0.236766
0.414174 -0.172099 -0.254083
0.137909 -0.59282 -0.254083
0.169496 -0.463774 -0.254083
0.550564 0.532428 -0.236766
-0.263862 0.503995 -0.254083
-0.514715 0.215933 -0.254083
-0.270488 -0.242234 -0.254083
0.051699 0.157657 -0.236766
0.313551 0.595243 -0.236766
-0.397815 0.05623 -0.236766
0.325222 -0.122182 -0.236766
-0.251912 0.659363 -0.236766
-0.628773 0.316308 -0.254083
0.43956 -0.397539 -0.236766
-0.423375 -0.2401 -0.254083
-0.174219 0.662565 -0.254083
-0.471021 0.587149 -0.254083
-0.306469 0.530917 -0.236766
0.206509 -0.390287 -0.254083
-0.384978 -0.608048 -0.254083
-0.562958 0.34758 -0.236766
0.604375 -0.140016 -0.236766
-0.279773 -0.421963 -0.254083
0.07176 0.070561 -0.254083
0.569159 -0.626408 -0.236766
-0.132024 0.422419 -0.236766
-0.280508 0.117098 -0.236766
-0.331599 0.608615 -0.236766
0.224251 -0.323029 -0.236766
-0.464653 -0.504084 -0.236766
0.496209 0.015823 -0.236766
0.023591 0.041951 -0.236766
-0.412122 0.543264 -0.236766
0.477403 -0.056229 -0.236766
-0.482544 0.396286 -0.254083
-0.549442 0.499019 -0.236766
0.388433 0.526892 -0.236766
0.053153 0.271169 -0.254083
-0.161323 0.53894 -0.236766
-0.174801 0.414831 -0.236766
-0.162909 -0.124058 -0.254083
0.621453 0.06201 -0.236766
0.536253 -0.386745 -0.236766
0.01755 0.419262 -0.254083
0.079837 -0.426572 -0.254083
-0.186726 -0.603182 -0.254083
0.040688 -0.104111 -0.236766
0.119555 0.584844 -0.236766
-0.524814 0.28158 -0.236766
-0.140467 -0.012451 -0.236766
0.547464 0.353084 -0.236766
0.130805 -0.328934 -0.236766
0.346152 0.264557 -0.236766
0.118795 0.536848 -0.254083
0.595493 0.609115 -0.236766
0.338675 0.3503 -0.236766
-0.575832 -0.613337 -0.254083
-0.543647 -0.161146 -0.254083
-0.405435 0.47252 -0.254083
0.336107 0.649951 -0.236766
-0.1755 -0.204844 -0.254083
-0.177464 0.34612 -0.254083
0.486441 0.631999 -0.236766
-0.228415 -0.467014 -0.236766
0.168893 -0.31134 -0.254083
0.422951 0.238741 -0.236766
0.048915 0.430779 -0.254083
0.491494 0.579103 -0.254083
-0.25291 -0.147598 -0.254083
-0.07576 0.438782 -0.254083
-0.266334 0.283484 -0.254083
0.33023 -0.515113 -0.236766
-0.24972 -0.35494 -0.254083
0.499558 0.259525 -0.254083
0.539937 -0.570268 -0.236766
-0.364325 0.629527 -0.236766
-0.440278 0.013842 -0.254083
0.003753 0.308302 -0.254083
0.379002 -0.394222 -0.254083
0.066613 -0.544773 -0.254083
0.230956 0.495277 -0.254083
0.227777 0.037617 -0.254083
0.447152 -0.260957 -0.236766
-0.316131 0.274687 -0.254083
-0.282657 -0.272589 -0.236766
-0.438893 0.173467 -0.254083
-0.391114 -0.433078 -0.236766
-0.153518 -0.494649 -0.236766
-0.11556 -0.484794 -0.254083
-0.484368 0.19479 -0.254083
0.279816 -0.409729 -0.236766
-0.031773 -0.199846 -0.236766
0.353518 0.465099 -0.236766
0.328695 -0.314622 -0.236766
0.648671 0.460477 -0.254083
0.277919 0.142869 -0.236766
0.037285 0.310499 -0.254083
0.564874 -0.253968 -0.236766
0.268508 -0.246187 -0.236766
0.189567 -0.073336 -0.236766
0.373607 0.052641 -0.236766
-0.483589 -0.479295 -0.236766
0.431196 0.047157 -0.254083
-0.61138 -0.106082 -0.236766
0.63126 -0.187462 -0.236766
-0.291249 -0.513269 -0.254083
-0.047134 0.161872 -0.236766
0.35742 0.672502 -0.254083
0.286815 -0.279666 -0.236766
-0.335862 0.524668 -0.254083
-0.145101 0.278797 -0.236766
-0.568628 -0.031751 -0.236766
0.500848 0.138264 -0.236766
-0.589293 0.680604 -0.254083
0.055413 0.214336 -0.254083
0.074146 0.508383 -0.236766
0.333422 0.207433 -0.254083
0.557979 -0.480964 -0.254083
-0.344283 -0.517756 -0.254083
0.146408 -0.517392 -0.236766
-0.396654 -0.629465 -0.236766
-0.389173 0.077802 -0.254083
-0.250063 -0.051555 -0.236766
0.48229 -0.256559 -0.236766
0.411239 -0.012776 -0.254083
-0.020058 0.020441 -0.236766
-0.48675 -0.079553 -0.236766
-0.60289 0.266624 -0.236766
-0.071323 0.073519 -0.254083
0.249563 -0.043486 -0.254083
-0.454416 -0.240645 -0.254083
-0.229038 -0.328333 -0.236766
0.438399 0.578754 -0.254083
0.067231 -0.205088 -0.236766
0.621525 0.108874 -0.254083
0.372962 0.182238 -0.254083
-0.44094 -0.147838 -0.236766
0.580065 0.033639 -0.254083
-0.495101 -0.507624 -0.254083
-0.060604 -0.525328 -0.254083
0.036457 -0.532321 -0.254083
0.047348 0.532163 -0.254083
-0.09191 -0.525012 -0.254083
0.55382 0.231606 -0.236766
-0.456696 -0.268812 -0.236766
0.563351 0.456208 -0.254083
-0.142892 0.033664 -0.254083
-0.473071 0.3441 -0.254083
0.22576 0.315383 -0.254083
-0.161282 -0.021436 -0.254083
-0.289661 -0.365163 -0.236766
0.363097 0.615875 -0.254083
-0.270122 -0.612609 -0.254083
-0.488276 0.543578 -0.254083
0.12724 0.217173 -0.254083
-0.507438 0.190619 -0.236766
-0.150247 0.582642 -0.236766
-0.329354 -0.170753 -0.254083
0.387557 -0.209231 -0.236766
-0.441352 0.656158 -0.236766
0.651849 -0.085554 -0.236766
0.163605 -0.57029 -0.254083
0.091933 -0.232491 -0.254083
-0.007994 0.471237 -0.254083
0.256509 0.498821 -0.236766
0.410313 0.132085 -0.236766
0.570087 -0.033628 -0.236766
0.592808 -0.44334 -0.254083
-0.126899 -0.600252 -0.236766
-0.181193 -0.444233 -0.236766
-0.448631 0.567269 -0.236766
0.032948 0.378943 -0.254083
0.48507 -0.077229 -0.254083
-0.358209 0.296962 -0.254083
-0.286702 0.330452 -0.254083
-0.573493 0.553607 -0.236766
-0.137312 0.529053 -0.254083
-0.285872 0.640567 -0.236766
0.401155 0.183868 -0.254083
-0.393541 0.446918 -0.254083
0.193053 0.546133 -0.254083
0.015405 -0.177077 -0.254083
0.216908 -0.184326 -0.254083
0.569734 -0.113568 -0.236766
0.184981 0.61701 -0.236766
-0.288764 0.38152 -0.254083
0.523186 0.119559 -0.254083
-0.167399 0.223144 -0.236766
-0.565389 -0.457162 -0.236766
-0.33801 0.337585 -0.236766
-0.124122 0.553361 -0.236766
-0.431957 0.336343 -0.254083
0.472671 -0.309223 -0.254083
-0.519536 -0.121386 -0.254083
-0.47336 -0.126979 -0.236766
-0.162031 0.485263 -0.236766
-0.241937 -0.538846 -0.254083
0.571016 -0.54782 -0.236766
0.416385 0.51561 -0.236766
-0.391593 -0.006401 -0.254083
-0.139771 0.15808 -0.236766
0.10022 0.065491 -0.254083
0.548784 0.078084 -0.236766
-0.222204 0.00832 -0.254083
-0.112847 -0.559014 -0.236766
-0.233287 0.24346 -0.254083
0.268656 -0.483366 -0.236766
-0.093776 -0.34306 -0.254083
-0.529015 0.575817 -0.254083
-0.395921 0.637766 -0.236766
-0.534365 0.310436 -0.236766
0.007222 0.541996 -0.254083
0.12207 -0.543221 -0.236766
0.54789 -0.224833 -0.254083
-0.045138 -0.340784 -0.236766
0.239922 -0.516555 -0.236766
0.554259 0.48005 -0.236766
-0.08769 -0.188642 -0.236766
0.177097 0.081573 -0.236766
0.577717 0.367401 -0.236766
0.317536 -0.196602 -0.254083
-0.552007 0.186156 -0.236766
-0.429337 0.381142 -0.254083
-0.127 -0.415055 -0.236766
-0.613634 -0.62596 -0.236766
0.167774 0.374099 -0.236766
0.292622 0.041506 -0.254083
-0.042018 -0.601623 -0.236766
0.399108 -0.341572 -0.254083
-0.217079 -0.515469 -0.236766
-0.57463 -0.212518 -0.254083
-0.564631 -0.385266 -0.254083
-0.101789 0.58524 -0.254083
-0.184446 0.468256 -0.254083
0.367928 -0.462978 -0.236766
-0.600509 0.166965 -0.236766
0.023322 -0.268763 -0.236766
-0.519816 0.335906 -0.236766
0.333882 0.239024 -0.236766
-0.177324 -0.361511 -0.236766
0.490932 -0.569608 -0.236766
-0.390833 0.1498 -0.254083
0.137324 -0.017058 -0.254083
0.318833 0.383786 -0.254083
0.18666 0.413336 -0.236766
-0.285161 -0.123774 -0.254083
-0.031254 0.040906 -0.254083
-0.429524 -0.0615 -0.254083
-0.511744 0.532567 -0.236766
-0.59622 -0.393667 -0.254083
-0.52024 -0.399498 -0.254083
0.400197 0.361275 -0.254083
0.243258 -0.402205 -0.254083
0.276072 0.384167 -0.254083
0.114106 -0.208283 -0.236766
0.064297 -0.29105 -0.254083
0.487177 0.333548 -0.236766
0.467302 0.35779 -0.236766
0.004146 0.371997 -0.254083
-0.209079 -0.171144 -0.236766
0.183434 -0.447641 -0.236766
-0.373156 -0.371336 -0.254083
-0.431974 0.490291 -0.236766
0.514371 0.38683 -0.254083
-0.033212 -0.119281 -0.236766
0.233089 0.568848 -0.254083
-0.465944 -0.583846 -0.254083
0.1649 -0.284212 -0.254083
0.630912 0.283557 -0.254083
0.414387 0.297509 -0.236766
-0.443403 -0.345867 -0.236766
-0.622036 0.030557 -0.254083
-0.379738 -0.451397 -0.254083
0.260228 -0.360082 -0.254083
-0.03626 -0.578243 -0.254083
0.41595 -0.303915 -0.254083
0.430287 -0.044613 -0.236766
-0.344231 -0.057128 -0.254083
-0.52655 0.069186 -0.254083
0.100798 -0.389334 -0.236766
0.20455 -0.550096 -0.254083
-0.581999 0.609756 -0.254083
0.506677 0.497342 -0.236766
-0.328604 -0.126379 -0.254083
0.516468 0.299658 -0.236766
-0.334776 0.047049 -0.236766
-0.500774 0.467015 -0.254083
0.035887 0.123561 -0.236766
0.204056 0.261127 -0.236766
-0.469027 -0.040457 -0.254083
0.373029 -0.024276 -0.236766
-0.21256 0.285916 -0.236766
0.046949 0.460403 -0.236766
-0.364521 -0.394047 -0.236766
0.37866 0.370557 -0.236766
-0.007804 0.414347 -0.236766
-0.447085 -0.376258 -0.236766
-0.287546 0.563035 -0.254083
0.424249 -0.586748 -0.254083
-0.379836 -0.167333 -0.236766
-0.375975 -0.498316 -0.254083
0.063984 -0.45758 -0.254083
-0.439488 -0.289612 -0.236766
0.5336 0.00109 -0.254083
-0.321919 -0.436848 -0.254083
0.365006 -0.537459 -0.236766
0.167384 -0.371241 -0.254083
0.575913 0.595931 -0.254083
0.077124 0.637467 -0.254083
-0.08333 0.208646 -0.254083
0.521804 -0.503198 -0.254083
0.148896 -0.463169 -0.236766
0.601569 0.003767 -0.254083
0.368171 -0.591978 -0.236766
-0.227927 -0.086505 -0.254083
-0.364997 0.362123 -0.254083
-0.495365 0.081589 -0.236766
-0.141685 0.647539 -0.236766
0.029665 0.171079 -0.254083
0.46049 -0.608466 -0.254083
-0.316539 0.214744 -0.254083
0.37181 0.323244 -0.236766
0.536451 0.307298 -0.254083
0.651493 0.405914 -0.236766
0.433436 0.085795 -0.254083
-0.462781 0.280278 -0.236766
-0.086956 -0.378485 -0.254083
-0.018833 -0.476223 -0.236766
0.335256 0.073569 -0.236766
0.147998 -0.133012 -0.236766
-0.335062 -0.31518 -0.236766
-0.501842 0.507584 -0.254083
0.40761 0.252116 -0.254083
-0.59284 -0.115588 -0.254083
0.187201 0.47525 -0.236766
0.331844 0.50302 -0.254083
0.282242 0.439465 -0.236766
0.503459 -0.468122 -0.236766
-0.461353 -0.095021 -0.236766
0.303539 -0.428287 -0.236766
0.254932 -0.537508 -0.254083
-0.603916 0.59857 -0.236766
0.362389 -0.155248 -0.236766
0.011987 -0.119384 -0.236766
-0.068483 -0.028656 -0.236766
-0.161994 -0.147695 -0.236766
-0.005279 -0.065495 -0.254083
-0.429228 0.074561 -0.236766
-0.401631 -0.59653 -0.236766
0.269364 0.206824 -0.254083
-0.042808 0.081719 -0.254083
0.425875 0.356303 -0.236766
0.225245 -0.345121 -0.254083
0.160479 0.397006 -0.254083
0.185694 -0.591298 -0.254083
-0.384783 0.298869 -0.236766
-0.49158 0.244506 -0.254083
0.568139 0.389132 -0.254083
-0.323595 -0.264659 -0.236766
0.381846 0.462752 -0.254083
-0.496237 -0.14281 -0.236766
-0.187631 -0.421662 -0.254083
-0.517641 -0.327363 -0.254083
0.437618 0.622802 -0.236766
0.103743 -0.461742 -0.254083
0.384263 0.121118 -0.236766
-0.415175 -0.382639 -0.254083
0.040837 0.658362 -0.254083
-0.496491 -0.287979 -0.254083
-0.461841 0.638108 -0.236766
0.128707 0.27692 -0.254083
-0.575221 -0.489219 -0.254083
-0.330434 0.433619 -0.236766
-0.252127 0.384592 -0.254083
-0.219473 0.386752 -0.236766
-0.178303 -0.585195 -0.236766
0.243253 0.213052 -0.254083
-0.422596 0.12553 -0.254083
0.513874 -0.005324 -0.236766
0.483343 0.000751 -0.254083
0.551852 -0.614025 -0.254083
0.514932 0.544812 -0.236766
-0.563797 -0.257786 -0.236766
0.137799 0.047205 -0.254083
0.247692 0.434005 -0.254083
-0.253333 -0.399562 -0.254083
0.281362 0.571991 -0.254083
0.452118 0.062353 -0.236766
-0.609519 -0.517807 -0.254083
-0.192136 0.614319 -0.254083
0.57122 -0.417799 -0.254083
0.613024 -0.393409 -0.236766
0.379083 -0.124269 -0.236766
0.094622 0.42319 -0.254083
-0.075454 -0.087509 -0.236766
0.194621 -0.625408 -0.254083
0.603304 -0.363087 -0.236766
-0.079293 -0.454956 -0.254083
-0.10284 0.001915 -0.254083
0.196403 -0.418501 -0.236766
-0.056499 -0.359067 -0.254083
0.406263 -0.52592 -0.254083
0.648797 -0.565234 -0.254083
-0.238985 0.549005 -0.236766
0.639138 0.329515 -0.236766
0.61854 -0.126687 -0.254083
0.611404 0.286903 -0.236766
0.459886 -0.37669 -0.254083
-0.144287 -0.316122 -0.236766
-0.180927 -0.290126 -0.254083
0.231129 -0.004255 -0.236766
0.517791 0.41335 -0.236766
0.131887 -0.067511 -0.236766
-0.017657 0.600637 -0.254083
-0.20176 0.64641 -0.236766
0.588879 0.322061 -0.254083
0.582203 0.10583 -0.236766
-0.259856 0.458702 -0.254083
-0.506929 -0.422523 -0.254083
0.259145 -0.579734 -0.254083
-0.461479 0.499172 -0.236766
0.176914 0.039431 -0.254083
0.409354 -0.602642 -0.236766
-0.200844 -0.480004 -0.236766
0.597956 -0.068645 -0.254083
0.632528 -0.545927 -0.236766
-0.49994 -0.533091 -0.254083
-0.28748 0.423072 -0.254083
0.163887 0.531549 -0.254083
-0.602101 -0.596136 -0.254083
-0.408543 0.169257 -0.254083
0.392791 -0.427765 -0.254083
0.146372 0.330102 -0.236766
-0.329762 0.589508 -0.254083
-0.411301 -0.469376 -0.236766
0.496377 -0.550604 -0.254083
-0.550809 -0.093339 -0.236766
-0.134321 -0.104375 -0.236766
-0.129421 0.00379 -0.254083
-0.306187 -0.626372 -0.236766
-0.063512 -0.117659 -0.236766
-0.064241 -0.626002 -0.236766
0.237694 -0.216197 -0.254083
-0.354299 -0.583206 -0.254083
0.010968 -0.138688 -0.254083
-0.431339 -0.41987 -0.236766
-0.606095 -0.572331 -0.236766
-0.327275 0.259261 -0.236766
0.216244 0.052717 -0.236766
-0.353831 -0.172526 -0.236766
0.276349 -0.428394 -0.254083
0.399745 -0.377711 -0.254083
-0.086029 0.53224 -0.236766
0.101829 0.504564 -0.254083
0.049371 -0.514611 -0.236766
0.021567 -0.222601 -0.254083
0.405682 0.421453 -0.254083
0.370688 0.235457 -0.236766
0.044891 0.605856 -0.254083
0.367827 -0.049362 -0.236766
0.347135 -0.332401 -0.236766
-0.272729 -0.454999 -0.254083
0.173748 0.331085 -0.254083
-0.10112 0.068 -0.254083
-0.136782 0.374955 -0.254083
-0.5218 -0.036203 -0.254083
0.060801 -0.035102 -0.236766
-0.501527 -0.240645 -0.236766
0.475287 -0.22084 -0.254083
0.57694 0.202062 -0.254083
0.467375 -0.578738 -0.254083
-0.511596 0.363106 -0.254083
-0.348692 -0.207748 -0.254083
-0.031009 0.561429 -0.236766
0.386165 0.072499 -0.254083
0.437808 0.395165 -0.236766
0.25218 -0.120492 -0.254083
-0.547633 -0.403691 -0.236766
-0.533943 0.126162 -0.254083
-0.492311 0.305665 -0.236766
