-0.110196 -0.071324 -0.559975
0.308632 -0.096767 -0.559975
0.296523 0.226934 -0.541592
-0.402147 0.67222 -0.559975
0.182168 -0.035147 -0.541592
-0.15574 0.18701 -0.541592
0.194348 -0.199085 -0.559975
0.153758 0.618735 -0.559975
0.026768 0.668941 -0.559975
0.269445 -0.178935 -0.541592
-0.014548 0.284973 -0.559975
-0.09591 0.593527 -0.559975
0.325516 0.487093 -0.559975
0.030718 -0.113032 -0.541592
0.292364 -0.013424 -0.559975
-0.028812 -0.153741 -0.541592
0.019221 0.343828 -0.541592
-0.027957 -0.445665 -0.559975
-0.136561 0.158602 -0.559975
0.154269 -0.103168 -0.559975
0.096177 -0.068989 -0.541592
0.338967 0.068865 -0.559975
-0.17999 0.593784 -0.559975
0.024241 0.397969 -0.559975
-0.110329 -0.36599 -0.559975
-0.331996 0.704614 -0.558201
0.262435 -0.066205 -0.559975
0.318624 0.295735 -0.559975
-0.001581 -0.297164 -0.559975
-0.237083 -0.108252 -0.541592
-0.407617 -0.227128 -0.559975
0.165104 -0.398698 -0.541592
-0.149161 0.371492 -0.541592
-0.17488 -0.012025 -0.559975
0.061718 0.419149 -0.559975
0.145493 0.078054 -0.559975
-0.280665 0.105211 -0.559975
0.362456 0.614941 -0.541592
-0.351565 0.13906 -0.559975
-0.20796 -0.33805 -0.541592
0.228923 0.240692 -0.541592
0.206387 0.517273 -0.559975
-0.260085 0.201343 -0.559975
-0.221382 -0.016386 -0.541592
0.3275 0.161825 -0.541592
-0.171037 -0.397522 -0.541592
-0.025412 0.548676 -0.559975
-0.407519 0.024185 -0.559975
-0.028587 0.346973 -0.559975
-0.388022 0.434125 -0.559975
0.165297 0.574699 -0.559975
0.038441 0.175465 -0.559975
-0.242848 0.584471 -0.541592
-0.086241 -0.424275 -0.559975
0.092384 0.579034 -0.559975
0.243712 -0.269222 -0.541592
0.187283 0.131458 -0.541592
0.025951 -0.403488 -0.559975
-0.346781 -0.405869 -0.559975
-0.254433 -0.415574 -0.559975
-0.329711 0.275609 -0.541592
-0.270701 -0.133145 -0.541592
0.252589 0.617005 -0.541592
0.061847 -0.053417 -0.559975
0.317601 0.418697 -0.559975
0.119322 -0.22395 -0.541592
-0.350596 -0.339891 -0.541592
-0.014366 0.607126 -0.559975
-0.390685 -0.373488 -0.559975
-0.239057 -0.188519 -0.541592
-0.234571 0.018266 -0.559975
-0.327805 -0.21249 -0.559975
-0.403451 0.353505 -0.559975
-0.147795 0.534705 -0.559975
0.148263 0.13067 -0.541592
-0.033866 -0.348038 -0.541592
-0.30315 0.311054 -0.541592
-0.13073 0.635005 -0.559975
0.372018 -0.341387 -0.541592
-0.325692 0.433674 -0.541592
-0.185419 -0.215309 -0.541592
-0.37722 0.465822 -0.541592
-0.283757 -0.300818 -0.559975
0.368404 0.570545 -0.559975
0.067313 -0.363684 -0.559975
0.131002 0.434662 -0.559975
0.301327 -0.223888 -0.559975
0.0022 0.019391 -0.541592
0.102928 0.398895 -0.559975
-0.298789 0.466486 -0.541592
-0.242861 0.618016 -0.559975
-0.186425 0.338674 -0.541592
0.037431 -0.332971 -0.541592
0.01815 0.567641 -0.559975
0.34036 0.321813 -0.559975
0.064808 0.352898 -0.559975
0.372086 0.676716 -0.559975
0.221854 -0.300483 -0.559975
-0.193079 0.375902 -0.559975
-0.192965 0.672375 -0.541592
-0.130096 0.437832 -0.559975
0.185541 0.179643 -0.541592
-0.04848 -0.027752 -0.541592
0.188996 -0.348668 -0.541592
-0.134768 0.311503 -0.541592
0.274174 0.505479 -0.559975
-0.332708 0.201219 -0.559975
0.283328 -0.271009 -0.541592
-0.096066 -0.254695 -0.541592
-0.311913 -0.103293 -0.541592
-0.008721 -0.038694 -0.559975
0.24648 0.326269 -0.559975
-0.158221 -0.316169 -0.541592
-0.040679 0.696568 -0.541592
-0.273023 0.326242 -0.559975
0.370803 0.16197 -0.541592
0.269709 0.112082 -0.559975
0.125315 0.639844 -0.559975
0.169295 0.464851 -0.541592
0.285349 0.686541 -0.559975
-0.206843 0.039065 -0.559975
-0.261171 0.018064 -0.541592
0.093131 0.673777 -0.559975
0.217459 -0.142194 -0.559975
0.330545 -0.354738 -0.559975
0.338889 0.25701 -0.541592
-0.0952 0.676708 -0.559975
0.140295 0.271719 -0.559975
-0.316104 0.570059 -0.541592
-0.051624 0.324395 -0.541592
0.129329 0.02913 -0.559975
-0.290935 0.034112 -0.541592
-0.026998 0.192288 -0.559975
-0.148646 0.457039 -0.541592
-0.359181 0.301387 -0.559975
0.317879 -0.39105 -0.559975
-0.084478 0.279472 -0.559975
0.202804 0.435987 -0.541592
0.132659 0.524733 -0.559975
0.341535 0.673629 -0.541592
0.389014 0.204336 -0.559975
-0.103342 -0.329635 -0.541592
0.206847 0.552322 -0.541592
0.175816 0.345502 -0.559975
-0.37291 0.047487 -0.541592
0.108787 -0.016622 -0.541592
0.107348 -0.426723 -0.559975
0.293835 0.088431 -0.559975
-0.077022 0.340526 -0.559975
0.095639 0.323106 -0.541592
0.204505 -0.077082 -0.559975
0.072832 -0.016012 -0.541592
-0.349038 -0.00857 -0.541592
-0.038344 -0.402754 -0.559975
-0.178747 -0.06918 -0.541592
-0.110074 0.222499 -0.559975
0.264017 -0.14807 -0.541592
-0.320709 -0.174509 -0.541592
0.066068 0.19262 -0.559975
-0.262695 0.262974 -0.541592
-0.182451 0.49664 -0.559975
-0.125427 -0.007835 -0.541592
-0.078117 0.42653 -0.559975
-0.385058 0.541826 -0.541592
0.232253 -0.240241 -0.541592
-0.409974 0.116318 -0.559975
-0.326697 0.45877 -0.559975
-0.21123 0.520636 -0.559975
0.158944 0.52117 -0.541592
-0.126035 -0.127477 -0.559975
-0.412788 -0.067675 -0.559975
-0.182821 0.237093 -0.541592
0.184408 0.080563 -0.559975
-0.409207 -0.010331 -0.559975
0.237129 0.366144 -0.541592
0.395528 -0.151792 -0.559975
0.195429 0.003441 -0.559975
0.354097 -0.150692 -0.559975
-0.198065 0.142403 -0.559975
0.25874 -0.009658 -0.559975
-0.178519 0.439518 -0.541592
0.295297 0.568123 -0.541592
-0.376939 0.40735 -0.541592
0.212658 0.464933 -0.541592
-0.367537 0.610982 -0.541592
-0.280256 -0.03386 -0.559975
0.103553 0.515611 -0.559975
-0.135302 -0.08854 -0.559975
0.039929 0.083785 -0.559975
0.010154 0.157797 -0.559975
-0.213519 0.400963 -0.541592
0.271537 0.437306 -0.541592
0.023306 -0.079758 -0.541592
-0.297647 0.632061 -0.559975
-0.361587 -0.15326 -0.541592
-0.036796 0.129731 -0.559975
0.355727 -0.212525 -0.559975
0.243441 0.026153 -0.559975
0.245556 -0.310074 -0.541592
-0.295981 -0.079534 -0.559975
0.055292 -0.396119 -0.559975
-0.31462 0.506162 -0.559975
-0.061043 0.033336 -0.541592
-0.301979 0.258134 -0.559975
-0.261564 0.303199 -0.541592
0.318284 0.349955 -0.541592
-0.349755 -0.189713 -0.541592
-0.231859 0.459968 -0.541592
-0.102409 0.397906 -0.559975
-0.002361 -0.320939 -0.541592
-0.234397 0.257669 -0.559975
0.27979 0.258686 -0.559975
0.146369 0.337369 -0.541592
0.066228 0.126405 -0.541592
0.004529 0.362125 -0.559975
0.010641 0.297606 -0.541592
0.08484 0.254276 -0.541592
0.008583 -0.134888 -0.541592
-0.132123 -0.171856 -0.559975
-0.387189 0.08366 -0.541592
0.293689 0.634014 -0.541592
-0.325927 -0.384955 -0.559975
0.222345 0.083106 -0.541592
-0.384645 -0.229384 -0.541592
-0.411855 -0.309384 -0.559975
-0.373993 0.245254 -0.559975
-0.323828 0.681755 -0.541592
-0.146554 0.558629 -0.541592
0.20973 0.403113 -0.541592
0.014764 -0.3364 -0.559975
0.018135 -0.254567 -0.559975
-0.243988 0.06683 -0.541592
-0.125215 -0.269091 -0.541592
-0.176468 0.089394 -0.541592
-0.010352 0.486088 -0.541592
-0.232204 -0.282505 -0.541592
-0.219985 -0.415866 -0.541592
0.036903 -0.445417 -0.559975
-0.075317 0.162593 -0.541592
-0.27587 0.528387 -0.541592
0.279262 -0.445825 -0.541592
0.299578 0.605576 -0.541592
0.216987 -0.217205 -0.559975
-0.028847 -0.423301 -0.541592
-0.304282 -0.219267 -0.541592
0.196931 0.246126 -0.559975
0.217998 0.607978 -0.559975
0.165741 0.680421 -0.559975
0.125936 0.587261 -0.559975
0.39278 0.043637 -0.559975
-0.133792 0.206027 -0.559975
0.145023 0.492362 -0.559975
-0.225138 0.322785 -0.559975
-0.393016 -0.287396 -0.541592
0.060602 -0.206678 -0.559975
0.2068 0.338435 -0.559975
-0.051007 -0.304035 -0.541592
0.353632 -0.101131 -0.541592
-0.319356 0.295025 -0.559975
0.298164 -0.116035 -0.541592
-0.330163 0.035814 -0.559975
0.053747 0.614643 -0.541592
-0.152569 -0.107823 -0.541592
-0.243111 0.152049 -0.541592
-0.215048 -0.061633 -0.541592
0.369046 0.309081 -0.559975
-0.028937 -0.056344 -0.541592
-0.352141 0.34022 -0.541592
0.145754 -0.186211 -0.559975
-0.318511 -0.010014 -0.541592
0.343056 0.02303 -0.541592
0.011767 0.044832 -0.559975
0.332661 0.183886 -0.559975
-0.211185 0.551365 -0.559975
0.063942 0.484654 -0.541592
-0.357145 0.589732 -0.559975
-0.079316 0.700112 -0.559975
-0.225523 0.63071 -0.541592
0.358749 0.370437 -0.541592
0.160107 0.234781 -0.559975
-0.131138 -0.29202 -0.559975
-0.160793 0.412383 -0.541592
-0.049967 0.251427 -0.559975
-0.005551 -0.11882 -0.559975
-0.08056 -0.362406 -0.559975
0.283883 0.1663 -0.559975
-0.285342 0.0811 -0.541592
0.10702 0.103284 -0.559975
-0.10505 0.524554 -0.541592
0.107328 -0.386998 -0.559975
-0.084095 0.039542 -0.559975
0.078542 0.012984 -0.541592
0.262333 0.131962 -0.541592
0.31474 0.536695 -0.541592
0.046031 0.278518 -0.541592
-0.227655 0.097431 -0.541592
-0.033561 0.434742 -0.541592
-0.159655 -0.337195 -0.559975
-0.187838 0.532884 -0.541592
-0.129899 0.106849 -0.559975
-0.202726 0.430058 -0.559975
0.372876 -0.308559 -0.559975
0.066422 -0.152606 -0.541592
-0.01629 -0.272467 -0.559975
0.032753 0.010688 -0.541592
0.206459 0.042411 -0.541592
-0.133388 0.339816 -0.541592
-0.280895 -0.419048 -0.541592
-0.190695 -0.181668 -0.541592
-0.285596 0.241019 -0.541592
0.046845 0.14909 -0.559975
0.118724 -0.328536 -0.541592
-0.084365 -0.163372 -0.559975
0.210503 0.294947 -0.541592
-0.251558 0.397602 -0.541592
0.044961 -0.024888 -0.541592
-0.065752 0.553074 -0.541592
-0.255086 0.486313 -0.541592
-0.384566 0.105171 -0.559975
0.288995 -0.339975 -0.541592
0.352589 0.45929 -0.541592
0.205888 0.495896 -0.541592
0.28517 0.034313 -0.541592
-0.082554 -0.069923 -0.541592
-0.155761 -0.367112 -0.559975
0.314715 0.145137 -0.559975
-0.27237 0.567339 -0.559975
-0.307622 -0.303321 -0.541592
0.333678 0.049423 -0.541592
-0.269672 0.044108 -0.559975
-0.412169 0.08475 -0.559975
0.068314 0.400244 -0.541592
0.083826 -0.440256 -0.559975
0.064863 -0.29464 -0.559975
-0.207536 0.283829 -0.541592
0.176425 -0.438183 -0.559975
0.250732 -0.217121 -0.559975
0.250536 0.192794 -0.541592
0.189087 -0.411309 -0.541592
0.01487 0.599059 -0.559975
0.260573 0.490961 -0.541592
-0.251422 0.434011 -0.559975
-0.326496 0.13564 -0.541592
0.143502 -0.228758 -0.559975
0.303341 -0.311623 -0.541592
0.371071 -0.171704 -0.559975
-0.082758 0.363151 -0.541592
-0.010211 -0.092169 -0.541592
0.152811 0.052096 -0.559975
-0.15596 0.116965 -0.541592
-0.026981 0.313515 -0.541592
0.143494 0.543172 -0.541592
-0.044281 0.405613 -0.541592
0.025376 0.206759 -0.559975
0.035287 0.362956 -0.559975
0.134587 -0.077239 -0.541592
-0.061547 0.188218 -0.541592
0.225051 0.668978 -0.559975
0.170217 -0.004998 -0.541592
-0.132077 -0.22769 -0.541592
-0.362685 -0.214157 -0.541592
0.214168 0.138938 -0.559975
0.24639 0.642553 -0.559975
0.337408 -0.268822 -0.559975
0.027795 0.137729 -0.541592
-0.145019 -0.203615 -0.559975
0.122543 0.223812 -0.541592
-0.226209 0.142952 -0.559975
0.196061 0.582756 -0.541592
-0.249304 0.529319 -0.541592
0.251717 0.227147 -0.541592
-0.13134 0.036345 -0.541592
0.119833 0.052485 -0.541592
0.284061 0.379886 -0.541592
-0.012307 -0.38614 0.336568
-0.062725 -0.38614 -0.120651
-0.198452 -0.38614 0.132759
-0.21946 -0.38614 -0.385262
0.193212 -0.38614 -0.17329
0.031755 -0.38614 -0.341307
0.273861 -0.38614 -0.420025
-0.236033 -0.38614 0.323409
-0.385105 -0.38614 0.187946
-0.080312 -0.38614 -0.481277
0.341357 -0.38614 0.224276
0.170393 -0.38614 -0.321346
-0.311995 -0.38614 -0.271078
0.251701 -0.38614 0.108349
0.200476 -0.38614 0.410221
-0.098887 -0.38614 -0.321947
0.118169 -0.38614 -0.440971
0.085802 -0.38614 -0.229406
-0.190376 -0.38614 -0.123895
0.346397 -0.38614 -0.275599
0.166285 -0.38614 0.200722
0.047938 -0.38614 0.006871
-0.289723 -0.38614 -0.483968
0.366369 -0.38614 0.088504
0.028312 -0.38614 -0.478386
-0.191789 -0.38614 -0.495012
-0.095692 -0.38614 -0.227694
0.0269 -0.38614 0.473731
-0.354464 -0.38614 0.280524
-0.341137 -0.38614 -0.365554
-0.362514 -0.38614 -0.197253
-0.228104 -0.38614 -0.214208
0.243628 -0.38614 -0.271215
0.142582 -0.38614 0.316826
0.186994 -0.38614 0.038996
-0.325808 -0.38614 0.537837
-0.176685 -0.38614 -0.281505
-0.103473 -0.38614 0.295167
0.167354 -0.38614 -0.506875
0.138939 -0.38614 0.507391
-0.040368 -0.38614 0.236696
-0.182378 -0.38614 0.051519
-0.121182 -0.38614 -0.411919
-0.205874 -0.38614 0.430276
0.090101 -0.38614 -0.131657
-0.020093 -0.38614 -0.27229
0.081692 -0.38614 0.271416
-0.371828 -0.38614 -0.008612
0.231198 -0.38614 0.331062
-0.369706 -0.38614 -0.440535
-0.30493 -0.38614 0.358523
0.344399 -0.38614 -0.493707
0.223881 -0.38614 0.481923
0.364686 -0.38614 0.496485
0.292757 -0.38614 0.1709
0.327499 -0.38614 0.301271
0.132961 -0.38614 0.434721
0.37048 -0.38614 -0.369395
-0.04139 -0.38614 -0.364136
-0.245116 -0.38614 -0.299687
-0.148187 -0.38614 -0.179049
-0.375008 -0.38614 0.450427
-0.394421 -0.38614 0.535483
0.348927 -0.38614 -0.148444
0.097826 -0.38614 0.201338
0.274202 -0.38614 -0.352024
-0.193318 -0.38614 -0.054566
-0.122864 -0.38614 0.083959
0.103002 -0.38614 -0.322311
0.006128 -0.38614 -0.411647
0.113377 -0.38614 0.02003
-0.025859 -0.38614 -0.206689
0.057016 -0.38614 0.071962
-0.06488 -0.38614 0.375715
0.091609 -0.38614 -0.500241
-0.379293 -0.38614 -0.075794
0.146061 -0.38614 -0.380374
0.359872 -0.38614 0.162624
-0.366892 -0.38614 0.365849
0.161329 -0.38614 -0.230762
0.033477 -0.38614 0.218854
-0.230465 -0.38614 -0.447465
0.252637 -0.38614 0.044942
0.021873 -0.38614 0.281676
-0.317936 -0.38614 -0.086761
0.285465 -0.38614 -0.481616
0.210891 -0.38614 -0.365775
-0.347926 -0.38614 -0.497508
0.252828 -0.38614 -0.207551
0.177846 -0.38614 0.268787
-0.169465 -0.38614 0.314707
-0.258092 -0.38614 0.402917
-0.298651 -0.38614 -0.405517
0.085036 -0.38614 0.477519
0.224618 -0.38614 -0.122565
0.354992 -0.38614 0.352537
-0.295628 -0.38614 -0.215835
-0.261606 -0.38614 -0.14754
0.137379 -0.38614 0.373802
0.221298 -0.38614 0.215746
-0.065901 -0.38614 -0.426251
0.226837 -0.38614 -0.451837
0.137436 -0.38614 -0.162555
0.331656 -0.38614 0.40449
0.237498 -0.38614 0.275173
0.063032 -0.38614 -0.280325
-0.046631 -0.38614 0.294415
-0.009622 -0.38614 -0.130983
-0.293207 -0.38614 0.494977
-0.115497 -0.38614 -0.13646
0.020349 -0.38614 -0.179373
-0.166678 -0.38614 0.000368
-0.178926 -0.38614 -0.350357
0.392114 -0.38614 0.264993
-0.352158 -0.38614 -0.313298
-0.164222 -0.38614 -0.449381
0.393417 -0.38614 -0.186299
0.319981 -0.38614 -0.382873
-0.203398 -0.38614 0.363866
0.090285 -0.38614 -0.372461
-0.109288 -0.38614 0.516684
0.124497 -0.38614 -0.266549
0.240327 -0.38614 -0.513898
0.065089 -0.38614 -0.442806
0.327589 -0.38614 -0.322531
0.294021 -0.38614 0.49841
-0.014005 -0.38614 0.159351
-0.388863 -0.38614 -0.352106
-0.14339 -0.38614 -0.245016
-0.090032 -0.38614 0.226088
0.191779 -0.38614 -0.277165
-0.124396 -0.38614 -0.502699
-0.399202 -0.38614 -0.525389
0.316358 -0.38614 -0.444455
0.321386 -0.38614 -0.226567
0.238711 -0.38614 0.171085
-0.106891 -0.38614 0.344118
0.015174 -0.38614 -0.240833
-0.366802 -0.38614 0.134685
0.051398 -0.38614 -0.525016
-0.359418 -0.38614 0.498716
0.371325 -0.38614 -0.415815
-0.217087 -0.38614 -0.161862
-0.327805 -0.38614 -0.166518
0.171406 -0.38614 0.474327
0.360538 -0.38614 0.043085
0.364259 -0.38614 0.450754
-0.344463 -0.38614 0.208785
0.184563 -0.38614 -0.404909
-0.00897 -0.38614 -0.316095
0.350204 -0.38614 -0.094691
0.084697 -0.38614 0.155605
0.334018 -0.38614 0.127161
-0.047734 -0.38614 0.188679
-0.080116 -0.38614 -0.268471
-0.410466 -0.38614 0.027739
-0.221893 -0.38614 -0.263492
0.073752 -0.38614 0.519012
-0.140888 -0.38614 -0.035376
0.00956 -0.38614 -0.518054
-0.24631 -0.38614 -0.044801
-0.148349 -0.38614 -0.321393
-0.148698 -0.38614 -0.379244
-0.034651 -0.38614 -0.164033
-0.300434 -0.38614 -0.346633
0.353153 -0.38614 -0.195398
0.292525 -0.38614 0.055252
-0.136763 -0.38614 -0.101263
-0.35694 -0.38614 0.321361
0.386717 -0.38614 -0.001119
-0.404684 -0.38614 0.326354
-0.040146 -0.38614 -0.457983
0.114528 -0.38614 -0.0995
-0.397787 -0.38614 0.393417
-0.307978 -0.38614 -0.126522
0.064508 -0.38614 -0.195348
0.186902 -0.38614 -0.453659
-0.329773 -0.38614 -0.440334
-0.000137 -0.38614 0.196799
-0.349481 -0.38614 -0.257483
0.220082 -0.38614 0.522329
0.20951 -0.38614 -0.487691
-0.066062 -0.38614 -0.518372
-0.056019 -0.38614 -0.327201
-0.403711 -0.38614 -0.297742
0.024778 -0.38614 0.101625
0.291209 -0.38614 -0.280463
-0.231284 -0.38614 -0.494296
0.091483 -0.38614 0.052907
-0.315311 -0.38614 0.276944
-0.259202 -0.38614 0.537948
0.017568 -0.38614 -0.282635
0.031299 -0.38614 0.042191
-0.397574 -0.38614 0.224899
0.239714 -0.38614 -0.158469
-0.169302 -0.38614 0.088191
0.105451 -0.38614 -0.184591
0.293892 -0.38614 -0.529621
-0.273814 -0.38614 -0.268298
0.2974 -0.38614 -0.181132
0.202831 -0.38614 0.305768
0.233567 -0.38614 -0.399641
-0.189493 -0.38614 -0.421315
-0.342709 -0.38614 0.171117
0.212981 -0.38614 0.37477
-0.17266 -0.38614 -0.221951
-0.265682 -0.38614 -0.33346
0.170802 -0.38614 0.357935
0.223682 -0.38614 0.067934
-0.388329 -0.38614 0.104735
-0.140501 -0.38614 0.032736
-0.056682 -0.38614 -0.226628
0.256613 -0.38614 0.509177
0.349104 -0.38614 0.260095
0.216567 -0.38614 -0.201431
0.00482 -0.38614 -0.365607
-0.265727 -0.38614 -0.439973
-0.151067 -0.38614 -0.142168
0.151678 -0.38614 0.244043
-0.169592 -0.38614 0.395745
-0.405909 -0.38614 -0.164064
0.384979 -0.38614 -0.45706
0.056565 -0.38614 -0.383941
0.050082 -0.38614 -0.030937
0.286664 -0.38614 0.113825
-0.007304 -0.38614 -0.47102
-0.056226 -0.38614 0.341515
0.109602 -0.38614 0.526921
0.122246 -0.38614 -0.482899
0.166235 -0.38614 0.402491
0.059094 -0.38614 -0.319365
0.330444 -0.38614 -0.5258
-0.159937 -0.38614 -0.509506
-0.210419 -0.38614 0.299712
-0.10939 -0.38614 -0.19573
0.360197 -0.38614 -0.310637
-0.272359 -0.38614 0.347135
0.307109 -0.38614 0.273733
0.276242 -0.38614 -0.232497
0.309164 -0.38614 0.235766
-0.086176 -0.38614 0.26572
0.392693 -0.38614 0.344193
-0.057627 -0.38614 -0.189277
-0.388397 -0.38614 0.281578
-0.253217 -0.38614 -0.381987
-0.403156 -0.38614 -0.446126
-0.256336 -0.38614 -0.517147
-0.140778 -0.38614 0.343925
0.373418 -0.38614 0.234461
0.066748 -0.38614 -0.47784
-0.362244 -0.38614 -0.527569
-0.298895 -0.38614 -0.52695
0.146118 -0.38614 -0.459927
-0.184844 -0.38614 -0.169401
0.036207 -0.38614 0.520073
-0.407347 -0.38614 0.468109
-0.224817 -0.38614 -0.527988
0.369422 -0.38614 0.288686
0.260947 -0.38614 -0.450166
0.101124 -0.38614 0.442155
0.079594 -0.38614 -0.164785
-0.380506 -0.38614 -0.482739
-0.222675 -0.38614 -0.122806
-0.196112 -0.38614 -0.454509
-0.154693 -0.38614 0.130869
-0.015401 -0.38614 0.287171
0.065144 -0.38614 0.034751
0.095084 -0.38614 -0.278897
0.168194 -0.38614 -0.153589
-0.080168 -0.38614 0.31682
0.355305 -0.38614 0.317184
0.109707 -0.38614 0.287228
0.321814 -0.38614 0.156325
0.390548 -0.38614 0.38021
0.201912 -0.38614 -0.320402
0.141874 -0.38614 -0.307945
-0.382614 -0.38614 -0.221416
0.060706 -0.38614 -0.248295
-0.064365 -0.38614 -0.154013
-0.20915 -0.38614 -0.344106
0.315218 -0.38614 0.329564
0.133424 -0.38614 -0.196847
0.050679 -0.38614 0.271959
-0.107879 -0.38614 -0.25614
-0.141559 -0.38614 -0.208607
0.347137 -0.38614 0.521171
-0.333147 -0.38614 -0.20449
-0.208427 -0.38614 -0.190686
-0.134252 -0.38614 -0.451182
0.151146 -0.38614 0.282495
0.061438 -0.38614 0.208039
0.275522 -0.38614 0.141411
-0.31911 -0.38614 -0.479911
-0.147163 -0.38614 -0.284192
0.025544 -0.38614 -0.311126
-0.213784 -0.38614 0.107583
-0.344936 -0.38614 -0.465592
0.365573 -0.38614 0.117865
0.301237 -0.38614 -0.409619
0.388722 -0.38614 0.157658
0.293319 -0.38614 0.200147
-0.219684 -0.38614 -0.032851
-0.100482 -0.38614 -0.519388
-0.410272 -0.38614 0.501442
-0.214559 -0.38614 0.390565
0.322485 -0.38614 -0.195542
0.14249 -0.38614 0.00198
-0.27823 -0.38614 -0.239766
-0.351262 -0.38614 -0.228766
0.118244 -0.38614 -0.511387
-0.299384 -0.38614 -0.376769
0.112754 -0.38614 0.495741
-0.347514 -0.38614 0.252798
0.189116 -0.38614 -0.209025
0.116383 -0.38614 -0.143436
-0.325041 -0.38614 -0.321639
-0.043851 -0.38614 -0.251793
0.310398 -0.38614 -0.505972
-0.293851 -0.38614 -0.433092
0.276788 -0.38614 0.020757
-0.355139 -0.38614 -0.341498
-0.36194 -0.38614 0.393091
-0.105487 -0.38614 -0.34873
0.246734 -0.38614 0.301063
-0.148513 -0.38614 -0.406687
-0.197368 -0.38614 0.323809
-0.313875 -0.38614 0.513224
0.174058 -0.38614 0.297261
-0.342177 -0.38614 -0.416092
-0.29906 -0.38614 0.239076
-0.195705 -0.38614 0.082516
0.180176 -0.38614 0.434724
0.229778 -0.38614 -0.224918
-0.282726 -0.38614 -0.117195
0.263274 -0.38614 -0.182831
0.031543 -0.38614 -0.393459
-0.102754 -0.38614 -0.159857
0.091812 -0.38614 -0.526815
-0.333386 -0.38614 0.494063
0.117651 -0.38614 -0.297353
0.418375 0.700293 -0.596741
0.42049 -0.413624 -0.581758
0.42049 0.538958 -0.01489
0.395979 -0.346321 -0.000143
0.42049 0.204836 0.35808
0.42049 0.086021 -0.189001
0.42049 0.340766 -0.469767
0.403651 -0.070017 -0.596741
0.42049 -0.18397 -0.244362
0.42049 -0.077092 0.01635
0.42049 0.42533 0.21378
0.42049 -0.31312 0.34795
0.42049 0.305054 -0.038213
0.42049 0.083137 -0.427004
0.42049 0.512172 0.423304
0.42049 -0.055589 0.446323
0.42049 0.554088 -0.394834
0.42049 -0.240701 -0.462069
0.42049 -0.445893 0.542501
0.42049 0.025307 0.254954
0.395979 0.503765 -0.592575
0.42049 0.690738 -0.173174
0.399554 0.704613 0.094308
0.42049 0.228187 0.169903
0.42049 0.271111 -0.299233
0.410564 0.704613 0.396969
0.414767 0.704613 -0.335409
0.42049 -0.341329 -0.159518
0.42049 0.526761 -0.195497
0.42049 -0.191902 0.202867
0.406619 0.086869 -0.596741
0.42049 0.337244 0.433807
0.42049 0.06055 0.090425
0.42049 -0.320044 -0.333305
0.42049 0.570029 0.195655
0.42049 0.138196 -0.035696
0.398024 -0.447418 0.393807
0.42049 -0.075952 -0.131013
0.42049 -0.03549 -0.269922
0.42049 -0.09925 -0.447801
0.398752 -0.210917 -0.596741
0.42049 -0.214479 0.035311
0.42049 0.093224 0.50283
0.42049 -0.109897 0.316216
0.395979 0.428282 -0.102358
0.42049 -0.065912 0.1528
0.42049 0.232713 -0.154041
0.416552 0.368855 -0.596741
0.42049 -0.330927 0.482409
0.42049 0.598496 0.323283
0.42049 -0.390101 -0.442379
0.395979 0.139068 -0.304512
0.42049 -0.324494 0.143079
0.42049 -0.228803 -0.09704
0.42049 0.310962 0.285895
0.42049 0.454865 -0.315754
0.42049 0.479584 0.101125
0.42049 0.244414 -0.580952
0.395979 0.601687 0.509571
0.42049 0.321272 0.094855
0.42049 0.19425 -0.471286
0.42049 0.429757 0.331968
0.42049 -0.226198 0.427199
0.42049 0.590748 -0.504648
0.42049 0.460926 -0.488099
0.42049 0.695786 0.207576
0.42049 0.349323 -0.182774
0.395979 0.203872 0.060535
0.395979 0.090868 0.345294
0.395979 0.58966 -0.287364
0.42049 0.035616 -0.081122
0.42049 0.13519 0.239418
0.42049 0.010375 -0.521158
0.42049 0.596412 0.074574
0.395979 0.233371 0.461813
0.416442 0.704613 -0.4535
0.42049 -0.132661 -0.335774
0.395979 0.59128 -0.113828
0.42049 -0.214388 0.316354
0.42049 -0.292872 0.240572
0.395979 -0.007508 -0.38106
0.42049 0.36962 -0.369347
0.42049 0.399531 -0.005356
0.395979 -0.169344 0.522199
0.395979 -0.148478 0.103939
0.417972 -0.30978 -0.596741
0.395979 -0.020855 0.346245
0.42049 0.20972 -0.376618
0.395979 -0.442905 -0.184848
0.42049 0.694764 0.301796
0.42049 -0.227517 -0.350124
0.395979 0.132533 0.149749
0.395979 0.221198 0.269948
0.395979 -0.403887 -0.0964
0.42049 -0.398656 0.316808
0.395979 0.009905 0.002481
0.42049 -0.139194 0.40201
0.395979 0.322373 0.199947
0.42049 -0.283218 -0.251143
0.395979 0.221726 -0.061267
0.395979 -0.168297 -0.157883
0.395979 0.002676 -0.168623
0.395979 0.426491 0.426329
0.395979 0.513625 0.274797
0.42049 0.374918 -0.277816
0.395979 0.051403 -0.293897
0.42049 0.054011 0.421525
0.42049 -0.318365 -0.500201
0.395979 0.398696 0.133881
0.42049 0.095616 -0.512678
0.42049 0.585711 -0.592939
0.42049 0.436435 -0.183215
0.42049 -0.135716 -0.044478
0.395979 0.698713 0.479585
0.42049 -0.11328 0.232978
0.40228 -0.447418 -0.499731
0.42049 0.033889 0.168883
0.42049 -0.097409 -0.214866
0.395979 -0.244607 0.144093
0.395979 0.161641 -0.563189
0.42049 0.607908 -0.209992
0.42049 0.158162 0.440799
0.42049 0.159245 -0.229414
0.42049 0.593267 0.43124
0.395979 0.444497 -0.392633
0.395979 0.508867 -0.113501
0.42049 0.152986 -0.139205
0.42049 -0.406469 -0.318788
0.395979 0.355351 0.358906
0.42049 -0.37467 0.215856
0.395979 0.274918 0.389827
0.42049 0.284898 -0.403732
0.395979 -0.163901 -0.40776
0.42049 -0.275201 -0.026958
0.395979 0.34208 -0.104555
0.42049 -0.020756 0.087001
0.42049 -0.375292 -0.230776
0.42049 -0.25706 -0.170739
0.395979 -0.287217 -0.40381
0.42049 0.279998 -0.219253
0.42049 -0.422029 0.467937
0.42049 0.271789 -0.505611
0.395979 0.626033 0.141148
0.417595 0.704613 -0.256448
0.395979 -0.373917 0.408842
0.42049 -0.168604 -0.482908
0.395979 -0.034689 0.217185
0.41271 0.704613 -0.095257
0.395979 0.100023 0.026277
0.395979 0.482714 0.030546
0.395979 0.609997 0.253852
0.395979 0.519261 0.497584
0.395979 0.510198 0.353206
0.395979 0.507015 -0.262409
0.395979 0.490338 0.1885
0.395979 0.140597 -0.37813
0.42049 -0.326774 -0.08767
0.42049 -0.062562 -0.514119
0.395979 -0.286914 0.084406
0.42049 0.620579 -0.438709
0.395979 -0.205853 -0.033053
0.42049 -0.39662 0.145735
0.395979 0.334895 0.022408
0.395979 0.541148 0.127705
0.42049 0.242887 0.002105
0.42049 0.661426 -0.522292
0.395979 -0.035542 -0.078108
0.395979 -0.013739 0.49805
0.395979 -0.006486 -0.451958
0.42049 0.472001 -0.05309
0.395979 0.070862 -0.362371
0.395979 0.437831 -0.248716
0.42049 -0.407494 -0.031069
0.42049 -0.144581 0.033805
0.417484 -0.142313 -0.596741
0.395979 0.376984 0.292703
0.42049 0.523055 -0.32984
0.395979 -0.061399 -0.337566
0.395979 0.403118 -0.452762
0.395979 0.600376 -0.044738
0.395979 -0.262199 0.4799
0.395979 -0.339056 0.290001
0.42049 -0.348763 0.07127
0.42049 0.631036 0.016418
0.395979 0.185459 0.509565
0.42049 0.157986 0.303042
0.42049 0.336346 -0.537925
0.42049 0.53113 -0.535056
0.395979 0.295941 0.48514
0.42049 -0.088591 0.088211
0.42049 0.102843 -0.092033
0.395979 0.507896 -0.448293
0.42049 0.377395 0.486451
0.42049 0.605513 -0.353177
0.395979 -0.111878 0.489501
0.395979 0.38371 0.069526
0.42049 -0.219348 -0.524945
0.395979 0.257347 0.098673
0.395979 -0.373172 -0.536281
0.395979 -0.274793 0.299904
0.395979 0.209473 -0.262505
0.42049 -0.433107 0.091044
0.400177 0.435219 -0.596741
0.42049 0.148649 0.081457
0.395979 0.085662 0.197201
0.395979 0.275347 -0.095764
0.395979 -0.128259 -0.104061
0.42049 0.071149 -0.028211
0.42049 0.458897 0.480132
0.395979 -0.270889 0.38928
0.395979 -0.171003 0.449728
0.395979 -0.193932 -0.300714
0.42049 0.040311 0.318572
0.42049 -0.16252 0.270372
0.395979 -0.068506 0.391185
0.395979 -0.090842 -0.280341
0.395979 -0.18129 0.364991
0.395979 0.699493 -0.396136
0.42049 -0.396634 0.028833
0.39659 -0.447418 -0.439185
0.395979 -0.264808 -0.303627
0.395979 -0.208062 0.092096
0.395979 0.267858 0.231132
0.42049 0.110468 0.399255
0.395979 0.212262 -0.523579
0.395979 0.379591 -0.0568
0.42049 -0.148743 0.160726
0.42049 0.295321 -0.155921
0.395979 0.539549 0.050244
0.395979 0.049187 0.535672
0.42049 -0.352586 -0.383824
0.42049 0.548879 -0.073994
0.395979 0.292052 0.148315
0.42049 0.645287 0.468302
0.42049 -0.381106 0.54137
0.42049 0.030264 -0.215194
0.395979 0.326995 -0.302746
0.395979 0.610539 0.380097
0.395979 0.24791 -0.442658
0.395979 0.180114 0.210086
0.395979 0.046881 -0.4769
0.395979 0.402087 -0.323997
0.42049 0.630079 0.194337
0.395979 -0.075145 0.270044
0.42049 -0.276806 0.533256
0.395979 -0.003826 -0.323131
0.395979 0.70237 0.155393
0.42049 0.698469 0.040578
0.42049 -0.08587 -0.391394
0.395979 0.244274 0.323409
0.395979 -0.215384 0.249621
0.395979 -0.01529 0.287703
0.42049 0.496652 -0.396923
0.42049 0.034195 -0.578405
0.42049 0.46763 0.382846
0.42049 0.186134 0.007753
0.395979 0.128362 -0.45155
0.42049 -0.077581 -0.048621
0.42049 -0.328832 -0.435432
0.42049 -0.047698 -0.179909
0.42049 0.625573 -0.15645
0.395979 -0.221428 -0.206622
0.42049 0.655405 -0.283398
0.42049 -0.267723 0.190557
0.395979 0.15701 0.380374
0.395979 0.556685 -0.235747
0.42049 0.001439 0.450374
0.395979 -0.227457 -0.413835
0.395979 0.378093 -0.22794
0.42049 0.383468 0.400991
0.395979 -0.360461 -0.5905
0.395979 0.086336 0.252743
0.395979 0.644936 0.301308
0.395979 -0.014367 0.156793
0.395979 0.185271 0.133913
0.42049 0.429484 0.276935
0.395979 -0.312725 0.425035
0.42049 -0.34001 -0.272546
0.395979 0.661689 0.519452
0.395979 0.250176 -0.349755
0.395979 -0.432391 -0.238182
0.42049 0.298918 0.347885
0.42049 0.415137 -0.517559
0.395979 -0.307054 -0.193305
0.42049 -0.268445 0.033554
0.42049 0.43979 0.158893
0.42049 -0.021179 -0.564969
0.42049 0.216818 -0.20551
0.42049 0.563893 0.364275
0.395979 -0.319118 0.200747
0.42049 0.197423 -0.308632
0.395979 -0.016589 -0.223149
0.395979 0.584428 0.007435
0.42049 0.22828 0.414679
0.395979 -0.276063 -0.097452
0.395979 0.436503 0.082119
0.42049 0.019031 0.381616
0.395979 -0.271809 -0.506868
0.42049 0.352173 0.236251
0.395979 0.383448 -0.15096
0.395979 0.32299 -0.369751
0.395979 0.152891 -0.511678
0.395979 -0.218823 0.538941
0.395979 0.280583 0.051906
0.395979 0.571067 -0.43764
0.42049 0.362223 0.177209
0.395979 0.469922 -0.147903
0.42049 -0.370413 -0.490622
0.395979 0.548769 -0.486592
0.42049 0.094577 -0.314666
0.395979 0.358758 -0.426049
0.395979 -0.056295 -0.432558
0.395979 0.125661 0.537133
0.395979 -0.10701 -0.170514
0.395979 0.657619 -0.361241
0.42049 0.66221 0.342922
0.395979 0.130699 -0.193748
0.42049 -0.423279 -0.368611
0.42049 0.180099 -0.078081
0.395979 0.659054 0.0716
0.42049 0.571097 0.280258
0.42049 0.108012 0.454062
0.395979 -0.419704 0.210321
0.395979 -0.359946 -0.058316
0.395979 -0.295256 -0.551696
0.395979 0.550797 0.444787
0.42049 0.545369 -0.284211
0.395979 0.576496 -0.179062
0.395979 0.52962 0.219882
0.395979 0.103488 0.082065
0.395979 -0.270839 -0.354698
0.42049 -0.232132 -0.274918
0.395979 -0.116409 0.189736
0.395979 0.034169 0.05616
0.395979 0.704445 -0.539802
0.395979 -0.387594 -0.277681
0.395979 -0.020092 0.401662
0.395979 -0.101888 0.129215
0.42049 -0.392491 -0.145361
0.395979 0.28296 -0.551456
0.395979 0.646945 0.420986
0.395979 -0.295404 -0.14279
0.395979 -0.233814 0.356929
0.42049 -0.208158 0.497762
0.42049 -0.026855 0.023855
0.42049 0.257087 0.517275
0.42049 -0.202287 0.140288
0.395979 0.041533 -0.418654
0.396052 0.704613 0.343888
0.42049 0.090424 0.152622
0.395979 -0.335087 0.531713
0.42049 0.115427 -0.557085
0.395979 0.323729 -0.577876
0.42049 -0.136414 -0.254071
0.42049 0.445034 0.011455
0.395979 0.024954 -0.125554
0.42049 0.111025 -0.232546
0.42049 0.40353 -0.403681
0.395979 0.291972 -0.462276
0.395979 -0.134278 0.354676
0.395979 -0.360981 -0.118156
0.395979 0.432182 -0.041986
0.42049 -0.38881 0.363835
0.395979 -0.104275 -0.017197
0.395979 0.189455 -0.15775
0.395979 -0.158431 0.311056
0.42049 -0.21751 -0.144213
0.395979 -0.367033 -0.334011
0.42049 0.187208 -0.424195
0.395979 0.600683 -0.544168
0.395979 -0.439276 0.048486
0.42049 -0.181369 -0.100003
0.395979 0.675529 -0.132282
0.395979 -0.053318 0.111376
0.42049 0.141275 0.0225
0.395979 0.102017 -0.275069
0.395979 0.496273 -0.0146
0.395979 -0.299754 0.00697
0.42049 -0.177674 -0.370116
0.395979 -0.355552 0.117846
0.42049 0.008185 0.531516
0.42049 0.660199 -0.572839
0.42049 0.388966 -0.107987
0.42049 0.032992 -0.374329
0.395979 -0.07834 0.340284
0.42049 0.449 -0.549614
0.42049 -0.414847 0.418393
0.395979 0.667223 -0.4296
0.395979 0.007982 -0.27765
0.42049 0.470013 0.308993
0.42049 0.200836 -0.561873
0.42049 -0.136092 -0.550312
0.395979 0.141324 -0.083034
0.395979 0.527004 -0.15643
0.395979 0.487446 -0.345891
0.42049 0.178804 0.254256
0.42049 -0.379003 0.451619
0.42049 0.659928 -0.207306
0.395979 0.557672 0.325899
0.395979 -0.350724 0.334447
0.395979 0.4997 -0.505978
0.395979 0.540103 0.394967
0.42049 0.57739 0.141402
0.42049 0.664704 0.139111
0.395979 0.474241 0.141289
0.42049 0.25908 0.277691
0.395979 0.045549 0.219049
0.395979 0.568552 -0.327545
0.395979 -0.429568 0.505283
0.395979 -0.27877 -0.462128
0.395979 -0.119031 0.061972
0.42049 0.284227 0.196823
0.395979 -0.336809 -0.227334
0.42049 -0.192681 -0.444768
0.42049 0.362378 0.123636
0.42049 0.043063 -0.158638
0.395979 -0.128022 -0.372985
0.395979 -0.157036 -0.201186
0.42049 0.687758 -0.003231
0.395979 -0.43296 0.330651
0.395979 0.608461 0.465126
0.395979 0.317575 0.401876
0.395979 0.552021 -0.565493
0.42049 -0.12699 -0.49805
0.42049 0.03113 0.123518
0.42049 0.240626 0.063429
0.42049 0.639363 -0.047237
0.395979 -0.161686 0.233659
0.42049 0.695002 -0.049577
0.42049 0.662737 0.387004
0.395979 0.06604 -0.109922
0.395979 0.48571 -0.188852
0.42049 -0.186867 -0.567188
0.395979 -0.10798 0.420691
0.42049 0.129539 -0.412675
0.42049 0.067246 0.284125
0.42049 0.539419 0.16447
0.42049 -0.075756 0.491254
0.395979 -0.443293 -0.329252
0.42049 0.050974 -0.537143
0.42049 0.662467 -0.478702
0.396665 -0.447418 0.437306
0.395979 0.41758 0.515551
0.42049 -0.128981 -0.415897
0.42049 0.14415 0.196923
0.395979 -0.015397 -0.496246
0.395979 0.354939 -0.016052
0.42049 0.368746 0.033987
0.42049 -0.373059 0.498767
0.420394 0.174174 -0.596741
0.42049 -0.242273 0.273074
0.42049 -0.123699 0.455892
0.395979 0.506713 -0.070318
0.42049 -0.363627 0.174056
0.395979 0.031024 0.470075
0.42049 0.151756 0.498423
0.395979 -0.072067 -0.239556
0.395979 -0.173775 -0.523581
0.42049 0.468962 0.216593
0.395979 0.294832 -0.251275
0.42049 0.323524 -0.426653
0.395979 -0.405579 -0.488613
0.395979 0.477134 0.425813
0.42049 0.000209 0.213824
0.406279 0.704613 0.520622
0.42049 -0.329019 0.39408
0.395979 0.336531 0.498333
0.42049 -0.411053 0.2451
0.42049 0.236319 -0.478309
0.42049 -0.046512 0.249983
0.42049 0.142475 -0.339198
0.42049 -0.049766 0.320335
0.395979 0.219745 -0.40983
0.395979 0.399169 0.236463
0.42049 0.265831 -0.062593
0.395979 -0.290762 0.165008
0.395979 -0.247688 0.068746
0.395979 0.562027 0.523989
0.395979 0.218662 -0.122762
0.42049 -0.032458 -0.043991
0.395979 0.425966 0.471078
0.42049 0.329993 -0.26873
0.395979 0.493594 -0.30223
0.42049 -0.250584 -0.224673
0.400304 0.704613 -0.29597
0.395979 -0.065577 0.526049
0.395979 0.090207 -0.479011
0.419206 0.12912 -0.596741
0.42049 0.460441 -0.113446
0.395979 0.310144 -0.203495
0.395979 0.18473 0.32394
0.395979 -0.172826 0.05257
0.395979 0.290294 0.312668
0.42049 0.069281 -0.232313
0.42049 -0.287824 0.457908
0.42049 0.384081 0.341215
0.395979 0.069541 0.122864
0.42049 0.302947 -0.326297
0.42049 0.17266 -0.268819
0.395979 0.412244 0.178154
0.42049 -0.188534 0.409626
0.395979 -0.152981 -0.453245
0.42049 -0.078409 0.210424
0.42049 0.309246 0.517753
0.42049 -0.100288 0.380689
0.395979 -0.421849 -0.40663
0.395979 -0.087907 -0.080328
0.42049 0.124169 0.343737
0.395979 0.09661 -0.049729
0.42049 -0.232625 -0.001843
0.42049 0.417439 0.371393
0.395979 -0.212501 -0.479561
0.42049 0.06734 0.020877
0.395979 -0.158278 0.003687
0.42049 -0.298775 -0.298261
0.395979 0.330231 0.129172
0.42049 0.417206 -0.071678
0.395979 -0.094473 -0.508144
0.42049 0.577847 -0.143368
0.42049 0.399208 -0.569972
0.42049 0.30254 0.021419
0.395979 -0.425754 -0.291476
0.42049 -0.017559 -0.143411
0.395979 0.010898 -0.556013
0.395979 0.077044 -0.157962
0.42049 0.550804 0.096955
0.42049 0.637169 -0.401774
0.395979 -0.039343 0.060801
0.395979 0.033397 -0.33878
0.42049 0.341835 -0.054855
0.395979 6.9e-05 0.116181
0.42049 0.205149 0.476702
0.395979 0.44277 -0.459474
0.42049 0.55812 0.234135
0.395979 0.140412 -0.263382
0.395979 -0.437837 0.122237
0.42049 -0.187991 -0.195124
0.42049 -0.162706 -0.305155
0.395979 0.460171 0.269757
0.42049 0.004746 -0.029661
0.395979 0.178362 -0.394051
0.395979 0.567624 0.480894
0.395979 -0.165464 -0.054206
0.395979 0.365242 -0.489204
0.395979 -0.17937 0.166928
0.42049 0.417715 -0.224862
0.395979 0.400688 -0.366874
0.42049 -0.395757 0.077763
0.395979 0.023792 0.42796
0.395979 -0.102674 -0.576093
0.42049 0.478929 0.061114
0.395979 0.581465 -0.372327
0.42049 0.186985 0.089989
0.42049 -0.417012 0.179265
0.42049 -0.046413 -0.461533
0.42049 0.596325 -0.25752
0.395979 0.241372 0.032902
0.42049 0.635475 0.237029
0.42049 0.166193 0.351341
0.42049 0.515728 -0.47768
0.395979 0.181075 -0.334252
0.42049 0.636701 -0.238677
0.395979 0.232457 0.214791
0.42049 -0.041515 -0.107836
0.395979 -0.437184 -0.037168
0.42049 -0.253643 -0.379525
0.42049 0.237166 -0.280288
0.395979 0.303244 0.246992
0.395979 -0.307688 -0.269566
0.395979 0.023243 0.291905
0.395979 -0.358792 -0.436984
0.395979 -0.331839 -0.405473
0.395979 -0.199458 0.00938
0.395979 0.001573 -0.089077
0.395979 0.592815 0.215048
0.395979 0.258026 0.166636
0.42049 -0.409425 -0.526898
0.395979 -0.310641 -0.373148
0.42049 -0.176737 0.335545
0.42049 0.458537 -0.366361
0.42049 0.497821 0.159467
0.395979 0.034453 -0.027247
0.395979 0.696798 0.431771
0.395979 0.585131 0.102032
0.42049 -0.347862 -0.551699
0.42049 -0.086478 -0.321857
0.395979 0.038104 0.348072
0.42049 0.001263 0.055546
0.42049 0.284195 -0.580948
0.42049 -0.432788 -0.00228
0.395979 0.408073 -0.191173
0.395979 0.129101 0.433615
0.395979 0.519909 0.083038
0.42049 0.122434 0.289002
0.395979 0.324428 -0.16728
0.395979 0.236635 0.360855
0.395979 -0.211648 0.468666
0.42049 0.471224 -0.425427
0.395979 0.170106 0.467489
0.42049 0.341804 0.333108
0.395979 0.633913 0.349867
0.42049 0.622623 -0.089596
0.395979 0.06278 0.161472
0.395979 0.382441 0.201648
0.395979 0.271042 -0.171659
0.42049 0.024748 -0.311171
0.410023 0.704613 0.266722
0.395979 0.129766 0.479696
0.395979 0.535366 -0.422254
0.42049 0.235969 0.132883
0.42049 -0.300759 0.287421
0.42049 0.186727 0.416074
0.42049 0.539571 0.303674
0.42049 -0.359363 -0.306419
0.395979 0.246815 -0.540778
0.42049 -0.138721 0.499187
0.395979 -0.083642 0.451498
0.42049 -0.328336 0.228084
0.42049 -0.231687 0.17994
0.395979 0.046729 -0.256629
0.42049 -0.028724 -0.399833
0.395979 -0.026555 -0.006117
0.42049 0.233382 -0.087053
0.395979 -0.074375 -0.465836
0.395979 0.272761 0.427132
0.42049 -0.194781 -0.33212
0.395979 0.07792 0.479225
0.42049 -0.166538 -0.023449
0.42049 -0.162765 0.078699
0.395979 0.636268 -0.502224
0.395979 0.061688 -0.511298
0.42049 -0.003966 -0.248113
0.42049 -0.389664 -0.386685
0.42049 0.557543 0.416823
0.42049 0.382831 0.438153
0.395979 0.418007 0.302398
0.42049 0.619282 -0.292075
0.395979 -0.027542 0.463571
0.42049 0.109582 -0.012048
0.42049 0.564236 0.026646
0.42049 0.126952 -0.479346
0.395979 -0.308233 0.120497
0.395979 0.154453 0.275443
0.42049 0.535626 0.468033
0.42049 0.382559 -0.53515
0.42049 0.312278 0.172691
0.42049 0.629307 0.057647
0.395979 0.558152 -0.047991
0.42049 0.495716 0.48228
0.395979 -0.406348 -0.058598
0.42049 -0.376842 -0.091504
0.395979 0.259389 0.489575
0.42049 0.5249 -0.571313
0.42049 -0.004878 -0.194967
0.42049 0.030259 0.020753
0.395979 -0.25871 -0.141545
0.42049 -0.234926 -0.038467
0.395979 0.206716 0.397484
0.395979 0.676893 -0.233796
0.395979 -0.375927 0.059185
0.395979 0.238924 -0.22128
0.42049 -0.045327 -0.305128
0.42049 0.402251 0.049805
0.395979 0.232156 0.527755
0.42049 -0.438989 -0.211957
0.42049 -0.439116 -0.548337
0.395979 0.425757 -0.296232
0.42049 -0.043062 -0.228556
0.395979 -0.279273 0.353784
0.395979 0.148304 0.116883
0.42049 0.391379 0.521555
0.42049 0.019695 0.089075
0.42049 -0.321564 -0.010177
0.42049 -0.043969 0.380741
0.395979 0.253187 -0.136992
0.395979 -0.298564 0.517892
0.42049 -0.002954 0.311271
0.395979 0.220408 -0.177546
0.42049 0.315923 -0.108153
0.417122 0.704613 -0.133323
0.395979 -0.103475 -0.34669
0.42049 0.486586 -0.572795
0.395979 0.159851 0.175961
0.42049 -0.384988 -0.559653
0.42049 0.225156 0.095772
0.395979 0.594541 0.041805
0.42049 0.24903 -0.416553
0.42049 0.258371 0.454663
0.42049 -0.141757 -0.126261
0.42049 0.219414 0.316133
0.395979 -0.072582 -0.187066
0.42049 0.57509 -0.547429
0.395979 -0.38961 0.478999
0.42049 0.196672 -0.046664
0.42049 0.484695 0.350038
0.395979 0.461037 -0.018831
0.395979 -0.062092 -0.373041
0.42049 0.647324 -0.337756
0.42049 0.192596 0.286912
0.42049 -0.279819 -0.436575
0.42049 0.354782 0.066532
0.42049 0.270023 -0.371614
0.395979 0.082301 -0.395835
0.395979 0.114762 0.319226
0.42049 -0.431596 -0.473909
0.42049 -0.136404 0.206327
0.395979 -0.267697 0.442508
0.395979 -0.44371 0.243754
0.42049 0.616526 0.404669
0.395979 0.452856 0.342249
0.395979 0.427035 -0.490969
0.42049 -0.133777 -0.002475
0.42049 -0.132242 -0.171645
0.42049 0.419648 0.100918
0.42049 -0.304969 -0.168145
0.42049 0.358862 -0.145256
0.42049 -0.179398 -0.13513
0.42049 0.211719 0.511239
0.395979 0.134927 -0.156641
0.395979 0.222468 -0.307085
0.42049 0.46257 -0.244685
0.410978 0.704613 -0.508283
0.395979 0.481232 -0.473791
0.395979 -0.352271 0.469721
0.42049 -0.288258 0.492776
0.42049 0.622843 0.522401
0.395979 0.301247 0.109386
0.395979 -0.312624 -0.476154
0.395979 0.596682 -0.480655
0.395979 -0.075994 -0.540794
0.395979 -0.279511 -0.214493
0.42049 0.558182 -0.349887
0.395979 -0.127503 -0.21947
0.42049 0.628026 0.270951
0.395979 0.439503 -0.213571
0.42049 0.301617 -0.072713
0.395979 -0.087202 0.171097
0.395979 0.026728 0.509334
0.42049 0.093311 0.117184
0.395979 0.634702 -0.007735
0.395979 -0.274064 0.217758
0.395979 0.105582 -0.336456
0.42049 -0.263753 0.091981
0.42049 0.001094 -0.475114
0.42049 -0.322002 0.049446
0.42049 -0.424792 -0.157384
0.42049 -0.130998 -0.463219
0.395979 0.637056 -0.558585
0.42049 0.568216 -0.214594
0.395979 0.212102 0.432507
0.42049 0.693866 -0.212592
0.395979 -0.328335 -0.578009
0.395979 0.57802 0.391099
0.395979 -0.31172 0.468075
0.42049 0.565337 -0.46088
0.42049 0.195921 0.18104
0.42049 -0.405368 -0.246819
0.42049 -0.315551 -0.237753
0.395979 -0.239596 0.105
0.395979 -0.211738 0.405145
0.395979 -0.130187 0.249473
0.395979 0.064016 0.307476
0.42049 0.579485 -0.059262
0.42049 0.154443 0.405522
0.395979 -0.08272 0.306646
0.395979 0.501976 0.121761
0.42049 -0.314875 -0.533918
0.42049 -0.357878 0.303901
0.395979 0.6771 -0.315271
0.395979 0.049035 -0.201287
0.395979 0.523226 0.322038
0.395979 0.348752 -0.255008
0.42049 -0.122391 0.084921
0.395979 -0.323014 -0.110537
0.395979 0.558443 -0.106171
0.42049 -0.366212 0.011706
0.395979 0.118661 -0.513839
0.395979 -0.408956 0.448991
0.395979 0.168436 -0.437466
0.395979 -0.232476 -0.162541
0.42049 0.281618 0.097546
0.42049 -0.026203 -0.36644
0.42049 -0.178149 0.117111
0.42049 -0.087005 0.411928
0.395979 0.204089 0.241269
0.395979 -0.03545 0.182676
0.395979 0.179264 -0.295091
0.42049 -0.352685 0.370563
0.395979 0.369397 0.09965
0.42049 -0.24929 -0.070728
0.42049 0.402443 -0.163224
0.42049 0.101207 -0.125337
0.42049 -0.192924 0.444481
0.42049 0.504374 -0.240033
0.42049 0.161278 -0.466845
0.395979 -0.247063 0.026586
0.395979 0.361539 0.405959
0.42049 0.380794 -0.450447
0.42049 -0.428718 0.378008
0.395979 -0.019203 -0.529254
0.395979 0.097719 0.422725
0.42049 0.577698 -0.307078
0.42049 0.304376 0.22323
0.395979 -0.392453 0.102063
0.42049 -0.370991 0.27307
0.395979 -0.257868 -0.53737
0.42049 0.059284 -0.343282
0.395979 -0.315075 0.325713
0.42049 0.67831 0.465511
0.42049 0.528028 0.031185
0.42049 -0.250625 -0.421093
0.395979 0.438468 0.395533
0.395979 0.245546 -0.389215
0.42049 0.51275 0.375168
0.42049 0.521067 -0.374785
0.42049 -0.249063 0.386408
0.395979 0.199281 -0.09614
0.42049 -0.348555 -0.039527
0.395979 -0.401653 0.529318
0.42049 -0.2772 -0.593054
0.395979 -0.207808 -0.090731
0.395979 0.266929 0.347203
0.42049 0.119596 -0.17493
0.395979 -0.148762 -0.496839
0.42049 0.624617 -0.122317
0.395979 0.356368 -0.393359
0.395979 0.636997 -0.271817
0.42049 0.062316 0.513671
0.40818 -0.447418 -0.577641
0.42049 0.296365 -0.272892
0.42049 0.589287 0.480581
0.42049 0.622247 -0.542221
0.42049 0.064755 0.191651
0.395979 0.34119 0.17217
0.42049 -0.071336 0.060459
0.395979 0.525697 -0.296174
0.395979 -0.179856 -0.271337
0.395979 0.587257 -0.224559
0.42049 0.460209 -0.59223
0.42049 0.119271 0.097615
0.395979 -0.105976 0.280224
0.395979 0.451932 0.176343
0.395979 0.492521 0.515943
0.395979 0.59006 -0.081437
0.42049 0.537324 0.196811
0.42049 0.420188 -0.465335
0.42049 0.596336 -0.023957
0.395979 -0.424856 0.017334
0.395979 -0.037337 -0.150921
0.42049 0.519091 0.10415
0.42049 -0.108432 -0.061834
0.42049 0.682045 -0.407983
0.395979 0.2841 -0.039723
0.395979 -0.189888 0.318141
0.395979 0.362493 -0.521288
0.42049 -0.066378 0.357655
0.42049 -0.298616 0.208933
0.395979 0.088388 -0.00368
0.395979 -0.352886 -0.255146
0.395979 0.428899 -0.351508
0.395979 0.54677 0.004333
0.42049 -0.259049 -0.109294
0.42049 -0.045783 0.479845
0.395979 0.371629 -0.121163
0.42049 0.591285 0.235645
0.395979 0.612764 -0.311643
0.42049 -0.294718 -0.106191
0.395979 0.607188 -0.423091
0.42049 -0.147461 0.432895
0.42049 0.661158 0.496057
0.395979 -0.25501 -0.03039
0.42049 -0.331872 0.177488
0.42049 0.59901 0.182287
0.395979 0.318154 -0.053881
0.395979 -0.039187 -0.593845
0.42049 0.459286 -0.208607
0.395979 0.011596 0.19693
0.42049 0.416528 0.541114
0.395979 -0.259274 0.522926
0.395979 0.600868 -0.579364
0.395979 -0.002588 0.077845
0.395979 0.437157 -0.532844
0.395979 -0.151902 0.183042
0.395979 0.19936 0.023183
0.395979 0.074782 -0.319268
0.395979 0.358702 -0.305541
0.42049 0.510351 -0.282406
0.395979 -0.258908 0.327439
0.395979 0.184029 0.360756
0.395979 0.00315 0.366998
0.395979 -0.301408 -0.318229
0.395979 -0.343376 0.051903
0.42049 0.287874 0.405082
0.42049 0.420844 0.40501
0.42049 0.655312 -0.172449
0.42049 -0.306079 -0.410363
0.395979 0.005447 0.036023
0.42049 0.385067 -0.313584
0.395979 0.333815 -0.340082
0.395979 -0.14496 -0.026877
0.42049 0.633436 0.159569
0.42049 0.525426 -0.095064
0.395979 -0.036203 0.433272
0.42049 -0.011973 -0.432998
0.399122 0.550714 -0.596741
0.395979 -0.253236 -0.197269
0.395979 -0.354778 -0.173824
0.42049 0.311044 0.141315
0.42049 0.385957 -0.038286
0.395979 -0.261216 0.268258
0.42049 0.038714 -0.046305
0.42049 -0.163471 -0.433421
0.395979 0.685233 -0.580835
0.42049 0.44795 0.056533
0.42049 0.520183 -0.056236
0.395979 0.066695 0.365189
0.42049 0.49276 0.004491
0.42049 0.170425 0.523454
0.42049 0.406722 0.469449
0.395979 0.544366 0.279961
0.395979 -0.201292 0.219682
0.395979 0.677189 -0.186842
0.395979 0.612879 -0.170906
0.42049 -0.159821 0.378669
0.42049 0.3138 -0.392136
0.42049 -0.076319 -0.486182
0.395979 0.399011 0.389736
0.395979 -0.334881 -0.509942
0.42049 0.051126 0.237586
0.395979 0.216856 0.134044
0.395979 -0.193436 -0.122118
0.42049 0.549276 -0.155627
0.395979 0.212554 -0.465774
0.395979 0.144393 0.041347
0.395979 -0.309844 -0.025263
0.395979 -0.276766 -0.272566
0.395979 0.611274 0.42492
0.42049 -0.035103 0.149032
0.42049 0.367579 -0.243796
0.395979 0.15802 -0.177229
0.42049 0.630658 0.368438
0.42049 -0.22327 -0.385261
0.42049 0.450637 0.450353
0.42049 0.001823 0.3418
0.395979 -0.301787 0.389297
0.395979 0.100991 0.170383
0.42049 -0.111789 0.019216
0.42049 0.57399 -0.091917
0.395979 -0.059075 -0.267534
0.42049 -0.10005 -0.525993
0.395979 0.285476 -0.140028
0.42049 -0.055189 -0.355684
0.42049 0.382264 0.228554
0.42049 -0.289302 -0.357144
0.395979 -0.090506 -0.119407
0.42049 0.668983 -0.255784
0.395979 -0.365805 0.530016
0.42049 -0.245976 0.488901
0.395979 0.207128 0.091388
0.395979 0.69115 -0.067693
0.395979 0.519206 -0.347939
0.395979 0.267873 0.127512
0.42049 0.637553 0.43861
0.395979 0.076191 -0.4441
0.42049 0.58295 -0.423565
0.42049 0.205315 -0.135421
0.42049 -0.218794 -0.562779
0.395979 0.578653 0.248947
0.395979 0.378882 0.323625
0.42049 0.393989 0.179926
0.395979 0.296527 -0.492543
0.395979 -0.110793 -0.462011
0.417677 -0.179675 -0.596741
0.42049 0.194476 -0.519593
0.395979 0.339385 -0.212296
0.42049 0.426313 -0.020023
0.395979 -0.059215 0.019512
0.42049 -0.324938 0.30599
0.42049 0.012139 -0.061715
0.42049 0.375766 -0.419909
0.395979 0.023902 -0.449962
0.395979 0.219751 0.495075
0.42049 -0.126771 0.139686
0.395979 -0.364925 0.192024
0.395979 0.282008 0.021522
0.395979 0.501144 0.230567
0.395979 0.379943 0.019896
0.395979 0.131631 -0.577303
0.395979 0.296176 -0.388644
0.395979 0.422622 0.255786
0.42049 0.313982 0.384288
0.395979 0.148585 0.318295
0.395979 0.21263 -0.358949
0.395979 0.573096 -0.407376
0.42049 0.325302 0.259182
0.42049 0.247211 0.340995
0.42049 0.566782 0.460289
0.395979 0.394228 0.451735
0.42049 0.163646 0.04285
0.42049 0.633779 0.315061
0.42049 0.609046 -0.468005
0.42049 -0.399845 -0.113618
0.395979 -0.307237 0.270965
0.395979 -0.1644 -0.104963
0.395979 0.582648 0.445333
0.42049 0.025526 -0.276071
0.42049 0.564284 -0.519262
0.395979 -0.342444 0.430194
0.42049 -0.145436 -0.374783
0.42049 0.359609 -0.079161
0.395979 0.343219 -0.07229
0.42049 0.667687 0.223179
0.42049 0.312313 -0.459957
0.395979 0.26943 -0.590276
0.42049 0.39433 0.290796
0.395979 -0.165946 -0.322289
0.42049 0.204598 -0.166366
0.42049 0.083915 -0.462769
0.395979 0.287346 -0.28778
0.395979 -0.085142 0.226465
0.42049 0.045572 -0.401783
0.42049 0.196722 0.215065
