0.372684 -0.050942 -0.20437
0.185371 0.466992 -0.20437
-0.471742 -0.137067 -0.20437
0.253547 -0.198601 -0.19139
0.1699 -0.20365 -0.20437
0.779938 0.019008 -0.19139
-0.323602 -0.188498 -0.20437
0.174618 -0.327261 -0.19139
0.418894 -0.341563 -0.20437
0.492358 -0.247465 -0.19139
-0.511632 -0.423114 -0.20437
0.726503 0.446478 -0.20437
0.091091 0.184408 -0.19139
-0.590205 0.254411 -0.19139
0.508248 -0.059959 -0.19139
0.047212 0.195224 -0.19139
0.706078 -0.112879 -0.19139
0.292889 0.159678 -0.19139
0.602294 -0.292566 -0.19139
-0.751596 0.509636 -0.19139
-0.524383 -0.399704 -0.19139
0.500857 0.275677 -0.19139
0.465479 0.222832 -0.20437
-0.420518 -0.000406 -0.19139
0.302661 0.105738 -0.20437
-0.586056 -0.216113 -0.19139
0.765169 -0.118701 -0.19139
0.081608 0.145401 -0.20437
0.267521 -0.412184 -0.20437
0.570373 -0.019051 -0.19139
0.757436 0.033334 -0.19139
0.757528 0.317711 -0.19139
-0.182912 0.009728 -0.19139
-0.275769 0.36775 -0.19139
-0.650558 0.152754 -0.20437
0.033464 -0.372028 -0.19139
-0.566954 0.244859 -0.19139
-0.602871 0.240887 -0.20437
0.758249 -0.250064 -0.19139
-0.022319 -0.394358 -0.19139
0.688777 0.366315 -0.20437
-0.033751 0.022983 -0.20437
-0.016883 0.325623 -0.19139
-0.006396 -0.204861 -0.19139
-0.250968 0.300818 -0.19139
-0.181257 0.468825 -0.19139
0.424817 0.485706 -0.19139
-0.192121 0.220696 -0.19139
-0.214316 0.343989 -0.19139
0.650427 -0.405254 -0.20437
-0.537024 -0.139314 -0.20437
0.645082 0.492512 -0.19139
0.5896 -0.012243 -0.20437
-0.296257 0.316614 -0.19139
0.189647 -0.051178 -0.19139
-0.035826 0.182198 -0.19139
-0.588394 0.382845 -0.19139
0.330309 -0.215325 -0.20437
0.615493 -0.271432 -0.20437
0.290732 0.398027 -0.19139
-0.174561 -0.393132 -0.19139
0.348239 0.473851 -0.19139
-0.004966 0.366972 -0.20437
0.486265 0.380535 -0.19139
0.217584 0.208554 -0.19139
0.071317 -0.205153 -0.19139
0.419845 -0.387871 -0.20437
-0.112627 0.083434 -0.19139
0.62881 -0.329084 -0.20437
-0.125128 -0.221173 -0.20437
0.750274 -0.322087 -0.20437
0.035758 -0.073083 -0.20437
-0.275378 0.24647 -0.20437
0.352281 0.100504 -0.20437
-0.561409 -0.089097 -0.19139
-0.495854 0.451313 -0.19139
0.30317 0.432868 -0.19139
0.127248 0.30396 -0.19139
-0.229096 -0.316349 -0.19139
-0.64364 0.486969 -0.19139
0.799266 -0.217197 -0.20437
0.443716 0.400162 -0.19139
0.807521 0.194481 -0.20437
0.785752 0.342909 -0.19139
-0.602866 0.138788 -0.19139
-0.682598 -0.170064 -0.20437
0.499534 -0.285013 -0.20437
0.591814 0.155338 -0.20437
0.149715 0.30067 -0.20437
0.784669 0.087971 -0.20437
-0.776461 0.269458 -0.20437
-0.150256 0.13071 -0.19139
-0.277971 0.471203 -0.20437
-0.325938 0.067394 -0.20437
-0.314169 -0.046687 -0.20437
-0.361688 -0.321471 -0.20437
0.334485 0.187417 -0.19139
0.686812 -0.110189 -0.20437
0.737619 0.362866 -0.19139
0.477986 -0.437961 -0.20437
0.593331 -0.162694 -0.20437
0.30804 -0.457953 -0.19139
0.392793 0.076343 -0.20437
-0.719133 0.137618 -0.19139
-0.499219 -0.096898 -0.19139
-0.028959 -0.308226 -0.20437
-0.087856 -0.079192 -0.20437
-0.190225 0.340737 -0.19139
-0.541498 0.118899 -0.20437
0.008955 0.265208 -0.19139
-0.6692 0.359122 -0.20437
-0.1038 -0.113909 -0.20437
0.274389 -0.388829 -0.19139
0.469471 0.42405 -0.19139
0.19597 -0.230006 -0.20437
-0.660961 0.384746 -0.20437
0.092294 -0.387239 -0.20437
0.309172 -0.151488 -0.19139
0.201202 -0.163726 -0.19139
0.26739 -0.309508 -0.19139
-0.269808 -0.19332 -0.20437
-0.146957 0.324033 -0.19139
0.278593 0.336095 -0.20437
0.394448 0.324215 -0.20437
0.673338 0.036706 -0.20437
-0.469646 -0.423257 -0.19139
0.311581 0.317849 -0.20437
-0.433755 -0.451104 -0.19139
-0.065282 -0.332561 -0.19139
-0.593039 -0.133022 -0.19139
-0.692086 -0.080066 -0.20437
0.131321 -0.017162 -0.19139
0.344963 -0.159797 -0.19139
-0.076057 -0.347281 -0.20437
0.108981 0.232609 -0.19139
0.550406 -0.037387 -0.20437
-0.691605 0.35953 -0.19139
-0.013393 0.058977 -0.20437
-0.314299 0.463551 -0.20437
0.742267 -0.086711 -0.19139
0.05422 0.383352 -0.19139
-0.534391 0.262765 -0.20437
0.335678 -0.426357 -0.19139
-0.139924 0.216175 -0.19139
-0.754837 -0.259062 -0.19139
0.389341 -0.291856 -0.20437
0.332171 0.281832 -0.19139
-0.02328 0.449208 -0.19139
-0.105353 0.523661 -0.20437
0.529609 0.489349 -0.19139
-0.419046 0.482596 -0.20437
-0.42247 -0.247116 -0.20437
-0.229788 0.131139 -0.19139
-0.723286 0.176265 -0.20437
-0.472826 0.072255 -0.20437
-0.082807 -0.188743 -0.20437
-0.198532 0.151957 -0.19139
-0.244305 0.324014 -0.19139
-0.385564 -0.195447 -0.19139
-0.126557 -0.380009 -0.19139
0.452606 -0.320073 -0.20437
0.458533 0.025952 -0.20437
-0.300869 0.218695 -0.19139
0.195428 -0.273679 -0.19139
0.103205 0.198423 -0.20437
0.490796 -0.186952 -0.20437
-0.65059 0.218259 -0.19139
0.111069 -0.066105 -0.19139
-0.039349 -0.256008 -0.20437
0.256972 -0.170758 -0.19139
-0.104455 0.20279 -0.20437
0.226213 -0.053278 -0.19139
0.135217 0.018105 -0.20437
-0.460587 -0.059011 -0.20437
-0.161394 0.079726 -0.20437
0.142251 0.136981 -0.19139
0.069808 0.00896 -0.20437
-0.084492 -0.128265 -0.19139
0.139626 -0.219256 -0.20437
-0.575833 -0.26539 -0.19139
0.214364 -0.066833 -0.20437
0.57326 -0.233724 -0.20437
0.747931 0.242439 -0.19139
-0.61693 -0.43107 -0.19139
0.290995 -0.411735 -0.20437
0.286767 0.288743 -0.20437
-0.166319 -0.003675 -0.19139
-0.752163 0.336546 -0.20437
-0.776324 0.114938 -0.19139
-0.409486 0.049122 -0.20437
0.353997 -0.214462 -0.20437
0.056849 -0.324399 -0.20437
-0.584095 -0.01211 -0.19139
0.042957 0.409697 -0.20437
-0.052235 -0.446292 -0.20437
0.236726 -0.07173 -0.20437
0.176303 0.411189 -0.19139
0.553592 -0.425175 -0.20437
0.354653 -0.076531 -0.19139
0.44858 0.187449 -0.19139
0.232753 0.330495 -0.19139
0.066119 -0.087563 -0.20437
0.417745 0.029698 -0.19139
-0.453903 0.326804 -0.19139
0.495297 0.50284 -0.19139
0.781894 0.285768 -0.19139
0.467579 0.256719 -0.20437
0.670043 -0.371954 -0.19139
-0.054577 0.319409 -0.19139
-0.326171 0.244344 -0.20437
0.395207 -0.190778 -0.19139
-0.492715 -0.115455 -0.20437
0.054386 -0.051132 -0.19139
-0.048923 0.427054 -0.19139
0.171416 0.075056 -0.19139
-0.325514 0.291964 -0.19139
-0.661524 -0.200235 -0.20437
0.402159 0.416717 -0.20437
-0.680863 0.489338 -0.19139
0.567168 0.128339 -0.20437
-0.41683 0.294778 -0.20437
0.011934 0.244332 -0.19139
0.212286 -0.422599 -0.20437
0.745624 -0.113369 -0.20437
0.006867 0.032496 -0.20437
-0.760604 -0.297342 -0.19139
-0.776818 0.372539 -0.20437
0.615777 -0.044819 -0.19139
-0.00869 -0.170994 -0.19139
-0.179641 0.192314 -0.19139
0.808707 -0.291457 -0.19139
0.603235 0.076407 -0.20437
-0.566436 -0.294812 -0.20437
-0.726702 -0.21706 -0.19139
-0.022327 -0.275184 -0.20437
0.102935 0.252742 -0.19139
0.405274 -0.149176 -0.19139
0.086803 0.293052 -0.20437
0.246651 -0.356145 -0.19139
-0.125854 0.17479 -0.20437
0.037537 0.04773 -0.19139
0.085994 -0.449291 -0.19139
-0.214775 0.416482 -0.19139
0.172513 0.450415 -0.20437
-0.306693 0.359983 -0.20437
0.726047 0.061351 -0.19139
-0.152719 -0.144034 -0.19139
-0.510082 0.09067 -0.19139
0.569632 -0.123898 -0.20437
0.444134 0.163999 -0.20437
0.08758 0.317782 -0.20437
-0.038038 0.36639 -0.19139
-0.66556 -0.071606 -0.20437
-0.665837 0.496045 -0.20437
0.118983 -0.120731 -0.20437
0.220977 0.153636 -0.19139
-0.241502 0.381373 -0.19139
0.756347 -0.407847 -0.20437
0.775491 0.37022 -0.19139
0.512031 0.21243 -0.20437
-0.530668 -0.344439 -0.20437
0.287423 0.502904 -0.20437
0.478535 0.188853 -0.20437
-0.402021 0.02634 -0.20437
0.697413 -0.208117 -0.19139
0.478905 -0.094733 -0.20437
-0.021367 -0.440999 -0.20437
-0.325657 -0.429508 -0.20437
0.609592 0.521412 -0.19139
0.153588 0.506643 -0.20437
0.10706 0.373608 -0.20437
0.53053 0.360316 -0.20437
0.441861 0.324179 -0.20437
0.503958 -0.161989 -0.19139
-0.377339 0.266226 -0.19139
-0.565474 0.035606 -0.20437
-0.468319 -0.267915 -0.20437
0.202366 0.130621 -0.19139
0.269438 -0.027643 -0.19139
0.463353 -0.006943 -0.19139
0.299571 0.206323 -0.20437
-0.170529 0.436837 -0.19139
-0.184359 -0.28639 -0.20437
0.587553 0.497717 -0.20437
0.307196 0.255062 -0.20437
0.239181 -0.437083 -0.20437
-0.362934 0.084376 -0.20437
0.436748 -0.179287 -0.20437
0.196903 0.492687 -0.19139
0.26333 0.48195 -0.20437
0.289525 -0.167638 -0.20437
0.765758 0.24321 -0.20437
0.188056 -0.422387 -0.20437
0.696452 0.488033 -0.20437
0.469946 0.124611 -0.20437
-0.478691 0.3151 -0.19139
-0.47488 0.279566 -0.19139
-0.214997 -0.15679 -0.20437
-0.426082 -0.153304 -0.20437
0.25348 0.305395 -0.19139
0.799683 -0.155117 -0.19139
0.704112 -0.438637 -0.20437
0.497761 -0.400939 -0.19139
0.154167 -0.445114 -0.19139
-0.133422 0.454696 -0.20437
0.261012 -0.270132 -0.20437
0.08999 0.514937 -0.20437
-0.133484 0.48524 -0.20437
0.463288 -0.333166 -0.19139
-0.579904 0.123573 -0.19139
-0.424719 0.464274 -0.19139
-0.637391 -0.104094 -0.20437
0.368237 -0.459238 -0.19139
0.582139 0.257025 -0.19139
0.099502 0.472168 -0.20437
0.424366 -0.039714 -0.20437
0.479504 0.159792 -0.20437
0.305341 -0.313993 -0.19139
-0.131468 0.24049 -0.20437
0.197133 0.346923 -0.20437
-0.737886 0.146035 -0.19139
0.096469 -0.099788 -0.19139
-0.562296 0.301995 -0.20437
-0.103642 0.379499 -0.19139
-0.308454 -0.263855 -0.20437
-0.707458 -0.158388 -0.20437
0.488423 -0.31733 -0.20437
-0.345741 0.001619 -0.20437
-0.006103 -0.377777 -0.19139
0.32555 -0.028692 -0.19139
-0.705238 -0.265467 -0.20437
0.7831 0.191482 -0.19139
0.138097 0.421433 -0.20437
-0.399409 -0.428894 -0.20437
0.23427 -0.12995 -0.19139
0.154881 -0.021452 -0.20437
0.699763 -0.017172 -0.19139
-0.650791 -0.478859 -0.194016
-0.043835 -0.467692 -0.221677
0.78113 -0.478859 0.060642
-0.812365 -0.476591 0.121076
-0.183558 -0.478859 0.082475
-0.361408 -0.478859 -0.159782
0.211497 -0.461553 -0.077409
0.843756 -0.463628 -0.221677
0.488068 -0.478859 0.052898
-0.601073 -0.461553 0.031715
0.640439 -0.478859 -0.105637
0.003807 -0.461553 -0.018483
-0.812365 -0.474637 -0.071621
-0.170934 -0.478859 -0.09608
0.148481 -0.478859 0.086917
0.303345 -0.468829 -0.221677
0.312681 -0.478859 0.05075
0.117908 -0.478859 -0.206193
0.391654 -0.461553 -0.086067
-0.481853 -0.478859 -0.064141
0.639924 -0.461553 0.123429
0.849091 -0.472698 -0.070387
-0.294677 -0.478859 -0.032077
-0.472291 -0.478859 0.080408
-0.799242 -0.478859 -0.209209
-0.047248 -0.478859 0.101715
0.563454 -0.478859 -0.211911
0.716203 -0.478859 -0.204442
-0.727932 -0.478859 0.030561
0.51389 -0.461553 -0.071674
0.375349 -0.478859 0.152923
-0.304622 -0.461553 0.096515
-0.667069 -0.478859 -0.069141
0.600036 -0.478859 0.004792
0.094524 -0.478859 -0.093707
0.728518 -0.461553 -0.042386
-0.104776 -0.461553 -0.011193
-0.574079 -0.478859 0.153503
-0.547313 -0.478859 -0.14902
-0.45322 -0.478859 -0.213867
-0.052036 -0.478859 -0.116408
0.404864 -0.478859 -0.210067
-0.673433 -0.478859 0.118437
-0.391417 -0.461553 -0.013315
0.242433 -0.478859 0.121578
-0.26312 -0.478859 -0.128121
0.097859 -0.478859 0.004509
0.220851 -0.478859 -0.17427
-0.741033 -0.461553 -0.131194
0.221061 -0.478859 0.028797
0.055841 -0.478859 0.087565
0.310826 -0.461553 -0.042287
0.405227 -0.478859 0.00109
0.312744 -0.478859 -0.132867
0.680867 -0.461553 0.035981
0.849091 -0.46626 0.118498
-0.197162 -0.478859 -0.002487
0.488096 -0.478859 -0.171682
-0.812365 -0.466428 0.032402
-0.585414 -0.461553 -0.054996
0.76434 -0.478859 -0.117147
-0.382695 -0.461553 0.071531
-0.11124 -0.461553 0.150808
-0.179673 -0.478859 -0.177401
-0.523856 -0.461553 0.017062
0.570149 -0.478859 0.07733
-0.31008 -0.461553 -0.220919
-0.572457 -0.466565 -0.221677
0.557177 -0.478859 -0.134846
-0.435425 -0.478859 -0.124099
-0.621448 -0.461553 -0.128036
0.045462 -0.476503 -0.221677
0.42186 -0.478859 0.083669
-0.718001 -0.475829 -0.221677
-0.734668 -0.461553 -0.050187
-0.500393 -0.461553 0.144105
0.841928 -0.478859 -0.14223
0.168454 -0.478859 -0.019654
-0.551484 -0.478859 0.085891
-0.259 -0.478859 0.031921
0.302103 -0.461553 0.156585
0.157219 -0.461553 -0.150639
-0.116365 -0.478859 -0.144116
-0.324914 -0.478859 -0.096066
0.706152 -0.478859 0.109288
-0.00356 -0.461553 0.049935
0.005233 -0.461553 0.14268
-0.7489 -0.478859 0.096424
-0.344729 -0.478859 0.156356
0.782666 -0.478859 -0.193085
-0.456723 -0.478859 0.015754
0.020047 -0.478859 -0.080723
-0.658476 -0.478859 0.004302
-0.106986 -0.461553 0.054353
0.581093 -0.461553 -0.077097
0.797119 -0.478859 -0.031663
0.688748 -0.461553 -0.147854
0.459668 -0.461553 -0.106898
0.508806 -0.461553 -0.00581
-0.81192 -0.478859 -0.146614
0.449117 -0.461553 -0.040839
-0.435895 -0.478859 0.137687
-0.171981 -0.478859 0.142886
0.140405 -0.461553 0.153246
-0.096057 -0.461553 -0.071774
-0.244206 -0.461553 0.105977
-0.130928 -0.467503 -0.221677
-0.22022 -0.461553 -0.065149
-0.338223 -0.478859 0.034524
0.246282 -0.478859 -0.031646
0.364392 -0.461553 0.083947
0.154323 -0.478859 -0.089091
-0.28743 -0.461553 0.155352
0.365274 -0.478859 -0.161533
-0.509514 -0.461553 -0.204292
0.6701 -0.461553 -0.054096
0.479176 -0.478859 0.121995
0.275468 -0.478859 -0.086549
-0.036166 -0.478859 -0.058024
0.078083 -0.478859 -0.149881
-0.782279 -0.478859 -0.021283
-0.538734 -0.478859 -0.083502
-0.628884 -0.478859 0.082962
-0.000192 -0.478859 -0.181614
0.103394 -0.461553 0.057798
-0.428108 -0.461553 -0.055907
-0.375493 -0.478859 -0.071678
-0.689372 -0.461553 -0.157159
0.794704 -0.478859 0.123063
0.510208 -0.466247 -0.221677
-0.490189 -0.478859 -0.155255
-0.054786 -0.461553 0.012359
-0.056199 -0.461553 0.153426
0.077848 -0.461553 -0.045095
-0.690038 -0.461553 0.065252
-0.075551 -0.478859 -0.179291
0.571608 -0.478859 0.142806
-0.247283 -0.478859 -0.179536
0.240446 -0.461553 -0.127289
0.556148 -0.478859 -0.025624
0.613839 -0.461553 -0.150164
-0.618785 -0.461553 0.131855
0.415934 -0.478859 -0.130315
-0.214107 -0.461553 -0.128209
-0.119258 -0.478859 0.101218
0.168317 -0.478859 0.039659
0.007351 -0.478859 -0.129935
-0.591783 -0.478859 -0.17355
0.166262 -0.478022 -0.221677
0.550489 -0.461553 0.033983
0.623403 -0.461553 0.075615
-0.165284 -0.461553 -0.037323
0.046632 -0.478859 0.038144
0.775046 -0.461553 0.010032
-0.528883 -0.478859 -0.0298
0.276449 -0.478859 0.008334
0.202169 -0.461553 0.072031
0.717363 -0.478859 -0.100386
-0.155729 -0.461553 0.01912
0.127241 -0.461553 -0.049429
-0.629934 -0.478859 -0.036139
0.084576 -0.461553 0.12362
0.744227 -0.461553 -0.167784
0.369334 -0.478859 0.034618
0.812203 -0.478859 -0.103314
-0.29304 -0.461553 -0.173661
-0.71018 -0.461553 -0.092329
0.262359 -0.478859 0.077104
0.356012 -0.461553 -0.207828
0.718038 -0.478859 0.001589
-0.343036 -0.461553 -0.012851
0.290826 -0.461553 -0.172025
0.522061 -0.478859 0.100398
-0.772533 -0.461553 -0.094853
-0.24024 -0.461553 -0.014043
0.645822 -0.478859 -0.009048
0.619837 -0.478859 -0.055239
0.610044 -0.478859 -0.203901
0.348204 -0.478859 -0.087964
-0.428315 -0.461553 0.080449
0.327089 -0.461553 0.010088
0.189286 -0.478859 -0.119626
-0.052832 -0.461553 0.059093
-0.765143 -0.461553 0.135984
0.312373 -0.478859 0.11508
0.362011 -0.478859 -0.015021
0.759908 -0.461553 0.097414
0.637812 -0.478859 0.035484
-0.323214 -0.461553 -0.140323
-0.695144 -0.461553 -0.029192
0.175276 -0.461553 0.118286
0.784153 -0.461553 -0.073229
0.046017 -0.478859 -0.019062
-0.263826 -0.461553 -0.074413
0.834845 -0.478859 0.06923
-0.43175 -0.478859 -0.174858
-0.224563 -0.478859 0.141973
-0.394066 -0.478859 0.0276
0.446177 -0.478859 0.038016
-0.222284 -0.478859 0.060833
-0.345452 -0.478859 0.09639
0.669184 -0.478859 0.085346
-0.037522 -0.461553 -0.165688
-0.578785 -0.461553 -0.118132
0.514929 -0.478859 -0.123653
-0.586598 -0.461553 -0.011369
0.260908 -0.478859 -0.220661
-0.740605 -0.461553 -0.186145
-0.513144 -0.478859 0.105983
-0.139782 -0.461553 -0.179921
-0.298355 -0.461553 0.007203
-0.127878 -0.478859 -0.097339
-0.508812 -0.478859 0.053393
-0.80508 -0.478859 0.072696
-0.555009 -0.478859 0.040276
-0.337116 -0.478859 -0.053408
0.836818 -0.478859 -0.01653
0.134779 -0.461553 0.015981
-0.470932 -0.461553 -0.0202
0.428346 -0.478859 -0.074356
-0.395625 -0.478859 -0.11043
-0.659549 -0.478859 -0.133271
0.804698 -0.461553 -0.150829
-0.210834 -0.47783 -0.221677
-0.611547 -0.478859 -0.213659
0.0099 -0.478859 0.105183
0.580453 -0.478859 -0.169177
0.658566 -0.478859 -0.211809
0.128553 -0.461553 -0.120752
0.465606 -0.461553 0.086986
0.753605 -0.472095 -0.221677
0.393785 -0.478859 -0.041192
-0.645136 -0.478859 0.043229
0.052054 -0.461553 -0.099933
-0.543704 -0.478859 -0.18977
-0.073158 -0.461553 -0.038042
-0.520761 -0.461553 -0.123395
0.353105 -0.461553 -0.126737
0.528724 -0.478859 -0.174332
-0.709342 -0.478859 0.137377
0.415927 -0.478859 0.152487
0.005109 -0.472703 -0.221677
-0.4277 -0.478859 -0.014356
0.71098 -0.461553 0.151096
0.656055 -0.478859 -0.162991
-0.184268 -0.478859 0.041041
0.47551 -0.461553 0.01718
-0.635705 -0.478859 -0.095125
0.190901 -0.461553 0.009433
0.427118 -0.461553 -0.17435
0.125244 -0.478859 -0.166739
-0.410457 -0.478859 -0.216976
0.31105 -0.461553 -0.084844
-0.676921 -0.469044 -0.221677
0.478237 -0.478859 -0.060703
0.126257 -0.478859 0.12102
-0.358592 -0.461553 -0.119608
0.70069 -0.461553 0.069375
0.05584 -0.461553 -0.187451
-0.273909 -0.478859 0.08045
0.588518 -0.478859 0.041561
0.546513 -0.461553 -0.094066
-0.557082 -0.461553 0.123588
0.179619 -0.478859 -0.06005
0.272997 -0.478859 -0.142607
-0.124013 -0.478859 -0.0397
-0.772672 -0.461553 0.061282
-0.090718 -0.478859 0.02412
-0.469588 -0.478859 -0.106476
-0.761843 -0.478859 0.011268
0.685885 -0.478859 -0.01944
-0.259695 -0.478859 -0.215825
0.746148 -0.478859 0.045598
-0.366889 -0.478859 -0.197424
0.03929 -0.478859 0.14401
-0.029282 -0.478859 -0.012081
0.835249 -0.478859 -0.179464
-0.463945 -0.461553 0.119306
0.605094 -0.461553 0.142609
-0.586399 -0.478859 0.061802
0.730403 -0.478859 -0.137363
0.265289 -0.461553 0.148991
0.511918 -0.461553 0.135502
0.362981 -0.461553 0.121258
-0.089269 -0.461553 0.087205
0.603203 -0.478859 -0.103131
-0.464435 -0.461553 -0.179071
-0.458926 -0.461553 0.048443
0.601722 -0.461553 0.105747
0.272987 -0.461553 0.109953
-0.077383 -0.478859 0.123157
0.765178 -0.461553 0.144118
-0.15052 -0.478859 -0.130304
-0.804706 -0.461553 -0.115011
-0.15118 -0.478859 0.065126
-0.305999 -0.461553 0.04309
0.585581 -0.461553 -0.038676
-0.140925 -0.478859 0.163178
-0.099797 -0.461553 -0.116708
0.685033 -0.478859 -0.082288
-0.259527 -0.478859 -0.04102
-0.735953 -0.461553 -0.013961
0.326236 -0.461553 -0.179761
-0.789008 -0.478859 0.160482
0.346632 -0.461553 -0.047312
0.242095 -0.478859 -0.069898
0.215554 -0.461553 -0.024945
-0.621175 -0.461553 -0.001943
-0.503926 -0.478859 -0.096922
0.547684 -0.478859 -0.06309
-0.781942 -0.478859 -0.166431
0.089562 -0.478859 -0.184932
0.314151 -0.461553 0.084335
0.243262 -0.461553 0.050045
0.711644 -0.478859 0.038571
-0.14966 -0.461553 0.09724
0.752978 -0.478859 -0.024287
-0.094911 -0.478859 -0.209476
-0.493019 -0.478859 0.00063
0.161141 -0.478859 -0.180711
0.03712 -0.461553 -0.047892
-0.658994 -0.461553 0.081259
-0.300806 -0.461553 -0.077961
0.508371 -0.461553 0.030658
-0.209002 -0.461553 -0.184173
-0.708573 -0.478859 -0.122336
0.503898 -0.478859 -0.037392
0.795849 -0.461553 -0.220033
0.102253 -0.478859 0.096109
-0.182168 -0.461553 -0.147558
-0.292757 -0.461553 -0.123888
0.537239 -0.478859 0.003487
-0.463 -0.461553 -0.142783
0.757534 -0.478859 -0.059677
-0.066509 -0.478859 -0.076064
0.204916 -0.478859 0.115918
0.669515 -0.478859 0.125867
-0.440773 -0.461553 -0.087749
0.797765 -0.461553 0.036111
0.241974 -0.461553 0.007943
-0.743099 -0.478859 -0.07846
-0.363331 -0.461553 0.014511
-0.775978 -0.461553 -0.060966
-0.595471 -0.478859 -0.082527
0.536741 -0.478859 0.069691
0.227018 -0.478859 -0.217545
0.652702 -0.461553 -0.132252
0.692801 -0.478859 -0.179756
-0.32249 -0.478859 -0.169499
-0.142866 -0.461553 -0.062706
0.38654 -0.461553 -0.121551
-0.548086 -0.478859 -0.00215
-0.657333 -0.461553 0.148108
0.824221 -0.461553 0.096406
-0.064283 -0.461553 -0.142467
-0.206828 -0.478859 0.106661
0.790569 -0.478859 0.157579
0.307908 -0.478859 -0.013769
0.041589 -0.461553 0.115502
0.27385 -0.478859 -0.050369
0.052439 -0.461553 0.01033
-0.228176 -0.461553 -0.097427
-0.812365 -0.4698 -0.032015
-0.584536 -0.478859 0.11676
-0.399762 -0.478859 -0.049145
-0.410898 -0.461553 0.052332
0.736712 -0.478859 0.135337
-0.767001 -0.478859 -0.216355
0.398134 -0.461553 -0.152648
-0.733609 -0.478859 -0.158272
0.710082 -0.461553 -0.069699
0.109722 -0.461553 -0.021783
-0.794287 -0.461553 0.005558
-0.518798 -0.461553 -0.055682
0.023743 -0.461553 0.067832
-0.289012 -0.478859 -0.201552
0.804169 -0.478859 0.000172
-0.023591 -0.478859 -0.140167
-0.530955 -0.478859 0.163909
-0.396368 -0.478859 -0.163131
0.426071 -0.478859 0.118411
0.652008 -0.478859 -0.074554
-0.604209 -0.461553 0.094652
0.47749 -0.471443 -0.221677
0.128286 -0.478859 0.047311
0.730078 -0.461553 0.086303
-0.185567 -0.478859 -0.054631
-0.506913 -0.461553 0.079952
-0.524612 -0.461553 -0.171263
-0.642561 -0.465696 -0.221677
0.272189 -0.461553 0.037104
-0.015017 -0.461553 0.010275
-0.680339 -0.461553 0.019267
-0.179576 -0.478859 -0.216926
0.104635 -0.478859 -0.063186
-0.217605 -0.461553 0.014263
-0.665666 -0.461553 -0.040282
-0.67317 -0.461553 -0.094733
0.262972 -0.478859 -0.189278
0.083696 -0.478859 0.040542
0.293662 -0.461553 -0.114933
-0.636281 -0.461553 -0.172306
0.067036 -0.461553 0.154405
-0.328256 -0.478859 -0.202239
0.014366 -0.461553 0.024312
0.052466 -0.461553 -0.144572
0.096403 -0.461553 -0.119595
0.779091 -0.478859 -0.146608
0.250124 -0.461553 -0.156916
-0.036249 -0.478859 0.030294
0.457466 -0.478859 -0.17633
0.688511 -0.478859 -0.122206
-0.110943 -0.478859 -0.174564
-0.368745 -0.478859 -0.025171
0.758695 -0.461553 -0.090549
-0.024327 -0.478859 -0.200724
0.627111 -0.478859 -0.173143
-0.250063 -0.461553 0.138419
0.640577 -0.478859 0.096369
-0.145899 -0.478859 -0.018445
-0.39021 -0.478859 0.143222
-0.718462 -0.478859 0.096881
-0.615586 -0.461553 0.061768
-0.199465 -0.461553 -0.087296
-0.555148 -0.461553 -0.052915
0.661965 -0.461553 0.149727
0.45233 -0.461553 -0.008579
0.024195 -0.461553 -0.176903
0.424705 -0.478859 -0.036316
-0.604323 -0.478859 0.15202
0.211291 -0.461553 -0.108176
0.789656 -0.478859 0.089635
-0.004651 -0.461553 -0.082303
-0.028257 -0.478859 -0.097904
0.143601 -0.461553 -0.198099
-0.772655 -0.461553 -0.129739
-0.120247 -0.478859 0.02728
-0.690643 -0.478859 -0.197237
-0.090657 -0.478859 0.16313
-0.028121 -0.461553 0.087334
-0.204227 -0.461553 -0.039743
-0.317652 -0.461553 0.157318
0.633006 -0.461553 0.011014
0.59453 -0.461553 -0.127962
0.438885 -0.461553 0.141814
-0.28174 -0.478859 0.132261
0.159944 -0.478859 -0.120299
-0.32883 -0.478859 0.072211
-0.584981 -0.478859 -0.140961
-0.601418 -0.478859 -0.111576
0.559232 -0.461553 -0.180755
0.286839 -0.461553 0.074039
-0.487667 -0.469878 -0.221677
0.346645 -0.478859 0.099118
-0.716136 -0.461553 0.010444
0.025595 -0.478859 0.001532
0.378301 -0.473903 -0.221677
0.506951 -0.461553 -0.145418
-0.409671 -0.461553 -0.182112
-0.151889 -0.478859 -0.205312
-0.289129 -0.478859 -0.146765
-0.565744 -0.461553 -0.163002
-0.379048 -0.478859 -0.136902
0.436549 -0.478859 -0.106666
-0.168734 -0.478859 0.114214
0.240249 -0.478859 -0.098688
0.200952 -0.461553 0.043225
-0.491456 -0.478859 -0.036965
-0.695381 -0.478859 -0.064381
-0.054279 -0.461553 -0.016415
0.109098 -0.461553 0.138547
0.283621 -0.461553 -0.029657
0.192614 -0.478859 -0.091121
-0.017841 -0.478859 0.112485
-0.082727 -0.478859 -0.005205
-0.497208 -0.461553 0.033781
-0.363983 -0.461553 0.043117
0.776318 -0.461553 -0.022409
-0.066039 -0.478859 0.0802
0.531918 -0.461553 -0.046724
0.077442 -0.461553 -0.206111
-0.284956 -0.478859 -0.061804
-0.006286 -0.478859 0.081414
0.721704 -0.478859 -0.166497
-0.258383 -0.478859 -0.000797
-0.187674 -0.478859 -0.125857
0.201621 -0.461553 -0.162815
-0.24448 -0.478859 0.083614
-0.024328 -0.461553 -0.033842
-0.716549 -0.461553 0.055533
0.630436 -0.478859 -0.133646
-0.314075 -0.461553 -0.04305
0.372345 -0.461553 0.004607
0.220263 -0.478859 -0.046611
0.126875 -0.478859 -0.095097
-0.639348 -0.478859 0.12373
-0.685776 -0.461553 0.100099
0.331442 -0.478859 -0.110457
0.442386 -0.478859 -0.221409
0.404803 -0.478859 -0.178521
-0.667028 -0.461553 0.045484
0.61947 -0.461553 -0.077242
0.84018 -0.478859 -0.102543
-0.730917 -0.461553 0.141522
0.392901 -0.478859 0.051474
0.461245 -0.461553 0.053787
-0.457637 -0.478859 -0.050444
0.849091 -0.471329 -0.040336
-0.399118 -0.461553 0.117378
0.652222 -0.478859 0.063395
0.486235 -0.461553 -0.024898
-0.130665 -0.461553 0.071627
-0.119863 -0.478859 -0.066976
0.476907 -0.461553 -0.128432
0.225855 -0.478859 0.062558
-0.241959 -0.461553 -0.124772
0.707248 -0.461553 -0.017983
0.660092 -0.478859 0.019319
0.341417 -0.461553 -0.156813
-0.400834 -0.478859 0.082758
0.221244 -0.478859 -0.136566
0.120455 -0.478859 0.07557
-0.719636 -0.478859 -0.182545
-0.131081 -0.461553 -0.121706
0.426641 -0.461553 0.063023
-0.242253 -0.478859 -0.145951
0.478646 -0.478859 -0.097493
0.25281 -0.478859 0.166945
-0.812365 -0.462878 0.097445
-0.733563 -0.478859 -0.111352
-0.248148 -0.478859 -0.104589
-0.761342 -0.478859 -0.045829
0.071934 -0.478859 -0.108947
-0.148329 -0.461553 -0.092358
0.526023 -0.478859 -0.089271
-0.300671 -0.478859 0.075348
0.100372 -0.461553 0.025381
-0.328729 -0.478859 0.002524
-0.083805 -0.478859 -0.153385
0.536603 -0.478859 -0.215591
0.191551 -0.478859 -0.21202
0.56931 -0.478859 0.104349
0.386276 -0.461553 -0.021957
0.673024 -0.461553 0.065062
-0.360913 -0.461553 -0.057095
0.096701 -0.471931 -0.221677
-0.538485 -0.478859 0.114848
0.73002 -0.461553 0.115934
-0.450646 -0.478859 0.096264
0.187577 -0.461553 0.166961
-0.035102 -0.461553 0.137031
0.368154 -0.461553 -0.073386
0.347117 -0.478859 0.019811
-0.210806 -0.461553 0.086734
0.074539 -0.461553 -0.004578
-0.235629 -0.461553 0.033893
-0.411785 -0.461553 -0.122588
0.065477 -0.478859 0.116979
0.283843 -0.478859 0.140973
0.157649 -0.478859 -0.043931
0.016371 -0.478859 0.046911
-0.185422 -0.461553 -0.018871
0.087656 -0.478859 -0.020019
-0.463374 -0.478859 0.159224
-0.034092 -0.461553 -0.078631
0.557285 -0.461553 0.001887
0.148407 -0.461553 -0.018308
0.801905 -0.478859 -0.173929
-0.165088 -0.478859 -0.000285
0.825463 -0.461553 -0.076445
-0.639056 -0.478859 -0.149932
0.494191 -0.478859 0.010236
-0.57793 -0.461553 0.09223
-0.430199 -0.461553 -0.214318
0.689138 -0.478859 -0.048635
-0.338373 -0.461553 0.137608
0.541524 -0.461553 0.096879
-0.364469 -0.478859 0.121217
0.385086 -0.461553 0.135467
0.76422 -0.461553 0.037653
0.293514 -0.478859 0.03289
0.618577 -0.461553 -0.221511
0.181542 -0.461553 -0.141189
0.150168 -0.461553 0.067462
0.849091 -0.464309 0.089041
0.371474 -0.478859 -0.109166
-0.025129 -0.461553 -0.117153
-0.572099 -0.478859 -0.094014
-0.255209 -0.461553 0.051038
0.446895 -0.461553 -0.079971
0.169465 -0.461553 -0.200549
0.756105 -0.461553 -0.190877
0.624063 -0.478859 0.146409
-0.085387 -0.478859 -0.093877
-0.490214 -0.478859 -0.181199
0.556224 -0.461553 0.063972
0.248611 -0.461553 0.10115
-0.087852 -0.478859 0.055934
0.800345 -0.478859 -0.131941
-0.13837 -0.461553 0.038214
0.36389 -0.478859 0.059825
-0.102318 -0.461553 0.126645
-0.299445 -0.478859 -0.10605
-0.513814 -0.478859 -0.1411
-0.546379 -0.461553 -0.125584
0.753445 -0.461553 -0.132721
-0.677275 -0.478859 0.143844
-0.191254 -0.461553 0.023411
0.224578 -0.478859 0.099472
-0.456501 -0.478859 -0.077292
0.526784 -0.478859 0.02678
-0.201917 -0.478859 0.153739
-0.714898 -0.461553 -0.159197
-0.128257 -0.478859 -0.195789
-0.66996 -0.478859 -0.018442
-0.192279 -0.461553 0.065972
0.384649 -0.478859 -0.194045
-0.698973 -0.478859 0.019073
-0.452874 -0.478859 -0.0108
0.598044 -0.461553 0.073942
-0.530447 -0.478859 -0.107533
-0.27069 -0.478859 -0.164211
0.578342 -0.478859 -0.098085
-0.273374 -0.478859 -0.090308
-0.300094 -0.461553 0.129792
0.013203 -0.461553 -0.154079
0.736813 -0.461553 -0.015291
0.77187 -0.461553 -0.163637
0.142278 -0.478859 -0.138394
-0.423882 -0.461553 0.1053
0.523646 -0.461553 -0.107489
-0.200495 -0.478859 -0.148479
-0.443481 -0.478859 0.058287
-0.096476 -0.478859 -0.027481
-0.371417 -0.461553 0.151536
-0.583771 -0.478859 -0.029239
0.291045 -0.461553 -0.143523
-0.760054 -0.461553 -0.169499
0.415994 -0.478859 0.027032
0.037231 -0.478859 -0.110093
0.695891 -0.478859 0.01305
0.567856 -0.461553 -0.120432
0.337507 -0.461553 0.075642
0.7857 -0.461553 0.107556
-0.065578 -0.461553 0.037692
-0.184997 -0.461553 0.100327
0.072114 -0.461553 -0.166726
0.167118 -0.461553 0.016719
0.196277 -0.461553 -0.053673
-0.475698 -0.461553 0.141439
-0.343726 -0.478859 -0.182335
-0.162419 -0.461553 -0.117106
0.676241 -0.461553 -0.169272
0.619149 -0.461553 -0.119955
0.812505 -0.478859 -0.207734
-0.093174 -0.461553 -0.180387
0.107621 -0.461553 -0.166413
0.124473 -0.478859 -0.012144
-0.613431 -0.461553 -0.042279
0.327286 -0.474809 -0.221677
-0.126456 -0.478859 0.124812
-0.307748 -0.478859 -0.010449
-0.557881 -0.461553 0.02295
0.666662 -0.461553 -0.111939
0.538858 -0.478859 0.15601
0.779893 -0.478859 -0.098057
-0.624817 -0.461553 0.038228
-0.22758 -0.478859 -0.203664
-0.01869 -0.478859 0.058738
-0.348375 -0.461553 0.079147
-0.758153 -0.478859 -0.139427
0.408745 -0.461553 0.095135
0.144898 -0.461553 -0.1736
-0.768624 -0.461553 -0.010519
-0.159205 -0.478859 -0.163878
0.569021 -0.461553 -0.156081
0.591563 -0.461553 -0.014897
0.618544 -0.478859 0.110042
-0.485949 -0.478859 -0.124721
-0.79069 -0.461553 -0.182882
-0.164125 -0.461553 0.158347
-0.643665 -0.461553 -0.079806
-0.449385 -0.461553 0.148451
-0.770109 -0.478859 0.119495
0.701114 -0.461553 0.125754
0.32701 -0.461553 0.124152
-0.524981 -0.478859 0.035155
-0.802192 -0.461553 -0.052566
-0.641968 -0.478859 0.155712
0.128772 -0.461553 0.104081
0.717378 -0.461553 -0.117509
0.292496 -0.478859 -0.189008
0.421742 -0.461553 0.009369
0.175742 -0.461553 -0.089491
0.6681 -0.461553 -0.081987
-0.495987 -0.478859 0.160418
-0.129099 -0.461553 -0.023614
-0.57526 -0.478859 -0.06929
0.379276 -0.461553 -0.170821
0.393633 -0.478859 -0.069409
0.297602 -0.478859 -0.09863
-0.13741 -0.461553 0.146791
-0.548459 -0.461553 -0.097133
-0.223927 -0.478859 -0.010391
-0.636375 -0.478859 -0.0089
0.849091 -0.474438 -0.198626
-0.766518 -0.478859 0.076792
-0.802762 -0.478859 -0.098441
0.018408 -0.461553 0.1216
-0.213896 -0.478859 -0.105798
-0.010636 -0.478859 0.026196
-0.761639 -0.461553 0.159632
0.210601 -0.461553 -0.218837
-0.412908 -0.478859 0.131231
0.562691 -0.461553 -0.056367
-0.672758 -0.478859 -0.181432
-0.062839 -0.461553 -0.092073
-0.512509 -0.478859 0.13309
0.417437 -0.461553 -0.104505
0.208341 -0.461553 0.098441
0.052801 -0.478859 -0.052214
0.104342 -0.461553 -0.080763
0.256057 -0.478859 -0.122872
0.29755 -0.461553 0.132303
0.769256 -0.478859 -0.0051
0.402799 -0.478859 0.132753
-0.217645 -0.461553 0.164254
-0.493314 -0.478859 0.118891
-0.55488 -0.461553 0.070121
-0.720204 -0.478859 -0.043053
-0.639032 -0.461553 0.095449
-0.618511 -0.461553 -0.104592
0.201448 -0.478859 -0.002652
0.008022 -0.461553 -0.05541
-0.350498 -0.478859 -0.105802
0.611841 -0.461553 -0.177871
-0.433332 -0.478859 -0.19865
0.191636 -0.461553 -0.19264
0.180474 -0.478859 0.059797
0.712431 -0.46334 -0.221677
0.680032 -0.461553 0.012052
-0.058508 -0.461553 -0.182907
0.371734 -0.478859 0.097962
0.093671 -0.461553 0.082866
0.790075 -0.478859 -0.058628
0.765051 -0.461553 -0.045851
-0.67454 -0.478859 0.089085
0.448013 -0.478859 -0.023619
-0.421136 -0.478859 -0.142521
-0.419818 -0.461553 -0.034117
-0.367145 -0.478859 0.070515
-0.285873 -0.461553 -0.012448
0.604043 -0.478859 -0.075335
0.237352 -0.461553 -0.044346
-0.336595 -0.478859 -0.132449
0.541934 -0.478859 -0.108862
-0.120011 -0.478859 -0.008594
0.530537 -0.461553 -0.013928
-0.331033 -0.478859 0.114527
0.130846 -0.461553 -0.152392
-0.657256 -0.461553 0.020875
0.529802 -0.461553 -0.159059
0.172792 -0.461553 -0.046363
0.603553 -0.461553 0.044276
0.076893 -0.461553 -0.094619
0.026521 -0.461553 -0.014949
0.023714 -0.478859 0.082925
-0.394542 -0.478859 -0.087503
0.067462 -0.478859 0.011427
0.505633 -0.478859 0.067642
0.372215 -0.461553 -0.139458
-0.060015 -0.461553 -0.062496
-0.169255 -0.461553 0.041052
0.680928 -0.478859 -0.199288
-0.058334 -0.478859 -0.036507
-0.650557 -0.478859 -0.045946
-0.47299 -0.461553 -0.091991
0.387179 -0.461553 0.085
-0.730406 -0.478859 0.006345
0.058404 -0.461553 0.07295
0.727094 -0.478859 -0.079797
0.535638 -0.461553 -0.197932
-0.609234 -0.461553 -0.170501
-0.03937 -0.478859 0.151149
-0.746149 -0.478859 -0.207289
0.349535 -0.478859 -0.06177
0.429407 -0.461553 -0.13724
-0.324125 -0.478859 0.141335
0.578793 -0.478859 -0.003231
-0.574252 -0.461553 0.053576
-0.684257 -0.478859 -0.085135
0.360991 -0.461553 0.162312
-0.011981 -0.461553 -0.211792
0.039644 -0.461553 0.051679
-0.241251 -0.461553 -0.213061
0.13768 -0.461553 -0.085256
0.385551 -0.478859 -0.145314
-0.278303 -0.478859 0.009886
0.598423 -0.478859 0.088474
0.395859 -0.478859 0.166481
-0.57869 -0.461553 0.009794
-0.793952 -0.478859 0.036437
-0.185802 -0.461553 0.146908
0.578852 -0.478859 -0.193236
0.805739 -0.461553 -0.043154
0.547554 -0.478859 0.048042
-0.113523 -0.461553 -0.097533
-0.313776 -0.461553 -0.10537
0.046014 -0.478859 0.166201
-0.721045 -0.461553 -0.068028
0.246113 -0.478859 -0.174464
-0.565149 -0.478859 -0.122369
0.812812 -0.478859 0.136305
-0.588324 -0.478859 0.039457
-0.767013 -0.461553 -0.199128
0.709745 -0.461553 -0.181799
-0.319641 -0.461553 -0.021365
0.502685 -0.478859 0.146273
0.402278 -0.478859 -0.112617
-0.704317 -0.461553 -0.049566
0.028348 -0.478859 0.023787
-0.35309 -0.461553 -0.199682
0.638144 -0.461553 0.148643
0.849091 -0.46169 0.146056
-0.741233 -0.461553 0.026461
0.161558 -0.478859 0.115975
0.671491 -0.478859 0.046218
-0.599274 -0.478859 -0.054881
-0.337725 -0.461553 -0.067237
-0.47104 -0.461553 -0.055533
-0.115101 -0.461553 0.014484
0.849091 -0.473372 0.053238
-0.502799 -0.461553 -0.070928
0.610708 -0.461553 -0.003865
0.445425 -0.461553 0.078021
0.549254 -0.478859 -0.166206
-0.606588 -0.478859 0.019207
0.707628 -0.478859 0.137751
0.497548 -0.461553 -0.049473
0.703947 -0.478859 -0.153464
0.521216 -0.461553 0.11554
0.195192 -0.461553 -0.014743
0.281008 -0.46994 -0.221677
0.511007 -0.478859 -0.158372
-0.326613 -0.461553 0.096704
0.810583 -0.478859 0.040566
0.310661 -0.478859 -0.176631
0.256112 -0.478859 0.045768
0.181719 -0.461553 0.08007
0.233432 -0.461553 0.13169
0.642012 -0.478859 -0.030645
-0.052829 -0.461553 0.089468
0.807425 -0.461553 0.013227
-0.046055 -0.461553 -0.130302
-0.173074 -0.461553 0.126861
0.52248 -0.478859 -0.19557
-0.234008 -0.461553 -0.19105
0.261941 -0.478859 0.100963
0.408886 -0.461553 -0.012863
-0.539552 -0.478859 -0.061694
-0.210004 -0.478859 -0.079299
0.088124 -0.461553 -0.066232
-0.184075 -0.478859 -0.078718
-0.036562 -0.461553 -0.195807
0.102236 -0.478859 -0.131419
0.678207 -0.461553 -0.030154
0.264019 -0.461553 0.012521
-0.471209 -0.478859 0.103097
-0.812365 -0.466445 -0.221134
-0.510266 -0.478859 -0.191404
-0.705379 -0.461553 -0.17884
-0.284611 -0.461553 -0.040144
-0.439517 -0.478859 -0.064051
-0.324371 -0.461553 0.054318
0.016511 -0.478859 -0.104303
0.339544 -0.461553 -0.078599
-0.285868 -0.461553 0.08487
-0.393341 -0.461553 -0.13359
0.156101 -0.461553 0.09708
0.835464 -0.478859 0.102288
-0.785479 -0.468107 -0.221677
-0.528842 -0.478859 0.061076
0.627908 -0.461553 -0.096952
-0.409213 -0.461553 -0.001377
-0.119165 -0.478859 0.167105
-0.270871 -0.478859 0.101641
0.024933 -0.478859 -0.051052
0.444851 -0.478859 0.156704
-0.792083 -0.478859 0.132331
0.733875 -0.463989 -0.221677
0.177364 -0.461553 -0.116073
-0.112719 -0.461553 -0.044913
-0.648245 -0.461553 -0.028007
-0.401032 -0.478859 0.059756
-0.559165 -0.461553 -0.185588
0.411166 -0.478859 -0.053399
-0.472155 -0.478859 -0.204261
-0.196643 -0.461553 -0.059938
0.645647 -0.461553 0.053032
-0.024557 -0.478859 -0.179518
0.17175 -0.461553 -0.00789
-0.213527 -0.478859 -0.172839
-0.229398 -0.461553 -0.032221
0.427172 -0.478859 0.050855
0.243427 -0.478859 0.020021
0.012416 -0.461553 -0.205259
-0.646359 -0.478859 -0.116739
0.79436 -0.461553 0.146063
-0.660721 -0.478859 0.057483
0.07637 -0.461553 0.104159
-0.219494 -0.461553 0.130984
-0.704912 -0.461553 -0.202891
0.38691 -0.478859 0.022924
-0.196062 -0.478859 0.124816
0.241998 -0.478859 0.08266
0.427899 -0.461553 -0.024694
-0.145047 -0.478859 0.006258
0.702789 -0.478859 0.15991
-0.043607 -0.461553 0.117746
0.557049 -0.461553 0.153257
-0.078797 -0.461553 -0.118343
0.77553 -0.461553 0.071262
0.757347 -0.461553 -0.006345
0.282708 -0.461553 -0.008656
0.089547 -0.478859 0.161832
0.629295 -0.478859 -0.212329
-0.630629 -0.478859 0.027828
0.313727 -0.461553 -0.063086
0.149847 -0.478859 0.146026
0.512356 -0.461553 0.158651
0.749148 -0.478859 0.102309
0.314037 -0.461553 -0.119768
0.691095 -0.478859 0.076225
-0.570959 -0.461553 0.13925
-0.072547 -0.461553 0.099782
0.138062 -0.478859 -0.211808
0.305158 -0.478859 0.076775
0.067553 -0.478859 -0.17755
0.226956 -0.461553 0.074237
-0.068897 -0.461553 0.131204
0.13802 -0.478859 -0.113897
0.415082 -0.478859 -0.090471
0.531757 -0.461553 0.059145
0.327389 -0.478859 0.164114
0.486623 -0.461553 0.034816
0.82186 -0.478859 -0.13662
-0.696455 -0.478859 -0.147981
0.619463 -0.478859 -0.034413
0.647982 -0.461553 -0.171305
-0.464678 -0.478859 0.13795
-0.36731 -0.478859 -0.093566
-0.6069 -0.461553 -0.02255
0.327306 -0.478859 -0.006356
-0.341183 -0.478859 -0.155074
0.329845 -0.461553 -0.139576
-0.334472 -0.461553 -0.039196
0.774199 -0.478859 0.126237
-0.446392 -0.478859 -0.141708
0.493163 -0.461553 -0.161449
-0.563579 -0.478859 -0.174196
-0.600902 -0.461553 -0.209601
0.341585 -0.461553 -0.105351
0.085987 -0.461553 0.146109
0.358172 -0.478664 -0.221677
-0.349378 -0.478859 0.001548
0.125371 -0.461553 -0.21462
-0.500988 -0.461553 -0.12932
-0.753943 -0.478859 0.136956
-0.573793 -0.461553 -0.144021
-0.538238 -0.461553 -0.023661
-0.545389 -0.478859 0.149235
0.382574 -0.461553 0.114971
0.141979 -0.461553 -0.063783
-0.467129 -0.478859 -0.153096
-0.446663 -0.461553 0.106632
-0.640256 -0.461553 -0.197493
-0.148964 -0.478859 0.041302
-0.254777 -0.461553 0.079679
-0.509481 -0.461553 -0.157422
-0.447748 -0.478859 0.034182
0.759109 -0.461553 0.16599
-0.812365 -0.462182 -0.158469
0.503098 -0.478859 0.108058
-0.743246 0.526734 -0.221677
0.836369 0.524937 -0.221471
-0.35416 0.542244 -0.200733
0.379249 0.537406 -0.221677
0.593478 0.524937 0.006093
0.030269 0.524937 0.094796
-0.561645 0.524937 0.029993
-0.182066 0.542244 -0.020851
0.237303 0.542244 -0.031927
0.185006 0.538841 -0.221677
-0.130234 0.542244 -0.221496
0.756291 0.542244 -0.065506
0.068258 0.542244 -0.08134
-0.573263 0.542244 -0.140041
0.69475 0.524937 0.137839
0.511392 0.542244 -0.130358
0.849091 0.527935 0.043212
-0.698549 0.524937 -0.071487
-0.713962 0.542244 0.07553
-0.061788 0.524937 -0.106648
-0.242302 0.524937 -0.137389
0.705601 0.542244 -0.212461
-0.450123 0.542244 -0.106961
0.034516 0.542244 -0.202658
0.154558 0.542244 0.072472
-0.267935 0.524937 0.072234
0.638978 0.542244 -0.106751
0.311183 0.542244 0.073773
0.280063 0.542244 -0.144939
-0.059735 0.542244 0.012215
-0.811754 0.542244 -0.095464
0.491396 0.542244 0.088889
-0.49539 0.53694 -0.221677
0.356539 0.542244 -0.047588
0.705795 0.524937 0.028601
-0.145109 0.542244 0.078813
-0.810907 0.542244 0.015778
0.48878 0.524937 -0.030431
0.169636 0.542244 -0.119011
0.849091 0.528447 -0.108984
0.573855 0.542244 -0.212654
-0.560349 0.524937 0.133949
-0.454672 0.542244 0.035303
-0.280918 0.524937 -0.043248
-0.199319 0.524937 0.162709
0.603714 0.542244 0.113434
0.239836 0.524937 0.133649
-0.350325 0.524937 -0.104559
0.470629 0.542244 -0.218572
-0.151428 0.542244 -0.108871
-0.53608 0.524937 -0.05862
0.106805 0.524937 -0.001914
-0.056918 0.542244 0.106783
-0.654416 0.542244 0.009952
0.770744 0.542244 -0.152811
0.42162 0.542244 -0.111574
-0.260535 0.533036 -0.221677
-0.79854 0.542244 0.101479
-0.674556 0.524937 -0.170418
0.767107 0.542244 0.084654
0.397994 0.542244 0.090446
-0.352912 0.542244 0.061906
0.232678 0.524937 0.052837
-0.634807 0.524937 0.08619
-0.810403 0.542244 -0.182663
-0.46201 0.542244 0.113748
0.570265 0.524937 -0.069104
-0.600739 0.542244 -0.211997
-0.625508 0.542244 -0.081302
0.782485 0.524937 0.007578
-0.005813 0.542244 -0.040176
-0.432341 0.542244 -0.181496
0.659205 0.542244 -0.02701
0.351578 0.524937 -0.136607
0.644143 0.524937 -0.17777
-0.10255 0.542244 -0.045904
-0.732435 0.542244 -0.010223
0.419546 0.542244 -0.013211
-0.344561 0.542244 0.136177
0.255901 0.542244 -0.214282
-0.182021 0.524937 -0.175113
-0.737211 0.524937 -0.136922
0.030442 0.542244 0.023525
0.827689 0.542244 -0.043057
0.092268 0.542244 -0.163139
0.700177 0.524937 -0.137087
0.170251 0.542244 -0.051175
0.534325 0.542244 0.033737
-0.086621 0.542244 -0.170069
0.165644 0.542244 0.140001
-0.450062 0.524937 -0.042685
-0.672313 0.542244 0.145362
0.352844 0.542244 0.018448
0.653214 0.524937 0.074794
-0.301317 0.542244 0.020272
-0.522867 0.524937 0.081955
0.286386 0.542244 -0.08124
0.335509 0.524937 0.13086
0.109574 0.525683 -0.221677
0.085157 0.524937 0.063389
0.569664 0.524937 -0.14727
0.545353 0.524937 0.129735
-0.220704 0.524937 -0.078302
0.767423 0.538341 -0.221677
0.285589 0.542244 0.0075
-0.314707 0.524937 -0.155986
-0.20952 0.524937 0.101489
-0.503721 0.542244 -0.138159
-0.014553 0.542244 -0.166165
0.696564 0.542244 -0.078247
-0.4067 0.542244 0.139169
-0.284059 0.542244 0.131217
0.229225 0.524937 -0.091534
-0.189417 0.524937 0.04253
0.457455 0.542244 0.032627
-0.581725 0.542244 -0.02581
0.162186 0.542244 0.007542
-0.134626 0.542244 0.136214
-0.499957 0.542244 -0.016433
-0.290108 0.542244 -0.097416
-0.002851 0.542244 0.138217
-0.011772 0.524937 0.057086
-0.393073 0.524937 -0.06405
0.52734 0.524937 -0.186827
-0.408167 0.542244 0.068522
-0.233838 0.524937 -0.01009
-0.540792 0.542244 -0.184905
0.146928 0.542244 -0.171726
0.327557 0.542244 -0.192682
-0.333371 0.542244 -0.02694
-0.062935 0.530346 -0.221677
0.104692 0.524937 0.114707
-0.398604 0.542244 -0.125678
-0.686204 0.542244 -0.220577
-0.407866 0.542244 0.005353
0.481308 0.542244 0.157736
-0.004989 0.542244 -0.093974
-0.618977 0.542244 0.135327
0.725694 0.542244 -0.021317
-0.662854 0.542244 -0.119638
0.469137 0.542244 -0.082148
-0.721447 0.524937 0.134179
0.590414 0.524937 0.065008
0.201087 0.524937 -0.168188
0.05563 0.524937 -0.028408
0.746705 0.524937 0.144249
0.42346 0.542244 -0.174811
0.538033 0.542244 -0.027267
0.849091 0.533574 -0.160792
-0.202198 0.535612 -0.221677
0.287606 0.542244 0.140374
0.123435 0.542244 -0.071142
0.717314 0.542244 0.074723
-0.621338 0.524937 -0.142742
0.472004 0.542244 -0.161642
0.791587 0.524937 -0.096509
0.381195 0.542244 0.141515
-0.808836 0.524937 0.149841
0.650362 0.542244 0.028646
-0.758639 0.524937 0.027715
-0.490629 0.542244 -0.065882
-0.120008 0.542244 6.6e-05
-0.5811 0.524937 -0.093247
0.618731 0.524937 -0.220609
-0.147592 0.524937 -0.051392
-0.308743 0.532235 -0.221677
-0.502583 0.524937 0.153844
-0.066752 0.524937 0.056633
0.100146 0.524937 -0.118904
0.547422 0.542244 0.085087
0.402404 0.542244 -0.061275
-0.762469 0.524937 0.07549
-0.696111 0.524937 0.025364
-0.13129 0.524937 -0.148034
0.195506 0.524937 0.087884
-0.498288 0.524937 0.03206
0.311002 0.524937 -0.045312
-0.052337 0.542244 -0.033956
0.234273 0.542244 -0.134521
-0.088497 0.524937 0.136152
0.05393 0.542244 -0.136896
0.380109 0.524937 -0.176796
-0.677264 0.542244 -0.034127
0.630512 0.524937 -0.064769
0.416658 0.524937 0.051935
0.795912 0.542244 0.048174
-0.767287 0.542244 0.134955
-0.663214 0.542244 0.054789
0.647475 0.524937 0.120011
-0.605321 0.524937 0.017621
0.441761 0.542244 0.101986
-0.781559 0.524937 -0.152406
-0.448871 0.524937 -0.219626
0.591721 0.542244 -0.112362
0.823653 0.542244 0.007733
-0.19371 0.542244 -0.123132
0.244871 0.542244 0.092982
-0.312163 0.542244 0.079634
0.496502 0.524937 0.018284
-0.005474 0.524937 0.004437
0.815277 0.524937 0.083787
-0.765117 0.524937 -0.085876
-0.229379 0.542244 0.060419
-0.264302 0.524937 -0.178749
0.741689 0.524937 -0.122984
0.321162 0.524937 -0.105128
-0.001682 0.526693 -0.221677
-0.234278 0.542244 0.14295
0.745788 0.542244 0.026364
-0.472042 0.524937 -0.177056
0.430926 0.524937 -0.214006
0.128578 0.542244 0.035093
-0.356025 0.542244 0.009867
-0.559671 0.529859 -0.221677
0.788386 0.524937 -0.04277
0.384637 0.524937 -0.096065
-0.134656 0.524937 0.041178
0.526263 0.524937 -0.094259
-0.109233 0.542244 -0.107309
-0.014798 0.524937 0.09916
-0.180553 0.542244 -0.078389
-0.808327 0.542244 -0.042345
-0.513131 0.524937 -0.096984
0.661294 0.542244 -0.143596
-0.711486 0.542244 -0.180103
-0.73724 0.542244 -0.059856
0.034985 0.524937 -0.099552
0.194365 0.524937 0.027544
-0.71461 0.542244 -0.105799
-0.280324 0.542244 -0.137853
0.781092 0.524937 0.121185
-0.60176 0.524937 0.061301
0.38199 0.524937 -0.01999
-0.800345 0.524937 0.059306
0.348228 0.524937 0.070244
-0.452705 0.524937 0.07785
-0.533396 0.524937 -0.000805
0.250878 0.542244 -0.172984
-0.096742 0.542244 0.032841
-0.173143 0.524937 0.118414
-0.637999 0.542244 -0.041396
0.626129 0.524937 0.153661
0.454937 0.542244 -0.042239
-0.741297 0.542244 0.104252
-0.038413 0.542244 -0.071077
-0.463748 0.542244 0.153353
-0.375456 0.524937 -0.15266
-0.402827 0.542244 -0.20774
-0.320197 0.524937 -0.078588
-0.25326 0.524937 0.108871
0.06531 0.524937 0.113702
-0.384455 0.524937 0.105317
-0.443407 0.524937 -0.147955
-0.779168 0.542244 -0.206418
0.696188 0.524937 -0.040519
0.140228 0.542244 0.10895
-0.678376 0.542244 0.091795
0.042037 0.542244 0.060892
0.603446 0.524937 -0.166739
0.023475 0.524937 -0.16956
0.22449 0.524937 0.002909
0.067106 0.542244 0.004475
0.378505 0.542244 0.047619
-0.032048 0.524937 -0.136342
0.130878 0.542244 -0.033467
0.630346 0.524937 -0.004209
0.313259 0.542244 0.033879
-0.274543 0.524937 -0.00556
-0.617998 0.524937 -0.1808
-0.246911 0.542244 -0.0426
0.817128 0.542244 -0.124289
0.590583 0.542244 -0.042149
-0.524164 0.542244 0.1279
0.276426 0.524937 0.039932
-0.416407 0.542244 -0.08983
0.510293 0.542244 -0.215594
-0.111225 0.524937 0.106698
-0.161336 0.542244 -0.20058
-0.186727 0.542244 0.077903
0.318592 0.542244 -0.013466
0.730343 0.542244 0.115963
-0.559049 0.542244 0.10137
-0.253317 0.542244 -0.094563
0.137793 0.524937 -0.11211
0.822757 0.542244 -0.185049
0.019682 0.542244 -0.066742
0.831217 0.524937 -0.075245
-0.488009 0.542244 0.087851
0.329832 0.542244 -0.072742
0.277458 0.524937 -0.030529
-0.310349 0.524937 0.149918
-0.121461 0.524937 -0.189024
-0.779881 0.542244 -0.003586
-0.063905 0.542244 -0.140841
0.657476 0.524937 -0.211699
-0.812365 0.542028 -0.221221
-0.413368 0.524937 -0.02607
0.750935 0.524937 -0.19089
0.629948 0.524937 -0.138136
0.273883 0.524937 0.105804
-0.812365 0.525402 -0.13356
-0.661334 0.542244 -0.076796
-0.649617 0.542244 0.114103
0.559559 0.524937 -0.10789
-0.31885 0.524937 0.110446
-0.705266 0.542244 -0.140401
0.12341 0.524937 0.076042
0.513744 0.524937 0.05735
0.00534 0.542244 -0.128174
0.51133 0.524937 0.14061
0.475768 0.542244 -0.126171
-0.506964 0.524937 -0.169894
0.731629 0.524937 -0.088896
0.802957 0.538596 -0.221677
-0.223277 0.542244 0.019074
0.530338 0.524937 -0.057255
0.200581 0.524937 -0.057357
-0.06776 0.524937 -0.060765
0.414553 0.524937 0.141189
0.616647 0.542244 0.048726
-0.641416 0.535036 -0.221677
-0.35325 0.542244 0.101907
-0.455105 0.524937 -0.007785
0.192335 0.542244 -0.09206
0.55836 0.524937 0.015075
0.388225 0.524937 0.014432
-0.741647 0.524937 -0.178156
0.699638 0.524937 0.099222
0.120762 0.524937 -0.186813
0.574432 0.524937 0.106034
0.663634 0.542244 -0.067141
-0.043527 0.542244 -0.195496
0.103201 0.524937 -0.045093
-0.127273 0.524937 -0.083324
-0.304334 0.524937 0.050694
0.161295 0.524937 -0.197919
-0.54715 0.524937 -0.102631
-0.624539 0.542244 0.042101
-0.37883 0.542244 0.159337
0.258974 0.524937 -0.069729
-0.024178 0.542244 0.027377
-0.483659 0.542244 -0.099963
-0.317165 0.542244 -0.126617
0.689408 0.524937 0.065469
0.681483 0.542244 -0.108759
0.556971 0.524937 0.057429
-0.349013 0.542244 -0.073613
-0.774771 0.542244 -0.124114
-0.094528 0.542244 -0.202973
-0.54842 0.542244 -0.031476
0.560885 0.524937 -0.182844
0.685918 0.542244 -0.185045
0.356845 0.542244 0.164877
-0.166277 0.524937 0.003367
-0.566283 0.542244 0.058311
0.289381 0.542244 -0.213486
0.515882 0.524937 0.10761
0.180636 0.524937 -0.024695
0.205754 0.524937 -0.117091
0.217595 0.542244 -0.216111
-0.420068 0.542244 -0.053637
0.493855 0.524937 -0.101553
-0.400894 0.542244 -0.170824
0.208569 0.542244 0.163536
0.669948 0.524937 0.008325
0.172942 0.524937 -0.147011
0.449723 0.524937 -0.136742
-0.340065 0.524937 0.036927
0.735896 0.524937 -0.220233
