-0.014947 0.240288 -0.151595
0.140469 -0.057978 -0.155089
0.002344 -0.468528 -0.155089
-0.004202 0.452561 -0.155089
-0.034806 0.376486 -0.151595
-0.467581 -0.419777 -0.151595
-0.661451 0.571711 -0.155089
-0.419049 -0.518908 -0.155089
0.554831 0.236075 -0.155089
0.300675 0.319592 -0.151595
0.453674 -0.176347 -0.155089
-0.469805 -0.099164 -0.155089
-0.031335 0.194833 -0.155089
-0.487506 0.644265 -0.155089
0.136554 -0.568655 -0.151595
0.055493 -0.21277 -0.155089
0.418306 -0.711739 -0.155089
0.521026 0.616446 -0.155089
0.529187 -0.307083 -0.151595
0.074586 0.442542 -0.151595
0.388337 0.642387 -0.155089
-0.25136 -0.296817 -0.155089
0.215762 -0.246172 -0.155089
0.250172 -0.686812 -0.155089
-0.306315 0.404233 -0.155089
0.039053 0.542677 -0.155089
-0.328734 -0.574747 -0.151595
0.107152 -0.267435 -0.155089
-0.509202 0.253788 -0.151595
0.078771 -0.634866 -0.151595
0.368798 -0.143751 -0.155089
-0.040567 -0.030897 -0.155089
-0.358964 0.397082 -0.151595
-0.630649 -0.655176 -0.155089
0.519683 -0.718473 -0.151595
0.271246 -0.090755 -0.151595
-0.18512 0.162841 -0.155089
-0.00068 -0.652516 -0.151595
0.65871 0.222321 -0.155089
0.25855 0.318824 -0.155089
-0.597766 -0.086097 -0.151595
0.508988 0.497682 -0.151595
0.259868 -0.202056 -0.151595
-0.234456 0.46336 -0.155089
-0.032064 0.051946 -0.151595
-0.480616 0.46309 -0.151595
0.557192 -0.682065 -0.151595
0.60269 -0.4556 -0.151595
-0.485432 -0.671787 -0.151595
0.284157 0.466249 -0.151595
0.223684 0.645119 -0.151595
0.153064 0.632463 -0.155089
0.005047 0.588508 -0.155089
-0.105385 0.4952 -0.155089
0.120809 0.077352 -0.155089
-0.626113 -0.171039 -0.151595
-0.514344 0.488381 -0.155089
0.405123 0.303652 -0.155089
-0.402718 0.529171 -0.155089
-0.139606 0.636297 -0.155089
0.060659 0.377489 -0.151595
0.395187 0.009507 -0.155089
0.654952 -0.732161 -0.124442
0.606856 -0.731684 -0.12364
0.032305 -0.350066 -0.155089
-0.379109 -0.204519 -0.151595
-0.567644 -0.454423 -0.151595
-0.541144 -0.352466 -0.151595
0.33154 0.182699 -0.151595
0.122974 0.238349 -0.155089
-0.034029 0.114789 -0.151595
0.374829 0.181831 -0.151595
-0.568472 -0.57408 -0.155089
-0.632263 -0.108929 -0.155089
0.599365 0.185838 -0.151595
-0.618162 0.263766 -0.151595
0.029994 -0.013817 -0.151595
0.049925 -0.538967 -0.155089
0.65108 0.526657 -0.155089
-0.339932 -0.149298 -0.151595
0.185027 0.207761 -0.155089
0.038579 0.301334 -0.155089
0.213279 -0.328509 -0.151595
-0.260735 0.014151 -0.155089
-0.005858 -0.724336 -0.151595
-0.086808 -0.288487 -0.155089
-0.651878 -0.388443 -0.151595
0.668519 -0.681967 -0.155089
-0.212034 0.085596 -0.151595
0.282794 -0.289845 -0.155089
-0.670809 -0.505882 -0.155089
-0.409924 0.400809 -0.151595
0.13385 0.437925 -0.151595
-0.171116 -0.018562 -0.151595
-0.588957 0.487573 -0.151595
0.16806 0.156312 -0.155089
-0.081659 -0.421076 -0.155089
0.210313 0.058167 -0.155089
-0.289995 0.039426 -0.151595
-0.14008 -0.44142 -0.151595
0.207059 -0.732161 -0.125984
0.433589 0.006825 -0.155089
-0.287232 -0.700992 -0.12364
-0.230537 -0.658935 -0.151595
0.597878 -0.632089 -0.155089
0.031671 0.225284 -0.155089
-0.643848 -0.554526 -0.151595
-0.469211 -0.186558 -0.155089
0.286964 -0.357274 -0.151595
-0.176109 0.115936 -0.155089
-0.345982 0.459922 -0.155089
-0.454628 -0.32944 -0.155089
-0.170886 0.663275 -0.155089
-0.078385 0.318255 -0.151595
-0.547774 0.191424 -0.155089
0.325941 0.504467 -0.155089
-0.121303 -0.727108 -0.12364
0.166923 -0.225249 -0.155089
0.671235 -0.420657 -0.151595
0.043212 0.049505 -0.155089
-0.256411 -0.159876 -0.155089
-0.100305 0.61963 -0.155089
0.525531 -0.065613 -0.155089
0.589654 -0.37789 -0.151595
0.652562 0.320451 -0.155089
-0.305858 0.33473 -0.151595
-0.649732 0.320529 -0.151595
-0.230418 0.322017 -0.155089
-0.673809 -0.725038 -0.12364
-0.232827 0.601875 -0.151595
0.513346 0.238995 -0.151595
0.491725 -0.669 -0.155089
-0.185837 0.282168 -0.151595
0.299025 -0.728618 -0.12364
-0.229006 -0.723527 -0.12364
-0.234572 -0.224465 -0.151595
-0.054189 -0.580718 -0.155089
0.563457 -0.199261 -0.151595
-0.42647 0.072398 -0.155089
-0.474639 0.542278 -0.155089
0.078296 0.64214 -0.155089
-0.582338 0.276484 -0.155089
-0.072271 0.193197 -0.151595
-0.61859 -0.689989 -0.151595
-0.655984 0.167239 -0.151595
-0.144661 0.051957 -0.151595
0.533989 -0.38906 -0.151595
0.20968 -0.465159 -0.155089
-0.290311 0.268063 -0.151595
-0.098449 0.45424 -0.151595
-0.512585 0.050979 -0.151595
0.584481 0.058574 -0.151595
-0.288141 0.566509 -0.155089
0.474099 0.109988 -0.151595
-0.411464 0.23403 -0.151595
0.543855 -0.493286 -0.151595
0.561972 -0.001276 -0.151595
-0.070797 -0.695241 -0.151595
0.151123 0.591503 -0.151595
-0.404937 -0.679296 -0.155089
0.502661 0.375639 -0.151595
-0.139785 0.219355 -0.151595
-0.023657 0.530834 -0.151595
-0.010965 -0.597196 -0.155089
-0.623035 0.570955 -0.151595
0.081008 0.299742 -0.151595
0.538753 -0.589838 -0.151595
0.251662 0.121811 -0.151595
-0.540394 -0.216751 -0.155089
-0.350453 -0.721607 -0.12364
-0.292639 -0.461141 -0.151595
0.358111 -0.288401 -0.155089
0.284144 0.247207 -0.155089
-0.655378 0.52997 -0.151595
0.447728 -0.215886 -0.151595
-0.284024 -0.024703 -0.151595
-0.517636 -0.02301 -0.155089
-0.237126 0.151414 -0.155089
0.581701 0.622444 -0.151595
0.2206 0.278952 -0.155089
-0.381248 -0.590411 -0.151595
-0.257129 -0.480076 -0.155089
-0.459301 -0.723824 -0.12364
-0.621882 0.345432 -0.155089
0.286166 -0.43165 -0.155089
-0.316455 0.646806 -0.151595
-0.275234 -0.683682 -0.155089
0.400886 -0.31685 -0.155089
0.345435 -0.580932 -0.151595
0.25975 -0.020167 -0.155089
0.566844 -0.339137 -0.151595
0.187544 -0.16107 -0.151595
-0.160471 0.570632 -0.155089
-0.342091 -0.185028 -0.155089
0.471367 -0.341001 -0.151595
-0.142048 -0.290489 -0.155089
-0.296648 -0.343781 -0.155089
0.117842 0.540879 -0.155089
-0.10591 0.349702 -0.155089
0.572657 -0.260247 -0.151595
-0.328351 0.499021 -0.151595
0.683269 -0.349098 -0.155089
0.32361 0.118539 -0.151595
0.09305 -0.732161 -0.124469
-0.471174 -0.473102 -0.151595
0.1552 -0.70848 -0.151595
-0.2583 -0.339271 -0.155089
-0.656933 0.645856 -0.155089
0.465713 -0.43756 -0.155089
0.456061 0.28904 -0.155089
0.143406 -0.252006 -0.155089
0.498343 -0.724064 -0.12364
0.245512 -0.536395 -0.155089
0.458182 -0.605946 -0.155089
-0.345174 -0.499174 -0.155089
0.623063 -0.686526 -0.151595
0.649553 -0.129409 -0.155089
-0.456303 0.231604 -0.151595
-0.553108 -0.642398 -0.151595
-0.419469 -0.63874 -0.155089
0.110138 -0.337044 -0.155089
0.626997 -0.305851 -0.155089
-0.232676 -0.133935 -0.151595
-0.48259 0.2847 -0.151595
-0.504653 0.583991 -0.155089
0.309303 0.642214 -0.151595
-0.36045 0.350896 -0.151595
0.417349 0.155567 -0.155089
0.523868 0.321873 -0.155089
-0.283123 0.202043 -0.151595
-0.673544 0.466797 -0.151595
0.152922 -0.625202 -0.151595
0.43121 0.469213 -0.151595
0.498355 -0.026178 -0.155089
-0.373824 -0.324839 -0.151595
-0.147212 0.389371 -0.151595
0.309201 -0.468077 -0.155089
0.376121 0.419971 -0.155089
-0.404296 -0.714129 -0.155089
-0.016388 -0.08251 -0.155089
0.069546 0.580325 -0.151595
-0.592405 0.39698 -0.155089
-0.413193 0.18652 -0.155089
0.17889 -0.385237 -0.151595
0.293807 0.082671 -0.155089
-0.563639 -0.138714 -0.155089
0.07451 -0.445171 -0.155089
-0.539558 -0.434328 -0.155089
0.451019 -0.691182 -0.155089
-0.55923 0.331943 -0.151595
-0.596822 -0.613177 -0.151595
0.263615 -0.137362 -0.155089
0.600495 0.578953 -0.155089
0.618312 0.341091 -0.151595
0.654569 -0.251579 -0.151595
-0.15798 -0.374162 -0.155089
0.530727 -0.186671 -0.151595
0.186448 0.338821 -0.155089
-0.028491 -0.406256 -0.151595
0.176366 -0.53184 -0.155089
-0.070372 -0.474755 -0.155089
0.336765 0.422903 -0.155089
-0.324088 0.11342 -0.155089
-0.117354 0.152649 -0.151595
0.428473 0.073643 -0.151595
0.245753 -0.28428 -0.151595
0.136572 -0.149706 -0.151595
-0.445351 0.373196 -0.151595
-0.113567 -0.356458 -0.151595
0.479062 0.026569 -0.151595
-0.499033 0.324604 -0.155089
0.085351 -0.534766 -0.155089
0.254571 -0.368335 -0.151595
-0.408131 -0.456408 -0.155089
-0.142761 0.352447 -0.155089
0.276802 -0.622323 -0.151595
-0.032602 -0.527824 -0.155089
0.169712 0.472873 -0.155089
-0.267395 0.598015 -0.151595
-0.464249 -0.291514 -0.155089
-0.13999 0.106129 -0.155089
-0.651178 -0.472064 -0.155089
0.664604 -0.457266 -0.151595
-0.216421 -0.42276 -0.155089
0.212654 -0.011261 -0.155089
-0.42927 -0.113614 -0.151595
-0.506041 -0.527655 -0.151595
0.037585 -0.072595 -0.155089
-0.256773 0.269579 -0.155089
-0.170113 -0.184411 -0.155089
-0.444677 0.02572 -0.155089
0.550823 -0.70493 -0.12364
-0.575951 -0.274789 -0.151595
-0.244441 0.524537 -0.155089
0.022465 0.646568 -0.155089
-0.378965 0.019531 -0.151595
-0.155573 -0.732161 -0.129782
-0.009372 0.306552 -0.155089
-0.541694 0.076651 -0.151595
-0.342217 0.425814 -0.155089
0.508451 -0.128953 -0.155089
-0.545068 -0.48698 -0.155089
0.593589 0.506182 -0.155089
0.203671 0.426606 -0.155089
-0.598177 -0.440184 -0.155089
-0.612314 0.63064 -0.151595
0.398861 0.259231 -0.155089
0.616781 -0.597673 -0.155089
0.597866 -0.419121 -0.151595
0.589987 -0.179609 -0.155089
-0.647188 -0.723197 -0.151595
0.608174 -0.513825 -0.151595
-0.049023 -0.153595 -0.151595
0.161754 -0.438059 -0.151595
0.647739 0.030897 -0.155089
0.190243 -0.697219 -0.132629
-0.028411 0.493386 -0.151595
0.684002 0.463439 -0.153365
-0.434443 0.124012 -0.155089
-0.008371 0.171191 -0.155089
0.474853 0.439354 -0.155089
0.415251 -0.577042 -0.151595
-0.300585 -0.558042 -0.155089
0.419907 -0.398888 -0.151595
0.441168 0.225022 -0.155089
-0.006806 0.096744 -0.155089
-0.665419 -0.579259 -0.151595
0.033376 0.080553 -0.151595
-0.61188 -0.220169 -0.155089
0.589127 0.257461 -0.155089
0.18831 -0.307696 -0.155089
0.238506 -0.498979 -0.151595
-0.383342 0.054363 -0.151595
-0.43326 -0.555158 -0.155089
-0.627608 -0.411678 -0.155089
0.354796 -0.705841 -0.12364
0.033516 -0.30353 -0.151595
0.43811 -0.355459 -0.151595
0.036092 -0.475435 -0.151595
-0.610019 -0.478939 -0.151595
0.450577 -0.144033 -0.155089
0.652267 -0.623294 -0.151595
-0.437599 -0.486881 -0.155089
0.149199 -0.500372 -0.151595
-0.360546 -0.467612 -0.151595
-0.305488 -0.069942 -0.155089
-0.183662 -0.057048 -0.151595
-0.028435 -0.30193 -0.151595
-0.256448 -0.20097 -0.155089
-0.051273 0.651897 -0.155089
-0.265406 0.167555 -0.155089
0.092864 -0.143272 -0.155089
-0.432443 0.327833 -0.155089
0.667652 -0.714147 -0.155089
-0.218042 -0.535678 -0.151595
-0.580321 0.537624 -0.151595
-0.161353 0.450568 -0.151595
0.647994 0.115762 -0.155089
-0.604927 0.138426 -0.155089
0.485059 0.548669 -0.151595
0.47486 0.349964 -0.155089
0.165625 0.401063 -0.151595
-0.318467 0.068818 -0.151595
0.552821 0.06674 -0.155089
0.370595 0.502041 -0.155089
-0.600181 0.053828 -0.155089
-0.558395 -0.515845 -0.151595
0.230065 -0.438145 -0.151595
-0.316909 -0.291085 -0.155089
-0.520964 -0.698944 -0.12364
0.550796 0.383023 -0.155089
0.313104 0.533735 -0.155089
-0.105975 -0.165671 -0.155089
0.402339 -0.451743 -0.151595
-0.526315 -0.15094 -0.151595
-0.351026 -0.107337 -0.155089
-0.412556 -0.141166 -0.151595
0.037238 -0.179492 -0.155089
-0.23668 -0.702026 -0.151595
-0.639924 0.287781 -0.151595
-0.400862 0.635778 -0.151595
0.508281 0.64556 -0.155089
0.511593 -0.256095 -0.155089
-0.362713 0.118408 -0.155089
-0.496881 0.181919 -0.151595
-0.238614 0.232494 -0.155089
0.328746 -0.155291 -0.151595
0.645609 0.599475 -0.155089
-0.363813 0.176163 -0.151595
0.091182 -0.240051 -0.155089
-0.060353 -0.665328 -0.151595
0.035975 0.151613 -0.155089
0.245892 -0.635072 -0.151595
0.070847 -0.590038 -0.155089
-0.365423 -0.260679 -0.155089
0.428711 -0.640149 -0.151595
-0.203189 0.411181 -0.155089
0.654725 -0.29112 -0.151595
0.182618 0.568995 -0.151595
0.369889 0.459318 -0.155089
-0.194336 0.038361 -0.151595
0.215106 0.217204 -0.155089
0.018778 -0.407375 -0.151595
-0.23854 -0.573702 -0.151595
-0.196166 -0.599353 -0.155089
0.132407 0.347485 -0.155089
-0.653576 0.352434 -0.155089
0.624287 -0.236693 -0.151595
-0.035477 -0.644299 -0.155089
-0.522871 0.641105 -0.151595
-0.381857 -0.391199 -0.155089
0.31875 -0.186832 -0.155089
0.264448 0.093081 -0.151595
0.480122 -0.193158 -0.155089
0.655655 0.483413 -0.155089
-0.442573 -0.401008 -0.151595
0.254524 -0.056421 -0.155089
-0.304569 0.228068 -0.151595
0.628671 0.055645 -0.155089
0.591825 0.651951 -0.151595
0.423634 0.584574 -0.151595
0.627745 0.221031 -0.151595
-0.004237 -0.006174 -0.155089
-0.586404 -0.723023 -0.12364
-0.492723 -0.000448 -0.155089
-0.306292 0.301096 -0.155089
-0.206679 -0.21057 -0.151595
0.624855 -0.204429 -0.151595
-0.037276 0.620706 -0.155089
0.053825 0.188191 -0.151595
0.500061 0.128322 -0.151595
0.558542 0.200156 -0.155089
0.197035 -0.105751 -0.155089
0.157857 -0.293948 -0.155089
0.328829 -0.03542 -0.155089
0.362056 0.001988 -0.155089
-0.635737 -0.039249 -0.155089
0.006916 0.52547 -0.151595
-0.416112 -0.712772 -0.12364
0.260733 0.486289 -0.155089
-0.554034 -0.380451 -0.155089
-0.083811 -0.021829 -0.151595
-0.426106 -0.363327 -0.151595
0.09057 0.043907 -0.155089
-0.660898 -0.097638 -0.151595
0.496952 -0.092948 -0.151595
0.226347 0.139392 -0.151595
-0.526538 0.408752 -0.155089
0.58337 0.123356 -0.151595
0.387246 -0.242591 -0.155089
0.024887 0.462549 -0.155089
-0.243443 -0.033814 -0.155089
0.543605 -0.128862 -0.155089
-0.332693 -0.711164 -0.151595
-0.168618 -0.637325 -0.151595
-0.194166 0.532329 -0.151595
-0.311481 -0.615063 -0.155089
-0.528861 -0.692582 -0.155089
-0.375986 -0.512488 -0.151595
-0.565145 0.604753 -0.151595
0.089885 0.36856 -0.151595
0.528133 -0.673392 -0.155089
0.082142 0.611859 -0.155089
0.670287 -0.526784 -0.155089
-0.225317 -0.473762 -0.155089
-0.20707 0.648723 -0.151595
0.265428 -0.714826 -0.155089
0.318418 -0.705125 -0.12364
-0.537909 -0.085557 -0.151595
0.450822 0.62353 -0.155089
0.651192 -0.183181 -0.155089
0.495865 -0.30981 -0.155089
-0.14663 -0.232494 -0.151595
-0.14878 -0.521909 -0.151595
0.507932 0.09701 -0.151595
-0.306202 -0.378701 -0.155089
0.429584 0.359877 -0.151595
-0.384471 0.381047 -0.155089
-0.577129 0.183867 -0.155089
0.499616 0.419477 -0.151595
0.672843 0.18945 -0.151595
0.458716 -0.075879 -0.155089
0.229191 -0.397736 -0.155089
0.365515 0.585886 -0.155089
0.267466 0.167533 -0.155089
0.129187 0.309467 -0.151595
-0.102534 -0.530058 -0.151595
-0.115019 0.035235 -0.155089
-0.206895 0.475625 -0.155089
0.671191 -0.492635 -0.155089
0.38279 -0.170225 -0.151595
-0.26696 0.33588 -0.151595
0.509642 -0.471966 -0.155089
0.321597 -0.528571 -0.151595
-0.170024 -0.724751 -0.155089
0.145852 -0.656307 -0.155089
-0.577525 0.008258 -0.155089
-0.352661 0.284455 -0.151595
-0.534163 -0.054652 -0.151595
0.031094 -0.719314 -0.155089
0.1083 -0.689628 -0.155089
0.249787 0.290295 -0.155089
-0.47356 -0.25541 -0.151595
0.379267 -0.209181 -0.155089
-0.344564 0.552001 -0.155089
-0.652652 0.443848 -0.155089
-0.365273 0.227676 -0.155089
-0.199249 -0.276689 -0.155089
0.424894 -0.295183 -0.151595
0.632855 0.502459 -0.155089
0.273677 0.633231 -0.155089
0.565667 -0.46189 -0.151595
0.325939 0.07346 -0.155089
-0.166444 -0.56333 -0.155089
0.308413 -0.632514 -0.151595
0.477564 0.505122 -0.151595
-0.168366 -0.432702 -0.151595
-0.543232 0.115727 -0.155089
0.06642 -0.1843 -0.155089
0.239523 -0.177304 -0.151595
-0.508969 -0.723204 -0.155089
0.046641 -0.240965 -0.155089
-0.501535 -0.415388 -0.155089
0.154298 0.089475 -0.155089
0.557513 -0.367121 -0.151595
-0.189169 -0.372475 -0.151595
-0.181502 -0.115432 -0.155089
-0.60495 0.453041 -0.155089
-0.482862 -0.037198 -0.151595
-0.380029 -0.697045 -0.155089
0.133112 -0.732161 -0.131996
0.534778 -0.525691 -0.155089
0.527032 0.035196 -0.155089
-0.668267 -0.229657 -0.155089
0.315381 0.208559 -0.151595
0.300601 -0.24394 -0.151595
0.106415 -0.372413 -0.155089
0.370769 0.308476 -0.151595
0.66483 -0.029115 -0.151595
0.672673 0.423406 -0.151595
0.15171 -0.025762 -0.155089
0.094509 -0.043681 -0.155089
0.515631 -0.553267 -0.151595
0.301412 0.017104 -0.155089
0.41729 -0.06175 -0.151595
-0.551645 0.225433 -0.151595
0.516959 0.16077 -0.155089
-0.644284 0.022037 -0.155089
-0.332448 -0.426605 -0.155089
0.361462 0.351996 -0.151595
0.115178 0.210481 -0.151595
-0.017206 -0.697219 -0.131267
-0.184156 -0.663259 -0.151595
0.225033 0.361465 -0.151595
-0.649449 -0.154064 -0.155089
0.637149 -0.511913 -0.155089
-0.263855 0.646521 -0.155089
-0.313537 0.552421 -0.155089
-0.229872 0.037592 -0.155089
0.086499 0.330508 -0.151595
0.19379 0.115475 -0.155089
0.08083 -0.395453 -0.151595
0.552964 0.618805 -0.151595
-0.094324 0.215829 -0.151595
0.612648 0.087273 -0.151595
-0.415254 0.497754 -0.155089
0.578796 -0.712205 -0.12364
-0.532122 -0.406117 -0.151595
-0.337512 0.617644 -0.155089
0.393949 0.138753 -0.155089
-0.625796 0.498511 -0.155089
-0.66344 -0.031392 -0.155089
0.013613 -0.56778 -0.151595
0.425005 -0.178794 -0.155089
-0.364859 -0.044283 -0.151595
0.065739 -0.47292 -0.155089
-0.500141 -0.237541 -0.151595
-0.115073 -0.698671 -0.12364
-0.199798 -0.717603 -0.155089
-0.484698 0.227506 -0.151595
-0.151642 -0.322569 -0.155089
0.670328 -0.653359 -0.155089
0.201828 -0.675663 -0.151595
-0.086948 0.095442 -0.151595
-0.403146 0.130432 -0.151595
-0.189878 0.59056 -0.151595
-0.069731 0.548196 -0.151595
-0.512686 -0.576619 -0.151595
-0.267131 -0.574925 -0.151595
0.234478 -0.34773 -0.151595
0.679529 0.529708 -0.155089
0.372027 0.556257 -0.155089
0.381192 0.528327 -0.151595
-0.66384 -0.344631 -0.155089
-0.076257 -0.503124 -0.151595
-0.443179 0.191554 -0.155089
-0.091857 0.572773 -0.155089
-0.44943 0.507448 -0.151595
0.08632 0.4882 -0.151595
0.381479 -0.725173 -0.154207
0.213745 -0.080357 -0.151595
0.587974 0.291075 -0.155089
0.334463 -0.643825 -0.151595
0.278004 0.426162 -0.155089
0.442945 0.551247 -0.155089
-0.249762 -0.51844 -0.151595
0.386437 0.61434 -0.151595
0.414774 -0.235705 -0.151595
-0.552188 -0.708224 -0.151595
-0.563951 -0.197645 -0.155089
-0.612254 -0.331383 -0.151595
-0.341773 -0.682787 -0.155089
0.389166 -0.5289 -0.151595
0.589214 0.021122 -0.151595
-0.574729 0.15601 -0.151595
-0.330044 -0.011755 -0.155089
-0.586378 -0.719751 -0.151595
0.124159 -0.194149 -0.155089
-0.18866 -0.499609 -0.151595
0.236351 -0.710619 -0.137618
-0.590924 -0.158269 -0.151595
-0.143007 0.289146 -0.155089
-0.089463 0.171226 -0.155089
-0.526777 -0.633237 -0.155089
0.377237 -0.430049 -0.155089
-0.614613 0.102703 -0.155089
0.008744 -0.285497 -0.155089
-0.093235 -0.726509 -0.12364
-0.414491 -0.265712 -0.151595
-0.396492 -0.308658 -0.155089
0.538526 -0.732161 -0.135933
0.524929 0.264516 -0.151595
0.137995 -0.46482 -0.155089
-0.292329 -0.118482 -0.155089
-0.052234 0.35374 -0.151595
0.026603 -0.605765 -0.151595
-0.501308 -0.092277 -0.155089
0.172391 0.241827 -0.155089
-0.324721 -0.708654 -0.12364
-0.352527 0.254777 -0.151595
0.619339 0.452492 -0.151595
-0.488376 -0.374994 -0.151595
-0.500201 0.619408 -0.155089
0.227137 0.450575 -0.151595
0.305234 -0.392661 -0.155089
0.543039 0.145317 -0.151595
0.565008 -0.534078 -0.155089
0.081075 -0.291001 -0.151595
0.367095 -0.378741 -0.155089
0.318074 -0.716019 -0.151595
-0.552158 -0.614633 -0.151595
-0.087864 -0.34629 -0.155089
-0.331818 0.392391 -0.155089
0.262828 0.029364 -0.155089
0.265526 -0.595811 -0.155089
-0.541195 0.544499 -0.155089
0.166596 -0.100859 -0.155089
0.135109 0.109171 -0.151595
-0.39129 0.595873 -0.155089
0.342751 0.561576 -0.155089
-0.363978 -0.569097 -0.155089
-0.264521 -0.708917 -0.151595
-0.160374 0.087488 -0.155089
-0.4554 0.452373 -0.155089
-0.013934 0.425009 -0.155089
-0.280602 -0.181093 -0.151595
0.007888 -0.626291 -0.151595
-0.559312 0.422563 -0.151595
0.655793 0.276741 -0.155089
-0.658225 -0.664191 -0.155089
-0.27466 0.533775 -0.151595
0.090158 -0.016353 -0.155089
0.622918 -0.072788 -0.155089
0.166248 0.368873 -0.155089
0.327501 0.36192 -0.151595
0.062016 -0.564006 -0.155089
0.613876 0.148796 -0.155089
0.406711 -0.486264 -0.151595
-0.013658 0.655041 -0.151595
0.39031 -0.631226 -0.151595
0.503004 0.184162 -0.151595
-0.408612 0.433119 -0.155089
0.528465 0.476255 -0.151595
0.064691 -0.070631 -0.151595
-0.238332 -0.063007 -0.155089
0.237424 0.164411 -0.151595
-0.208807 0.358719 -0.155089
0.526796 0.582878 -0.155089
0.440668 -0.117194 -0.151595
-0.237538 -0.632305 -0.155089
0.243945 0.532326 -0.155089
0.286876 0.547056 -0.151595
0.032701 0.392574 -0.155089
-0.402211 0.300609 -0.151595
0.222905 -0.299123 -0.151595
-0.430761 0.630088 -0.155089
0.088263 0.271646 -0.155089
-0.37102 0.665553 -0.153144
-0.205187 0.300936 -0.155089
-0.369933 -0.351736 -0.151595
0.309884 0.604781 -0.155089
0.510681 -0.20497 -0.151595
0.554514 -0.28011 -0.155089
0.108761 0.428266 -0.155089
-0.113832 0.12327 -0.151595
-0.077419 -0.162667 -0.155089
0.473205 -0.581792 -0.151595
-0.276676 0.394431 -0.155089
-0.475128 -0.540123 -0.155089
-0.063101 -0.389216 -0.151595
-0.421045 -0.085409 -0.155089
0.244361 0.342532 -0.151595
-0.46326 0.2646 -0.151595
0.239384 -0.578065 -0.151595
-0.306813 -0.23483 -0.155089
0.538825 0.551558 -0.155089
-0.093894 0.066512 -0.151595
-0.177745 0.419416 -0.151595
0.094691 0.567496 -0.155089
-0.489223 -0.644767 -0.155089
0.319954 0.235292 -0.155089
-0.330548 0.525921 -0.151595
0.594353 0.39589 -0.151595
0.65601 -0.697219 -0.128369
-0.298001 -0.531239 -0.155089
0.184926 -0.711046 -0.155089
0.295062 -0.078246 -0.151595
-0.373456 -0.09249 -0.155089
-0.429052 0.524993 -0.151595
0.264474 0.225719 -0.151595
-0.536759 0.346253 -0.155089
0.598297 -0.668163 -0.151595
0.480807 -0.498783 -0.155089
-0.32429 -0.35818 -0.155089
-0.448933 -0.638807 -0.151595
-0.318204 -0.643693 -0.155089
0.473969 -0.732161 -0.131309
0.207474 -0.536013 -0.155089
-0.614183 -0.633293 -0.155089
0.523179 -0.414456 -0.151595
0.131714 -0.083007 -0.151595
0.395026 0.199394 -0.155089
0.446017 0.384995 -0.151595
0.016425 0.564328 -0.155089
-0.459906 -0.065608 -0.155089
0.197498 -0.04178 -0.155089
-0.161594 0.621631 -0.151595
0.479445 -0.53586 -0.155089
0.441135 -0.583371 -0.151595
-0.302152 0.495676 -0.155089
0.067472 0.40798 -0.151595
0.199106 0.299783 -0.151595
0.29933 -0.49256 -0.151595
0.045709 0.007672 -0.151595
-0.320608 -0.169712 -0.151595
-0.263201 -0.615372 -0.151595
0.113943 0.501344 -0.151595
0.435304 0.51573 -0.151595
-0.156954 -0.16159 -0.151595
-0.03475 0.452698 -0.155089
-0.543047 -0.58177 -0.155089
-0.052968 0.580383 -0.151595
0.277171 0.382995 -0.151595
-0.595698 -0.059628 -0.151595
-0.087624 0.519286 -0.151595
0.378293 0.082807 -0.151595
-0.042941 -0.556987 -0.151595
-0.373762 0.456832 -0.155089
-0.280012 -0.401068 -0.151595
-0.18635 -0.083385 -0.151595
0.202492 -0.396701 -0.155089
0.070273 -0.126978 -0.151595
0.111173 -0.503207 -0.155089
0.441452 0.419548 -0.155089
0.574998 0.487762 -0.151595
-0.120929 -0.469301 -0.151595
-0.479151 0.568202 -0.155089
0.372049 0.234448 -0.155089
-0.178772 -0.698748 -0.151595
-0.221843 0.562061 -0.155089
-0.558694 -0.332911 -0.151595
-0.521241 -0.312285 -0.155089
0.006411 -0.430545 -0.151595
0.090238 -0.711802 -0.151595
0.055788 0.518103 -0.151595
0.608408 0.275027 -0.151595
-0.283154 0.45021 -0.155089
-0.409858 -0.581002 -0.151595
0.357671 -0.077108 -0.151595
0.197236 -0.351743 -0.151595
-0.057161 0.032898 -0.155089
-0.662678 -0.296566 -0.151595
-0.483447 -0.496167 -0.151595
-0.18304 0.233144 -0.151595
0.415218 -0.123108 -0.155089
-0.514737 -0.175464 -0.151595
-0.064108 0.628786 -0.155089
-0.063447 0.1344 -0.151595
-0.421744 0.458712 -0.151595
-0.140376 0.164675 -0.151595
-0.609107 0.605114 -0.155089
-0.056597 -0.697219 -0.127668
0.359907 -0.732161 -0.13283
0.443654 -0.450769 -0.151595
-0.476631 -0.345692 -0.151595
-0.131475 -0.070026 -0.155089
0.493054 0.457478 -0.151595
0.419005 -0.014595 -0.155089
-0.476121 0.391245 -0.151595
0.371361 -0.099246 -0.155089
-0.364364 -0.141421 -0.155089
0.171497 0.66 -0.155089
0.252156 0.462106 -0.151595
0.287273 0.341742 -0.151595
0.145181 0.481139 -0.155089
0.053466 -0.660729 -0.155089
-0.077583 -0.617703 -0.151595
-0.016793 0.601872 -0.151595
-0.044725 0.304407 -0.151595
-0.461657 -0.590118 -0.155089
-0.509664 -0.732161 -0.128278
-0.087206 -0.550726 -0.151595
0.569447 -0.063561 -0.151595
-0.109728 -0.130234 -0.151595
-0.0873 0.391468 -0.151595
0.344046 -0.461162 -0.151595
0.684002 -0.128975 -0.151707
-0.671602 0.051152 -0.155089
-0.553512 0.280082 -0.155089
-0.476209 0.339898 -0.151595
0.241469 -0.230048 -0.151595
-0.42918 -0.430239 -0.151595
-0.590162 0.343017 -0.155089
-0.196495 -0.018225 -0.155089
-0.400619 -0.217985 -0.155089
0.181242 -0.556985 -0.155089
0.16196 -0.161508 -0.151595
-0.503451 -0.469796 -0.151595
-0.402425 -0.619699 -0.155089
0.127554 0.007253 -0.151595
0.547667 -0.434439 -0.155089
0.408973 0.042629 -0.155089
0.145264 -0.212201 -0.151595
0.587664 0.432421 -0.151595
-0.5155 0.291838 -0.151595
0.059061 0.462457 -0.155089
-0.487957 0.125859 -0.155089
0.657551 -0.399464 -0.155089
0.059461 -0.409294 -0.151595
0.351392 -0.486543 -0.151595
-0.257279 0.378323 -0.151595
-0.064311 0.406172 -0.151595
-0.298435 -0.43662 -0.155089
-0.429815 0.046341 -0.155089
-0.50416 -0.347001 -0.155089
0.212255 0.527249 -0.151595
-0.056784 -0.055462 -0.155089
-0.516133 0.143493 -0.155089
-0.565427 -0.725945 -0.137618
-0.494818 0.525866 -0.155089
0.194906 0.450151 -0.151595
0.492981 -0.359724 -0.151595
-0.047904 -0.423308 -0.151595
0.594033 -0.692869 -0.155089
0.532435 -0.648698 -0.151595
0.30341 -0.02862 -0.151595
0.207201 0.031534 -0.155089
-0.638783 -0.585966 -0.155089
0.150364 -0.318934 -0.155089
0.287911 -0.557953 -0.151595
-0.66061 -0.432111 -0.151595
0.17788 -0.492686 -0.155089
-0.144104 0.432221 -0.151595
-0.429023 0.099423 -0.155089
0.568415 0.561588 -0.151595
0.560421 -0.617263 -0.151595
-0.425844 -0.196233 -0.155089
-0.069162 -0.263685 -0.151595
-0.487706 0.061483 -0.155089
0.104359 -0.309495 -0.155089
0.366208 -0.256185 -0.155089
0.062015 -0.341545 -0.151595
-0.187223 0.088953 -0.151595
0.662264 -0.369525 -0.155089
-0.023947 -0.26195 -0.151595
0.629581 -0.721217 -0.12364
0.604238 0.043367 -0.151595
0.158428 0.021332 -0.151595
0.452911 0.068809 -0.151595
0.095511 -0.593533 -0.155089
-0.390488 -0.034792 -0.151595
0.506289 -0.697219 -0.132761
-0.202602 -0.130092 -0.155089
0.420963 -0.373494 -0.151595
0.489144 0.243604 -0.155089
0.044203 0.267953 -0.155089
0.197411 -0.583628 -0.151595
0.00605 -0.544131 -0.151595
0.554379 0.260875 -0.155089
-0.663695 -0.612546 -0.151595
0.407529 0.461861 -0.151595
-0.169882 0.034275 -0.151595
-0.192452 -0.253108 -0.151595
-0.210684 0.250495 -0.151595
-0.595774 0.200175 -0.155089
0.526738 0.388903 -0.155089
0.648586 -0.058624 -0.151595
-0.285011 -0.722328 -0.155089
0.515378 -0.286879 -0.155089
0.089907 -0.657428 -0.151595
0.512828 -0.32778 -0.155089
-0.252604 -0.363057 -0.151595
-0.161928 0.327673 -0.155089
0.262287 -0.420453 -0.151595
-0.051279 0.176295 -0.151595
0.337638 -0.412162 -0.155089
-0.27301 0.079455 -0.155089
0.391242 -0.702663 -0.151595
0.419625 -0.3329 -0.155089
0.039918 -0.048032 -0.155089
0.455618 0.147524 -0.155089
0.105139 -0.096624 -0.155089
-0.063172 -0.125884 -0.151595
-0.116142 -0.599748 -0.151595
-0.258611 -0.665835 -0.151595
-0.406891 0.270193 -0.155089
0.534091 -0.219519 -0.155089
-0.170123 0.537621 -0.151595
0.635979 0.577124 -0.151595
-0.227961 -0.29013 -0.151595
0.478928 -0.414215 -0.155089
-0.489763 -0.300434 -0.151595
-0.074954 0.344422 -0.151595
-0.02947 0.087362 -0.155089
0.425892 0.638748 -0.155089
-0.149005 -0.122137 -0.155089
0.458721 -0.488145 -0.155089
-0.209711 -0.399444 -0.151595
0.675493 0.331181 -0.155089
0.522099 -0.016377 -0.155089
-0.446483 -0.172498 -0.155089
-0.56615 0.077469 -0.151595
-0.6209 -0.145474 -0.151595
0.591905 0.100214 -0.151595
-0.647008 0.097869 -0.151595
-0.113307 -0.380607 -0.155089
-0.672751 -0.697219 -0.129586
0.083681 -0.510676 -0.151595
-0.424628 -0.000154 -0.151595
-0.105688 -0.425101 -0.155089
0.604505 -0.296605 -0.155089
0.612933 -0.146792 -0.151595
-0.129333 -0.044253 -0.155089
-0.294494 0.589679 -0.151595
0.093803 0.084597 -0.151595
-0.029218 -0.374957 -0.151595
0.577632 -0.109699 -0.155089
0.474851 -0.032229 -0.155089
-0.107606 -0.269874 -0.155089
-0.055152 -0.210782 -0.151595
-0.398765 -0.698278 -0.137618
-0.511492 0.462967 -0.151595
0.676431 0.588326 -0.155089
0.387539 -0.128808 -0.151595
0.065491 0.55645 -0.151595
-0.553335 0.39887 -0.151595
0.026613 -0.157925 -0.151595
-0.561065 0.659191 -0.155089
-0.042976 0.546793 -0.155089
-0.393037 0.344869 -0.151595
0.642653 0.240388 -0.155089
-0.246552 -0.422684 -0.151595
0.19293 0.002677 -0.155089
0.083224 0.121001 -0.155089
-0.321854 -0.490871 -0.151595
0.116127 -0.394502 -0.155089
0.4064 -0.099969 -0.155089
0.125146 -0.632482 -0.155089
-0.165206 0.36039 -0.151595
-0.248457 0.130023 -0.155089
0.186249 -0.211368 -0.151595
-0.462007 -0.696392 -0.155089
-0.512262 -0.551331 -0.151595
0.199727 -0.140418 -0.151595
-0.097518 0.303822 -0.151595
-0.105759 0.642959 -0.155089
-0.11494 -0.567083 -0.151595
-0.1393 0.076679 -0.151595
0.033858 -0.11153 -0.151595
0.015202 -0.715468 -0.137618
-0.321181 0.038334 -0.151595
0.451475 0.34634 -0.151595
-0.340658 0.171318 -0.155089
0.576473 -0.571284 -0.155089
0.257089 0.396691 -0.155089
0.465518 0.315739 -0.155089
-0.369816 -0.621034 -0.155089
0.344427 -0.0177 -0.151595
0.407886 0.511611 -0.155089
0.59307 0.550453 -0.155089
0.265069 -0.650222 -0.155089
-0.383864 -0.464288 -0.155089
-0.407881 0.15929 -0.155089
-0.33532 0.342198 -0.151595
0.135276 0.616695 -0.155089
0.417639 0.380421 -0.151595
0.600948 -0.265934 -0.151595
-0.151645 -0.209284 -0.151595
0.600272 -0.579355 -0.151595
-0.064678 -0.637629 -0.151595
0.345942 0.061165 -0.151595
0.201624 0.144051 -0.151595
-0.005994 -0.036982 -0.155089
-0.418527 0.651209 -0.155089
0.536013 0.089617 -0.155089
-0.06186 0.251886 -0.155089
-0.117499 0.262217 -0.155089
-0.030226 -0.466219 -0.155089
0.65866 0.385579 -0.151595
0.584995 -0.440384 -0.155089
0.250688 0.638521 -0.155089
0.45456 -0.272675 -0.155089
0.105931 -0.545713 -0.151595
-0.153309 0.50289 -0.151595
0.034317 0.201282 -0.155089
0.206479 0.08573 -0.151595
-0.669071 0.081485 -0.155089
-0.267812 -0.088253 -0.151595
-0.66403 -0.40885 -0.151595
0.09947 0.237792 -0.155089
-0.162776 0.170758 -0.155089
0.323734 0.624034 -0.155089
0.191893 0.406612 -0.151595
-0.379611 0.531178 -0.151595
-0.192734 0.192343 -0.151595
0.326876 0.036255 -0.151595
0.623788 0.39525 -0.155089
0.301195 0.388849 -0.155089
-0.219565 0.439913 -0.155089
-0.667585 -0.07019 -0.151595
0.630031 -0.455705 -0.155089
0.415039 -0.711655 -0.12364
-0.228445 -0.450622 -0.155089
0.500271 0.214831 -0.151595
-0.177121 0.003713 -0.155089
-0.020022 -0.059466 -0.155089
-0.339541 0.643482 -0.151595
0.631564 -0.402526 -0.151595
0.351646 0.170952 -0.151595
0.636429 -0.148321 -0.151595
-0.340253 -0.032677 -0.155089
0.486846 0.297909 -0.155089
-0.44931 0.410732 -0.151595
0.188513 0.633353 -0.151595
-0.588433 0.615141 -0.151595
-0.231751 -0.110704 -0.155089
0.629881 -0.616537 -0.151595
-0.396817 -0.524654 -0.151595
-0.242467 -0.005764 -0.151595
0.347184 0.289397 -0.151595
-0.128232 -0.109639 -0.151595
0.679867 0.022174 -0.155089
-0.466889 0.012721 -0.155089
0.031996 -0.669722 -0.151595
-0.29543 0.63769 -0.155089
-0.005154 -0.403275 -0.155089
0.512015 -0.695053 -0.155089
-0.584351 -0.329704 -0.155089
-0.459793 -0.03862 -0.151595
-0.214813 0.587825 -0.155089
-0.658044 -0.180063 -0.151595
0.077716 -0.709075 -0.12364
-0.572091 0.568887 -0.151595
-0.500757 0.360183 -0.151595
0.294468 -0.192844 -0.155089
0.491453 0.395474 -0.155089
-0.403388 0.065739 -0.151595
0.530564 0.639685 -0.155089
-0.087936 -0.09977 -0.151595
-0.659301 -0.13354 -0.151595
-0.633116 0.164582 -0.151595
-0.050724 -0.314222 -0.151595
0.056882 -0.293234 -0.155089
-0.095109 0.425336 -0.155089
0.156028 -0.366426 -0.155089
-0.425797 -0.732161 -0.134156
0.311365 -0.41476 -0.155089
0.487361 -0.627303 -0.151595
-0.441186 0.35095 -0.155089
0.235425 -0.068565 -0.151595
0.066111 0.049307 -0.155089
0.543646 0.457049 -0.151595
-0.602979 -0.550143 -0.155089
-0.308611 -0.135372 -0.155089
-0.19876 0.016178 -0.155089
-0.123717 0.537881 -0.151595
0.234588 -0.199644 -0.151595
0.187296 0.171118 -0.155089
-0.114568 -0.298695 -0.155089
0.097444 0.457363 -0.151595
-0.450125 0.085711 -0.155089
-0.634786 -0.327762 -0.151595
-0.641442 -0.494019 -0.151595
0.294048 0.188265 -0.151595
0.433628 0.293057 -0.155089
0.227388 -0.479061 -0.151595
-0.662459 0.388642 -0.151595
-0.483592 -0.4479 -0.151595
0.206345 0.19648 -0.151595
0.267682 0.534809 -0.151595
-0.051822 -0.512903 -0.155089
0.271242 -0.480631 -0.155089
-0.633972 0.233546 -0.151595
-0.152217 -0.396479 -0.151595
0.369778 0.105844 -0.155089
-0.40106 -0.160483 -0.155089
-0.546081 0.492611 -0.151595
0.563168 -0.511425 -0.155089
0.455268 0.450872 -0.155089
-0.339274 0.008704 -0.151595
0.12241 0.367626 -0.151595
0.64001 0.662973 -0.155089
0.573839 0.362244 -0.151595
-0.597274 -0.408122 -0.151595
-0.224515 -0.195605 -0.151595
-0.314548 -0.592059 -0.155089
0.352223 -0.626088 -0.155089
0.018899 -0.382013 -0.151595
-0.503902 -0.704415 -0.137618
0.445216 0.486984 -0.151595
0.46215 -0.665655 -0.151595
0.299389 0.436731 -0.151595
0.152391 0.228137 -0.155089
0.354428 0.621535 -0.155089
-0.221012 -0.326902 -0.155089
0.615147 -0.562402 -0.151595
0.530288 0.29831 -0.155089
-0.538718 -0.032568 -0.151595
0.421654 0.214294 -0.151595
0.324652 -0.106368 -0.151595
0.097273 -0.21865 -0.151595
-0.49154 0.482762 -0.151595
0.268542 0.575206 -0.151595
0.473312 -0.095237 -0.155089
0.5052 0.029797 -0.155089
-0.188214 -0.421496 -0.155089
-0.621317 -0.271737 -0.151595
-0.281127 0.108108 -0.155089
0.376886 -0.047667 -0.151595
-0.337247 -0.300583 -0.155089
-0.026531 -0.102226 -0.151595
-0.369206 0.5531 -0.155089
0.286276 0.044455 -0.151595
0.511914 0.051399 -0.151595
0.036754 -0.137916 -0.151595
-0.561049 -0.225491 -0.155089
0.453991 0.02131 -0.155089
0.520276 -0.436412 -0.155089
0.06001 -0.363598 -0.155089
0.350407 0.448249 -0.155089
-0.431462 -0.03948 -0.151595
-0.596024 0.115173 -0.155089
0.575917 -0.238105 -0.151595
-0.095785 -0.325651 -0.151595
0.393235 -0.296111 -0.151595
0.035686 -0.202964 -0.151595
-0.127373 -0.516427 -0.155089
-0.142625 0.197165 -0.151595
-0.033516 -0.704682 -0.151595
0.49177 0.483876 -0.155089
0.620059 0.52794 -0.155089
0.475588 -0.379606 -0.151595
0.650188 -0.694725 -0.155089
-0.645941 0.550188 -0.151595
-0.368465 0.489747 -0.155089
0.373626 -0.58464 -0.155089
0.586151 0.153131 -0.155089
0.134362 0.131163 -0.155089
-0.027352 0.021088 -0.155089
0.441323 -0.658141 -0.155089
-0.519456 -0.073153 -0.151595
-0.473619 -0.154415 -0.151595
-0.584003 -0.012998 -0.155089
-0.069179 -0.439123 -0.151595
0.119334 -0.697219 -0.135151
-0.014689 0.476282 -0.155089
0.609054 0.243502 -0.151595
-0.536501 -0.266657 -0.155089
0.188025 -0.47296 -0.155089
0.059534 -0.732161 -0.132385
0.283204 -0.02023 -0.155089
-0.270918 -0.005206 -0.151595
-0.516539 0.523337 -0.151595
0.13599 0.179367 -0.151595
0.557076 -0.220168 -0.155089
-0.586863 -0.465389 -0.151595
-0.263216 0.211684 -0.151595
-0.433083 0.229357 -0.151595
0.386709 0.291423 -0.155089
0.343845 -0.360965 -0.155089
0.59657 0.344965 -0.151595
0.162505 -0.697219 -0.134071
0.360033 0.662049 -0.155089
-0.020767 -0.21532 -0.151595
-0.35261 -0.702446 -0.155089
0.084057 0.392185 -0.155089
0.338655 -0.239141 -0.151595
0.364826 -0.51208 -0.155089
-0.640153 -0.692738 -0.155089
-0.446462 0.645099 -0.151595
0.658909 -0.10982 -0.151595
-0.521799 -0.198031 -0.155089
0.00721 -0.073593 -0.151595
-0.67245 -0.466538 -0.155089
-0.585399 0.247073 -0.151595
0.654718 0.167339 -0.155089
0.660709 -0.347608 -0.155089
-0.092454 -0.635762 -0.151595
-0.407493 -0.426735 -0.151595
0.372731 -0.481354 -0.151595
-0.202016 0.384171 -0.155089
-0.114143 0.058861 -0.155089
-0.282526 -0.288441 -0.155089
-0.504429 0.66319 -0.151595
-0.555741 -0.556236 -0.155089
-0.305567 -0.711657 -0.137618
0.211665 -0.280326 -0.151595
-0.152768 -0.029992 -0.155089
-0.012927 -0.620458 -0.155089
-0.417333 0.213227 -0.155089
0.41794 -0.555595 -0.155089
-0.668816 -0.010169 -0.155089
-0.572355 -0.595337 -0.151595
0.267882 0.136501 -0.151595
0.287083 -0.33064 -0.151595
-0.366134 -0.187262 -0.155089
0.041068 0.564127 -0.151595
-0.157385 0.241545 -0.151595
-0.432557 0.282172 -0.155089
-0.025444 -0.344044 -0.151595
0.342069 0.017215 -0.155089
0.677598 -0.615156 -0.155089
-0.148403 -0.256259 -0.155089
-0.467059 0.045868 -0.151595
0.565341 -0.12795 -0.155089
-0.624235 0.194439 -0.151595
-0.541347 0.032383 -0.155089
-0.610363 -0.725173 -0.154497
0.328905 -0.206054 -0.155089
0.007301 0.114481 -0.155089
0.185818 -0.410188 -0.151595
-0.121051 0.625548 -0.151595
-0.289352 0.148215 -0.151595
0.52169 -0.493004 -0.155089
0.477075 -0.138781 -0.151595
0.171482 0.546245 -0.151595
-0.556128 0.007431 -0.151595
0.39959 -0.024277 -0.155089
-0.335391 -0.630939 -0.151595
0.681737 -0.726131 -0.137618
0.268309 -0.111946 -0.155089
-0.374273 -0.237275 -0.151595
0.33972 0.243463 -0.151595
-0.603799 0.326176 -0.155089
-0.450004 -0.091094 -0.151595
-0.617893 -0.292829 -0.155089
-0.506785 0.071834 -0.151595
-0.53088 -0.246055 -0.151595
0.032325 -0.699337 -0.12364
-0.490605 -0.396717 -0.155089
0.166958 0.347534 -0.151595
-0.441858 -0.535652 -0.151595
0.405153 -0.429771 -0.151595
-0.320656 -0.199119 -0.155089
-0.518454 0.182232 -0.151595
0.603649 0.629766 -0.151595
0.263209 0.007792 -0.155089
-0.126958 0.495102 -0.155089
0.612666 -0.050067 -0.155089
-0.387183 0.246884 -0.151595
0.566944 -0.035874 -0.155089
0.582782 0.199579 -0.151595
0.465711 0.608208 -0.151595
0.164698 -0.6465 -0.151595
-0.237931 0.548186 -0.151595
-0.246385 -0.094332 -0.151595
0.416799 -0.040236 -0.151595
-0.665911 0.507968 -0.151595
-0.628505 -0.465621 -0.151595
0.146097 0.252185 -0.151595
0.254962 -0.706594 -0.12364
-0.482284 -0.226093 -0.155089
-0.459979 0.175048 -0.151595
-0.308077 0.35795 -0.155089
-0.243727 0.286277 -0.151595
-0.45925 0.4735 -0.155089
0.466516 0.202317 -0.155089
0.648937 -0.443018 -0.155089
0.280333 0.313735 -0.155089
0.173606 0.60582 -0.155089
0.128136 -0.271857 -0.155089
-0.430991 0.174274 -0.151595
-0.644331 0.511941 -0.155089
0.501448 -0.448202 -0.151595
-0.519208 0.568307 -0.155089
0.663083 0.296549 -0.151595
0.181475 0.262557 -0.151595
0.314396 -0.051203 -0.155089
0.048706 0.58634 -0.151595
0.483782 0.087029 -0.151595
-0.55643 0.35629 -0.155089
0.416592 0.330452 -0.151595
-0.257693 0.354806 -0.155089
0.373285 -0.68219 -0.151595
0.387317 0.117501 -0.151595
0.598283 0.452702 -0.155089
0.207299 0.496279 -0.155089
-0.243977 0.444272 -0.155089
-0.445901 0.00139 -0.151595
0.152828 0.428194 -0.151595
0.595383 -0.201545 -0.151595
0.06247 0.627882 -0.155089
0.539433 -0.328255 -0.151595
0.498873 -0.239379 -0.151595
0.035207 0.504867 -0.155089
0.633615 -0.705677 -0.137618
-0.429375 -0.320085 -0.151595
-0.004597 0.40405 -0.151595
0.429165 0.109978 -0.155089
-0.220876 -0.616211 -0.155089
-0.619943 0.076351 -0.151595
-0.229477 -0.700418 -0.12364
0.625215 -0.020753 -0.151595
0.284855 -0.138102 -0.155089
0.023747 0.037496 -0.155089
0.671306 -0.309511 -0.151595
0.605676 -0.107869 -0.155089
0.246959 -0.157728 -0.155089
0.585667 -0.732161 -0.125751
-0.676227 -0.682858 -0.151595
-0.057494 -0.718311 -0.137618
0.09576 0.161111 -0.155089
-0.216581 -0.713564 -0.137618
-0.156022 0.474967 -0.155089
-0.651182 -0.516877 -0.155089
0.151699 -0.554275 -0.155089
0.570923 -0.08682 -0.155089
-0.567423 -0.305651 -0.155089
-0.146488 -0.467649 -0.151595
0.143229 -0.125726 -0.155089
-0.281067 0.498408 -0.155089
-0.308505 0.280082 -0.155089
-0.016582 -0.511012 -0.151595
0.273781 0.357582 -0.155089
0.458414 0.268077 -0.155089
0.247758 0.074415 -0.151595
-0.349374 -0.247458 -0.151595
0.560771 -0.703277 -0.155089
-0.280702 -0.071943 -0.155089
-0.071877 -0.223612 -0.151595
-0.41547 -0.543893 -0.155089
0.564912 0.432752 -0.151595
0.523555 0.13027 -0.151595
-0.147981 0.548008 -0.155089
-0.532942 -0.008588 -0.155089
0.309208 -0.3052 -0.155089
0.301577 0.265973 -0.151595
0.339039 0.13236 -0.155089
-0.37897 -0.284684 -0.155089
-0.353271 -0.16509 -0.155089
0.347012 -0.38468 -0.155089
0.088069 -0.164653 -0.155089
0.553999 0.529005 -0.155089
0.32371 0.34144 -0.155089
-0.486325 -0.066661 -0.151595
-0.12482 -0.702585 -0.155089
0.464528 -0.714684 -0.137618
0.187761 -0.732161 -0.133847
0.633166 -0.341677 -0.155089
-0.25118 -0.730917 -0.12364
0.127678 -0.697257 -0.155089
0.408067 0.649514 -0.155089
-0.417405 -0.381908 -0.155089
0.345572 0.516462 -0.155089
-0.164536 -0.077897 -0.151595
-0.390242 -0.180064 -0.155089
0.372274 0.159159 -0.155089
-0.213342 -0.147538 -0.151595
0.105192 -0.642575 -0.151595
-0.015956 0.330936 -0.151595
-0.66784 0.330695 -0.151595
0.672049 0.446558 -0.151595
0.023398 0.128683 -0.151595
0.538134 -0.610561 -0.151595
0.050328 -0.017835 -0.151595
-0.363473 -0.06466 -0.155089
-0.267871 -0.142971 -0.151595
0.116863 -0.72239 -0.12364
0.015315 0.627443 -0.151595
0.029497 0.599219 -0.155089
-0.198745 -0.325694 -0.155089
-0.549824 0.304156 -0.151595
0.453247 0.186815 -0.151595
-0.648972 0.593964 -0.155089
-0.380611 0.101509 -0.151595
0.55454 0.119461 -0.151595
-0.362342 0.205019 -0.155089
0.497968 0.616281 -0.151595
-0.205991 -0.511306 -0.151595
-0.215352 -0.2312 -0.155089
0.563443 -0.587304 -0.155089
-0.352697 -0.328365 -0.155089
-0.535883 0.210199 -0.151595
-0.345415 -0.534078 -0.155089
-0.375248 -0.533106 -0.151595
-0.19299 0.128164 -0.155089
0.597221 -0.011851 -0.151595
-0.220029 0.191692 -0.151595
0.490273 -0.259267 -0.155089
-0.157834 0.125468 -0.155089
0.448347 0.244023 -0.151595
0.676067 -0.201903 -0.155089
0.170271 0.193824 -0.151595
-0.623317 -0.553355 -0.155089
0.182303 -0.605742 -0.155089
0.677766 0.214563 -0.155089
0.480153 -0.562426 -0.151595
0.015687 -0.361701 -0.151595
-0.298105 -0.259309 -0.155089
-0.276197 -0.205489 -0.151595
0.339093 -0.699464 -0.155089
-0.351179 0.369229 -0.151595
0.131875 -0.484423 -0.155089
-0.529732 0.253326 -0.151595
0.067781 0.224253 -0.155089
0.156636 -0.599579 -0.155089
-0.394902 -0.130715 -0.151595
0.02819 -0.249927 -0.155089
0.235788 -0.457823 -0.151595
0.212605 0.628237 -0.155089
0.528134 -0.628604 -0.155089
0.319933 -0.356273 -0.151595
0.565747 -0.697219 -0.135363
0.516336 -0.377873 -0.155089
0.508579 -0.05413 -0.155089
0.292701 0.228892 -0.151595
-0.144867 -0.607033 -0.155089
0.322335 0.459853 -0.151595
-0.447494 -0.421406 -0.155089
-0.041131 0.515331 -0.155089
-0.675979 0.548673 -0.155089
-0.054884 -0.293073 -0.155089
0.378521 0.261225 -0.155089
0.139685 -0.177436 -0.151595
0.510802 -0.59482 -0.155089
-0.072726 0.42887 -0.151595
-0.628426 0.590642 -0.151595
0.446728 -0.697219 -0.134036
0.199185 -0.713514 -0.12364
0.679912 0.135068 -0.151595
-0.185563 0.35983 -0.151595
0.352653 -0.561891 -0.151595
-0.546802 0.438245 -0.155089
0.195865 0.319576 -0.155089
-0.575704 -0.435731 -0.151595
-0.54272 -0.702003 -0.12364
-0.590251 -0.038413 -0.155089
-0.604852 0.540619 -0.151595
0.682614 0.248283 -0.151595
0.522155 -0.038002 -0.155089
-0.658866 -0.637079 -0.155089
0.081427 -0.110414 -0.155089
0.38861 0.472914 -0.155089
0.019549 -0.651495 -0.151595
-0.25843 0.549074 -0.155089
0.132618 0.276887 -0.151595
0.491684 0.049934 -0.151595
0.21405 -0.63867 -0.151595
-0.15009 -0.187357 -0.155089
0.250009 -0.441553 -0.151595
0.599677 0.525151 -0.151595
0.610123 -0.542832 -0.151595
-0.018204 0.066636 -0.151595
0.383754 -0.732161 -0.135423
-0.192978 -0.55101 -0.155089
-0.61959 0.005754 -0.151595
0.388364 -0.189276 -0.155089
-0.528877 -0.565144 -0.155089
-0.055076 -0.340881 -0.151595
-0.020695 -0.424501 -0.155089
0.523652 0.368203 -0.151595
0.056347 0.119366 -0.155089
-0.020065 0.151616 -0.155089
-0.327857 0.189952 -0.155089
-0.642782 0.254996 -0.155089
-0.597265 -0.112005 -0.151595
0.550091 0.475778 -0.155089
-0.164576 -0.412832 -0.155089
0.142337 -0.418286 -0.155089
-0.516548 0.606721 -0.155089
-0.185083 -0.037298 -0.155089
0.350274 -0.267938 -0.151595
0.106359 -0.435089 -0.151595
0.476709 -0.30482 -0.151595
0.649916 0.050565 -0.151595
0.055617 0.08327 -0.155089
-0.494234 0.379184 -0.151595
-0.67877 -0.524503 -0.153058
-0.107516 -0.713812 -0.137618
0.117426 0.098134 -0.151595
0.060855 0.020352 -0.155089
-0.439807 -0.244277 -0.151595
0.320316 0.321594 -0.155089
0.147182 -0.277059 -0.151595
0.085006 -0.08553 -0.155089
0.035928 -0.423839 -0.155089
0.048962 -0.517322 -0.151595
-0.263205 -0.312584 -0.151595
0.098736 0.633613 -0.155089
0.232679 -0.256279 -0.151595
0.654139 0.617572 -0.155089
0.236821 0.381004 -0.155089
-0.352568 0.591189 -0.151595
-0.484262 -0.56342 -0.151595
0.050898 0.168725 -0.155089
-0.63861 0.653017 -0.151595
0.444565 -0.291686 -0.151595
-0.353069 0.101263 -0.151595
-0.032607 0.248942 -0.155089
0.32541 0.093117 -0.151595
0.202163 0.271278 -0.155089
0.568604 -0.178338 -0.155089
0.292518 0.588104 -0.155089
-0.561152 -0.158188 -0.151595
0.567479 0.278352 -0.151595
-0.432519 -0.133283 -0.151595
-0.278923 -0.434504 -0.151595
0.12513 0.328665 -0.155089
0.045836 -0.601931 -0.155089
-0.617352 -0.201347 -0.151595
-0.105068 0.587658 -0.155089
0.072166 0.360212 -0.155089
-0.57602 0.516147 -0.155089
0.218231 0.599903 -0.155089
0.614929 -0.704324 -0.155089
0.461239 0.128764 -0.151595
0.267267 -0.223213 -0.155089
0.042304 0.645718 -0.155089
0.36124 0.332025 -0.151595
0.473405 0.564724 -0.151595
0.365149 -0.190571 -0.151595
-0.062568 -0.554118 -0.151595
-0.320574 -0.663069 -0.151595
-0.599944 -0.355652 -0.155089
-0.30718 0.469445 -0.151595
-0.281369 0.178745 -0.151595
0.227973 0.197693 -0.151595
0.551562 -0.081617 -0.155089
-0.517245 0.343006 -0.155089
0.131912 -0.325144 -0.151595
0.239021 -0.380548 -0.151595
0.447664 -0.338508 -0.155089
-0.268009 0.039388 -0.155089
-0.405159 -0.651894 -0.151595
0.050717 -0.624391 -0.151595
-0.484495 -0.201884 -0.155089
0.017061 -0.455388 -0.155089
0.223848 -0.704529 -0.12364
-0.624267 0.45125 -0.151595
-0.059384 -0.026202 -0.151595
0.682531 -0.008128 -0.155089
0.456522 -0.051959 -0.151595
-0.340567 -0.592373 -0.151595
-0.187658 -0.714481 -0.12364
-0.507811 0.019001 -0.155089
-0.010322 0.576202 -0.155089
0.248019 -0.480743 -0.151595
-0.296515 -0.48011 -0.155089
-0.433385 0.308186 -0.155089
0.27233 -0.27319 -0.155089
0.111708 -0.286249 -0.151595
0.242166 -0.658287 -0.151595
-0.565122 0.110712 -0.151595
0.171182 0.079426 -0.155089
0.362119 -0.164472 -0.155089
-0.324075 -0.314718 -0.151595
0.055253 0.311079 -0.151595
0.670584 0.086879 -0.155089
0.248586 0.2681 -0.151595
0.517931 0.557945 -0.151595
0.630728 -0.123895 -0.155089
0.002649 0.071783 -0.155089
-0.665631 0.606551 -0.155089
0.10318 0.382975 -0.151595
-0.217661 -0.581625 -0.151595
0.546421 0.010669 -0.151595
0.606125 -0.649879 -0.155089
-0.107263 -0.040451 -0.151595
-0.59085 -0.706759 -0.137618
-0.195525 0.265496 -0.155089
0.264408 -0.304201 -0.151595
0.398059 -0.158489 -0.155089
-0.248936 0.477874 -0.155089
-0.034197 -0.703216 -0.12364
-0.30538 0.208525 -0.151595
0.122019 -0.051493 -0.155089
0.221735 -0.726537 -0.137618
-0.21003 -0.362881 -0.155089
-0.041439 0.596171 -0.151595
0.1011 -0.623649 -0.155089
0.262566 -0.671714 -0.155089
-0.04984 0.482081 -0.151595
0.642755 -0.276088 -0.155089
0.441841 -0.544629 -0.155089
0.540049 0.223816 -0.151595
0.585596 -0.710463 -0.155089
-0.219205 0.62915 -0.151595
-0.550263 -0.732161 -0.127077
-0.010106 -0.280573 -0.155089
-0.392618 -0.012669 -0.151595
-0.159736 -0.619108 -0.151595
-0.147159 0.584395 -0.151595
-0.577068 0.413795 -0.151595
-0.677611 -0.209354 -0.151595
0.59414 -0.243921 -0.155089
0.273195 -0.718295 -0.137618
-0.13976 -0.588615 -0.151595
-0.349572 -0.275153 -0.155089
0.074965 -0.377278 -0.155089
0.170093 0.284461 -0.155089
0.490257 -0.704273 -0.151595
-0.569772 -0.391788 -0.155089
-0.197163 0.059191 -0.155089
0.645701 -0.226905 -0.155089
0.502709 0.334589 -0.155089
-0.472377 -0.726849 -0.137618
0.361824 -0.603541 -0.151595
0.32633 0.5513 -0.155089
-0.534139 -0.289797 -0.151595
-0.362833 -0.38097 -0.151595
0.178674 -0.044611 -0.151595
0.180492 -0.433671 -0.155089
0.148601 -0.705698 -0.12364
-0.020503 -0.580746 -0.151595
-0.237442 -0.163878 -0.151595
-0.389569 -0.416158 -0.151595
0.308548 0.13985 -0.155089
0.396371 0.565647 -0.151595
0.636356 0.539146 -0.155089
0.158314 -0.08343 -0.155089
0.115158 0.132013 -0.151595
-0.272319 -0.649808 -0.151595
-0.27533 -0.161042 -0.151595
-0.215381 0.025379 -0.151595
0.222594 0.431851 -0.151595
-0.583688 0.069509 -0.151595
-0.12785 -0.158831 -0.155089
-0.312536 -0.098309 -0.151595
0.593146 -0.056454 -0.151595
0.387094 0.370896 -0.155089
-0.384069 0.073284 -0.155089
0.033144 0.621139 -0.155089
-0.134342 0.143754 -0.155089
0.015606 -0.326362 -0.151595
-0.170498 -0.23637 -0.155089
-0.235966 0.170594 -0.155089
