-0.185219 0.313719 0.488625
-0.095193 0.302096 0.488625
-0.118674 0.258091 0.468035
0.292505 0.273062 0.488625
-0.031938 0.260339 0.488625
0.216234 0.29647 0.456639
-0.026907 0.289323 0.456639
-0.323358 0.258091 0.46625
0.048769 0.292726 0.488625
0.150843 0.258091 0.46432
-0.278784 0.293944 0.488625
-0.204081 0.306041 0.456639
-0.168918 0.322062 0.45711
0.282057 0.285682 0.456639
-0.291164 0.301753 0.456639
-0.089115 0.262635 0.488625
-0.235634 0.307595 0.488625
6.7e-05 0.258091 0.487964
-0.167466 0.258091 0.457053
0.040454 0.293169 0.456639
0.177507 0.291359 0.456639
0.104864 0.286241 0.456639
0.216027 0.258091 0.482038
-0.159061 0.322062 0.486457
-0.036016 0.288204 0.488625
0.245122 0.258258 0.488625
0.127284 0.322062 0.468665
-0.115789 0.281992 0.456639
0.132135 0.275697 0.456639
-0.003329 0.300536 0.456639
0.025656 0.258091 0.482855
-0.27141 0.259751 0.488625
0.023978 0.286294 0.488625
-0.09422 0.258091 0.462884
0.238731 0.287521 0.456639
0.269388 0.267648 0.488625
-0.022439 0.266069 0.456639
-0.061457 0.292797 0.456639
-0.302557 0.567283 -0.315247
-0.229257 0.566248 0.098159
-0.23882 0.567283 0.337502
-0.229257 0.549533 -0.068384
-0.229257 0.551289 -0.201319
-0.253656 0.567283 0.218457
-0.287427 0.54596 0.442638
-0.269462 0.567283 -0.416848
-0.320997 0.54596 -0.045576
-0.300462 0.54596 -0.142215
-0.308366 0.54596 0.132346
-0.278264 0.567283 0.02666
-0.229257 0.546347 -0.342197
-0.327219 0.567283 0.348309
-0.330782 0.567283 -0.465669
-0.307424 0.567283 0.266718
-0.232419 0.54596 -0.271903
-0.296235 0.54596 -0.215541
-0.229257 0.567207 -0.471596
-0.229257 0.562042 0.415759
-0.233061 0.567283 -0.137833
-0.335583 0.54596 -0.394655
-0.243804 0.54596 0.161141
-0.348696 0.567283 -0.174362
-0.326615 0.54596 0.073743
-0.229257 0.550757 0.280652
-0.315373 0.567283 0.18789
-0.353937 0.54596 -0.280655
-0.274048 0.54596 0.384192
-0.229257 0.554391 0.000663
-0.291816 0.567283 -0.088003
-0.280036 0.54596 -0.477772
-0.275579 0.567283 -0.363187
-0.355659 0.54596 -0.118167
-0.281287 0.567283 -0.258895
-0.239803 0.54596 0.053552
-0.281982 0.54596 0.325357
-0.326309 0.54596 0.024588
-0.279606 0.567283 0.074318
-0.264169 0.567283 -0.044
-0.324395 0.567283 0.424343
-0.268724 0.54596 -0.174853
-0.26426 0.54596 -0.305187
-0.265406 0.54596 0.255687
-0.334141 0.54596 -0.337513
-0.232899 0.54596 -0.404604
-0.308944 0.54596 0.228875
-0.338593 0.567283 -0.079098
-0.339611 0.54596 -0.210894
-0.322386 0.567283 -0.242161
-0.335391 0.54596 0.28651
-0.295407 0.54596 -0.01481
-0.262163 0.54596 0.125693
-0.229257 0.56403 0.375537
-0.306597 0.54596 -0.44467
-0.349141 0.567283 0.049661
-0.277265 0.567283 0.184608
-0.2497 0.567283 -0.227797
-0.256367 0.567283 -0.098171
-0.314309 0.54596 -0.108171
-0.299583 0.54596 -0.389719
-0.312373 0.567283 -0.174483
-0.306318 0.567283 0.048999
-0.236853 0.567283 -0.370023
-0.281853 0.54596 0.156034
-0.268353 0.567283 -0.147059
-0.344177 0.567283 0.378927
-0.229257 0.557519 -0.309275
-0.254793 0.567283 -0.44827
-0.234558 0.567283 0.189639
-0.28358 0.567283 0.109161
-0.330034 0.567283 -0.293017
-0.346955 0.567283 -0.370956
-0.278004 0.54596 -0.065785
-0.229257 0.547067 0.228963
-0.335792 0.54596 -0.014956
-0.333505 0.567283 0.129635
-0.278441 0.54596 0.21571
-0.283897 0.567283 0.361671
-0.332091 0.567283 0.316136
-0.229257 0.551276 -0.436973
-0.229257 0.56176 -0.03889
-0.233351 0.54596 -0.103538
-0.229257 0.567085 0.029816
-0.304235 0.54596 0.373451
-0.348783 0.567283 -0.142631
-0.229257 0.562014 0.138177
-0.302488 0.54596 0.095758
-0.305673 0.567283 0.15807
-0.265213 0.54596 0.092185
-0.335999 0.567283 -0.417204
-0.283551 0.567283 0.421003
-0.299974 0.567283 -0.051863
-0.26489 0.54596 0.350585
-0.287254 0.54596 -0.285462
-0.280305 0.54596 -0.105947
-0.31004 0.54596 0.314883
-0.229257 0.563024 0.253891
-0.229257 0.548389 0.4418
-0.259699 0.54596 -0.39252
-0.282241 0.567283 0.305124
-0.265846 0.54596 -0.239935
-0.300554 0.54596 -0.335263
-0.325604 0.54596 -0.156744
-0.318016 0.567283 -0.022564
-0.323916 0.54596 0.256746
-0.256481 0.567283 0.40827
-0.340527 0.54596 -0.248457
-0.252986 0.567283 -0.008786
-0.332797 0.54596 0.441103
-0.26294 0.567283 0.144234
-0.268231 0.54596 0.060314
-0.22955 0.54596 0.322104
-0.260208 0.54596 -0.026735
-0.235826 0.54596 0.355658
-0.325379 0.54596 0.202326
-0.256401 0.567283 0.047348
-0.326193 0.567283 -0.127018
-0.302479 0.567283 -0.427889
-0.229257 0.560525 -0.175562
-0.268821 0.54596 0.282752
-0.339153 0.567283 0.170699
-0.254715 0.54596 -0.351363
-0.289619 0.54596 0.011613
-0.344938 0.54596 0.117594
-0.275072 0.567283 -0.317787
-0.254288 0.567283 0.267861
-0.336881 0.567283 -0.049786
-0.293328 0.567283 -0.468508
-0.297445 0.567283 0.207776
-0.249211 0.567283 -0.066718
-0.342965 0.567283 0.075559
-0.250207 0.567283 -0.296953
-0.249453 0.54596 0.187095
-0.253287 0.54596 0.006403
-0.327194 0.54596 -0.362332
-0.235605 0.54596 -0.230008
-0.320759 0.567283 -0.333849
-0.242565 0.54596 0.10535
-0.332527 0.567283 -0.199302
-0.33771 0.54596 -0.092644
-0.323461 0.567283 -0.380086
-0.245156 0.567283 -0.267937
-0.292554 0.567283 0.332516
-0.252942 0.54596 -0.41923
-0.331798 0.54596 -0.312909
-0.299757 0.567283 -0.129801
-0.299128 0.54596 0.420975
-0.327675 0.54596 0.147297
-0.351183 0.54596 0.166118
-0.296701 0.567283 0.135855
-0.234387 0.54596 -0.021977
-0.273052 0.54596 -0.137975
-0.300714 0.54596 -0.305291
-0.304667 0.54596 0.065141
-0.308272 0.54596 -0.419929
-0.326804 0.567283 0.290962
-0.229257 0.546272 0.390679
-0.329298 0.54596 -0.450023
-0.341834 0.567283 -0.257391
-0.333521 0.567283 0.030021
-0.276205 0.54596 0.035078
-0.35147 0.567283 0.264127
-0.353997 0.54596 0.210111
-0.273936 0.567283 0.000588
-0.243098 0.54596 -0.454474
0.018893 -0.403034 -0.502925
-0.047983 -0.357756 -0.502925
-0.11161 -0.377707 -0.502925
-0.184797 -0.35156 -0.502925
-0.300868 -0.333392 -0.502925
-0.180653 -0.302626 -0.502925
-0.090369 -0.31834 -0.502925
0.01231 -0.359875 -0.502925
-0.333076 -0.404222 -0.502925
-0.114074 -0.336274 -0.502925
-0.142676 -0.295329 -0.502925
-0.008007 -0.381335 -0.502925
-0.164582 -0.407121 -0.502925
-0.034625 -0.379423 -0.502925
-0.085349 -0.379942 -0.502925
-0.07698 -0.342413 -0.502925
-0.278374 -0.327669 -0.502925
-0.378523 0.142139 -0.525587
-0.378523 0.591854 -0.103938
-0.357199 0.114106 0.193511
-0.378523 -0.318401 -0.497675
-0.378523 0.566586 -0.523144
-0.378523 -0.013372 -0.180212
-0.378523 -0.393737 0.153752
-0.378523 0.442036 0.193734
-0.378523 0.274598 -0.052234
-0.378523 -0.281604 -0.197422
-0.378523 -0.156776 0.040882
-0.378523 -0.077977 -0.416816
-0.378523 0.207554 -0.273379
-0.378523 0.421493 0.390662
-0.378523 0.4059 -0.212075
-0.378523 -0.16506 0.449164
-0.357199 0.251564 0.316719
-0.357199 0.455467 0.006922
-0.378523 0.100212 -0.026422
-0.378523 -0.022471 0.296828
-0.378523 -0.219516 0.193009
-0.378523 -0.228675 -0.352327
-0.357199 0.077854 -0.368061
-0.372008 0.599268 0.164818
-0.378523 0.443167 -0.392028
-0.378523 0.099793 0.409845
-0.378523 -0.271393 0.342611
-0.357199 0.219953 0.086748
-0.357199 0.24738 -0.416978
-0.378523 -0.012814 0.066158
-0.378523 0.542587 0.299592
-0.357199 -0.16795 -0.528857
-0.374818 -0.402942 0.399152
-0.378523 -0.144547 -0.239616
-0.358948 0.599268 0.030878
-0.378523 -0.29533 0.044162
-0.378523 0.115206 -0.1568
-0.378523 0.347284 0.073509
-0.378523 -0.092281 -0.06795
-0.367811 -0.034735 -0.53491
-0.378523 -0.091867 0.193917
-0.378523 0.340384 -0.317282
-0.378523 0.291415 0.183378
-0.378523 -0.022893 0.417173
-0.357199 -0.030639 -0.296554
-0.378523 -0.136153 0.332695
-0.378523 -0.376293 0.271659
-0.378523 0.282927 -0.170973
-0.378523 0.586766 -0.225746
-0.375516 0.599268 -0.410637
-0.369991 0.258618 -0.53491
-0.378523 0.369151 0.283211
-0.378523 -0.195059 -0.121226
-0.378523 0.437162 -0.529739
-0.378523 0.500245 0.102755
-0.378523 0.117095 0.298035
-0.357199 0.011541 0.17217
-0.357199 0.053235 -0.469788
-0.377447 -0.402942 -0.43663
-0.378523 0.492589 -0.269503
-0.378523 -0.397027 -0.284327
-0.378523 0.366159 -0.099937
-0.378523 0.503503 -0.156044
-0.378523 0.011959 -0.082861
-0.378523 0.542497 0.402516
-0.378523 -0.347074 -0.122894
-0.357199 0.215173 0.410322
-0.378523 0.340687 -0.43453
-0.378523 0.153759 -0.427526
-0.357199 -0.12963 -0.338841
-0.357199 0.186279 -0.082096
-0.378523 -0.225535 -0.457522
-0.378523 -0.246497 -0.035056
-0.357199 -0.286872 0.135253
-0.357199 -0.093651 0.102284
-0.378523 -0.317168 -0.407662
-0.357199 0.203679 0.197812
-0.378523 0.085901 0.105869
-0.378523 0.310819 0.419692
-0.378523 0.505692 -0.455682
-0.378523 0.11881 -0.282477
-0.378523 0.182949 0.003791
-0.357199 -0.101757 -0.152627
-0.357199 0.523653 0.215857
-0.378523 0.460878 -0.080536
-0.378523 0.539847 -0.345554
-0.378523 -0.310432 -0.299211
-0.357199 0.461786 0.27283
-0.357199 -0.201538 0.271903
-0.357199 0.037265 -0.247982
-0.378523 0.052537 0.24506
-0.378523 0.197281 -0.354913
-0.357199 -0.30986 0.227191
-0.357199 0.031977 0.353406
-0.378523 0.367306 -0.019113
-0.378523 -0.16603 0.132501
-0.378523 0.00238 -0.410827
-0.378523 -0.375766 0.044272
-0.357199 0.284695 0.028488
-0.357199 -0.233515 -0.257587
-0.357199 0.208351 -0.189615
-0.357199 -0.1028 0.402962
-0.357199 0.384328 0.140095
-0.378523 -0.157029 -0.414673
-0.378523 -0.325557 -0.04639
-0.357199 -0.338689 0.442592
-0.378523 0.418215 -0.29096
-0.357199 -0.221754 0.401542
-0.357199 -0.099462 0.267492
-0.378523 -0.051169 -0.003517
-0.37042 -0.242184 -0.53491
-0.357199 -0.216263 0.080614
-0.357199 0.025925 0.006065
-0.378523 -0.1627 -0.044168
-0.378523 0.363693 -0.522187
-0.357199 0.121749 0.040353
-0.365962 0.599268 -0.297318
-0.377784 -0.381817 -0.53491
-0.378523 0.173556 0.343934
-0.378523 0.531499 0.01773
-0.378523 -0.370868 -0.360784
-0.378523 0.206506 0.266657
-0.357199 0.277049 -0.237579
-0.357199 0.303203 -0.372497
-0.357199 0.49645 0.347527
-0.378523 -0.121145 -0.478922
-0.357199 0.100754 -0.092232
-0.357199 0.293568 0.111397
-0.378523 -0.353292 -0.231051
-0.357199 0.376591 -0.371881
-0.357199 -0.258454 -0.13548
-0.357199 -0.17835 -0.184356
-0.357199 0.254102 -0.324483
-0.378523 0.574062 0.090705
-0.357199 0.472175 -0.330176
-0.357199 0.347211 -0.160996
-0.378523 -0.15423 0.218556
-0.357199 0.432045 0.069443
-0.378523 0.033288 -0.310643
-0.357199 -0.042432 0.356263
-0.357199 0.340292 0.338518
-0.378523 0.591942 -0.038041
-0.378523 0.293086 0.270231
-0.357199 -0.094622 -0.281141
-0.357199 0.259417 -0.113522
-0.357199 0.38157 0.207305
-0.378523 0.143592 -0.221904
-0.357199 0.467322 -0.208529
-0.378523 0.045139 -0.152323
-0.357199 -0.03563 -0.4608
-0.357199 -0.049205 -0.229461
-0.357553 0.599268 0.424837
-0.378523 0.432669 -0.153508
-0.357199 0.162288 0.114999
-0.357199 0.037379 0.417836
-0.357199 -0.009256 0.238416
-0.378523 -0.18395 -0.291163
-0.378523 -0.036891 -0.355837
-0.357199 0.039167 -0.531054
-0.361122 0.599268 0.270058
-0.378523 0.147955 0.243962
-0.378523 0.430807 0.32936
-0.357199 0.155987 0.431511
-0.357199 -0.089148 0.04072
-0.378523 -0.042234 -0.125933
-0.361173 -0.102823 -0.53491
-0.357199 0.337356 -0.248416
-0.378523 0.08288 -0.213082
-0.378523 -0.308115 0.391509
-0.378523 0.229082 -0.482279
-0.357199 -0.228907 0.021228
-0.378523 0.136893 -0.360245
-0.357199 0.28684 0.36834
-0.357199 -0.163458 0.385182
-0.378523 -0.344599 0.095838
-0.378523 0.397122 -0.454134
-0.357199 -0.262314 -0.397592
-0.357199 0.497485 0.158245
-0.378523 0.538968 -0.063517
-0.357199 -0.040325 0.145673
-0.357199 -0.259744 0.2727
-0.357199 -0.373478 0.203628
-0.357199 0.230128 -0.021821
-0.357199 -0.285486 -0.450901
-0.357199 0.364017 0.425777
-0.373 -0.402942 0.094611
-0.378523 0.068079 0.160486
-0.378523 0.445678 0.136448
-0.378523 -0.28687 -0.088736
-0.378523 0.219076 0.146854
-0.378523 0.479323 0.43297
-0.357199 0.090997 0.343655
-0.378523 0.019211 0.112883
-0.357199 0.115777 -0.463434
-0.357199 0.449314 -0.454538
-0.378523 0.585445 0.362325
-0.357199 0.551978 0.455009
-0.378523 -0.292489 -0.352337
-0.378523 -0.110858 -0.006375
-0.378523 0.070653 0.032903
-0.378523 0.091721 -0.417451
-0.357199 -0.041036 -0.068653
-0.357199 0.416307 -0.055744
-0.378523 0.166786 -0.129205
-0.357199 -0.148506 -0.101528
-0.357199 -0.292772 -0.251871
-0.378523 0.404563 0.027096
-0.357199 -0.22687 0.134374
-0.378523 -0.334823 0.310933
-0.357199 -0.383545 -0.158908
-0.357199 -0.231587 -0.196549
-0.357199 -0.16906 -0.464729
-0.357199 -0.099601 -0.20935
-0.378523 0.167404 -0.309779
-0.378523 0.597229 -0.349841
-0.378523 0.031141 0.302575
-0.357199 -0.21979 0.347697
-0.378523 0.308596 -0.114229
-0.378523 0.249902 0.217059
-0.357199 0.492075 -0.39196
-0.378523 0.338502 0.156633
-0.357199 0.172632 0.063042
-0.357199 -0.120502 0.148469
-0.357199 0.322804 -0.052365
-0.357199 0.053337 -0.058877
-0.371701 0.599268 -0.472129
-0.357199 0.423058 -0.348008
-0.378523 -0.380443 0.352362
-0.378523 0.514403 -0.212333
-0.357199 -0.150475 0.280522
-0.357199 0.388952 0.356062
-0.378523 0.489979 -0.024852
-0.378523 0.413193 0.25654
-0.357199 0.009734 -0.351378
-0.357199 -0.266285 0.191962
-0.357199 0.488618 0.057603
-0.378523 0.310461 -0.521386
-0.357199 -0.372854 -0.48796
-0.357199 0.079107 -0.316861
-0.357199 -0.267109 0.082911
-0.357199 -0.157002 0.086932
-0.378523 -0.324963 -0.171208
-0.378523 -0.173742 -0.366877
-0.378523 -0.262463 0.427841
-0.378523 0.487253 -0.50268
-0.357199 0.496058 -0.109727
-0.357199 -0.080895 -0.371365
-0.357199 0.293636 -0.284673
-0.357199 0.546509 0.142671
-0.378523 0.172498 0.165276
-0.378523 -0.186914 0.001268
-0.378523 0.550217 -0.433492
-0.357199 0.006428 -0.127436
-0.357199 0.31406 0.222158
-0.357199 0.037974 0.063565
-0.357199 0.093172 -0.507597
-0.357199 0.161794 0.295631
-0.378523 -0.206152 -0.067408
-0.357199 -0.177288 0.179312
-0.357199 -0.213398 -0.403286
-0.378523 -0.371542 -0.080261
-0.357199 0.163977 -0.26553
-0.378523 0.216649 -0.124873
-0.378523 -0.365624 -0.014439
-0.378523 -0.009269 -0.028331
-0.357199 0.594163 0.210917
-0.378523 -0.354841 -0.443455
-0.378523 0.24211 0.037427
-0.357199 -0.055785 0.225117
-0.357199 0.375168 -0.285846
-0.357199 0.516209 0.2635
-0.378523 0.345874 0.381322
-0.357199 0.294717 -0.425413
-0.378523 0.205926 -0.428086
-0.378523 0.262932 0.080585
-0.357199 0.134923 0.361518
-0.368062 0.211386 -0.53491
-0.357199 0.144727 -0.059837
-0.378523 0.013655 -0.497669
-0.378523 0.2316 0.353517
-0.378523 -0.023412 0.198755
-0.357199 0.38564 0.093272
-0.378523 -0.068843 0.30325
-0.378523 -0.085904 -0.330059
-0.357199 0.356116 -0.481325
-0.378523 -0.061417 -0.493383
-0.357199 0.399973 -0.124084
-0.357199 0.34915 0.032478
-0.357199 -0.082713 -0.110623
-0.378523 0.595908 0.317506
-0.357199 -0.08816 0.35135
-0.357199 0.356429 -0.205962
-0.357199 0.569033 -0.00469
-0.357199 0.070798 0.294853
-0.359371 -0.402942 0.445926
-0.378523 0.175848 0.396421
-0.357199 0.159545 -0.168766
-0.357199 0.252793 -0.371815
-0.378523 0.483357 0.238993
-0.357199 -0.344187 -0.323117
-0.378523 0.097962 0.244947
-0.357199 0.421162 -0.250975
-0.357199 -0.252482 -0.490227
-0.357199 0.217528 -0.234708
-0.378523 0.561918 -0.385321
-0.378523 0.313025 0.000427
-0.357199 0.051985 -0.420695
-0.357199 0.162233 -0.472902
-0.357199 0.122158 0.089841
-0.378523 0.182518 -0.042669
-0.357199 -0.117181 -0.421267
-0.378523 -0.259552 0.233248
-0.378523 0.03931 -0.202948
-0.378523 -0.00971 -0.263301
-0.378523 -0.055179 0.095872
-0.378523 -0.314628 0.162593
-0.375307 -0.402942 0.307022
-0.357199 0.261519 0.42236
-0.378523 -0.188642 -0.238388
-0.378523 -0.222944 0.447336
-0.378523 0.021046 0.45267
-0.357199 0.135465 -0.001421
-0.378523 0.307057 -0.46333
-0.378523 0.270238 0.144926
-0.357199 0.23795 -0.156569
-0.378523 0.225411 -0.059692
-0.357199 0.356425 0.243024
-0.357199 0.412636 0.296035
-0.378523 0.401984 -0.497357
-0.378523 -0.188863 0.30763
-0.357199 0.002341 -0.214638
-0.378523 0.062078 -0.112353
-0.378523 0.303463 0.330122
-0.378523 0.055036 0.201766
-0.378523 0.339256 -0.361979
-0.357199 -0.046186 0.037016
-0.378523 -0.243792 -0.090475
-0.377982 -0.296766 -0.53491
-0.378523 0.544057 -0.245391
-0.357199 0.344818 0.119847
-0.357199 0.174127 -0.39646
-0.357199 -0.214382 0.231145
-0.357199 0.447513 0.362388
-0.378523 -0.067278 0.392968
-0.378523 0.392986 -0.40474
-0.377125 0.525845 -0.53491
-0.378523 -0.076537 0.141737
-0.378523 -0.181373 0.353474
-0.357199 -0.174102 -0.326222
-0.378523 -0.052181 -0.265696
-0.378523 -0.362797 0.415422
-0.357199 -0.298672 0.307936
-0.378523 0.071581 -0.259666
-0.357199 0.516106 -0.310003
-0.378523 0.594615 -0.163633
-0.378523 -0.116418 -0.385294
-0.357199 -0.267521 0.005205
-0.357199 0.199397 0.318964
-0.357199 -0.077383 -0.028043
-0.378523 -0.206023 -0.515678
-0.357199 0.558598 0.189154
-0.357199 -0.274611 -0.289345
-0.357199 0.481237 0.19658
-0.378523 -0.003068 0.347131
-0.378523 -0.114448 0.229624
-0.357199 0.442449 0.229048
-0.378523 0.483674 0.380369
-0.357199 -0.142459 -0.16425
-0.357199 -0.121502 0.066202
-0.357199 0.463141 0.09626
-0.357199 -0.313607 -0.211768
-0.357199 -0.228902 0.302386
-0.378523 0.426983 -0.013297
-0.357199 -0.326749 -0.081278
-0.376981 0.599268 0.12274
-0.378523 0.54544 0.061718
-0.357199 -0.393029 0.239363
-0.37785 -0.402942 -0.119987
-0.378523 -0.376465 -0.192771
-0.378523 0.475672 0.319878
-0.378523 -0.338933 0.255944
-0.378523 0.299874 -0.31853
-0.378523 0.117516 -0.322924
-0.357199 0.4009 -0.166341
-0.378523 -0.33575 0.049355
-0.378523 -0.128939 0.372362
-0.378523 -0.340314 0.195257
-0.357199 0.116043 -0.248429
-0.378523 0.359076 -0.060301
-0.357199 -0.058644 0.270696
-0.357199 0.552896 0.247101
-0.357199 0.157801 0.211452
-0.357199 0.070809 -0.181415
-0.357199 0.31135 0.058313
-0.357199 0.275136 0.23956
-0.357199 -0.315741 0.34591
-0.357199 0.023063 0.212679
-0.378523 0.45476 -0.247878
-0.357199 0.210658 0.025483
-0.378523 0.370553 -0.243424
-0.357199 0.127528 -0.406585
-0.357199 0.321609 0.451428
-0.378523 0.499724 -0.072559
-0.357199 -0.348502 -0.528898
-0.357199 0.27908 -0.019149
-0.378523 0.496734 -0.352757
-0.378523 0.130863 0.164747
-0.357199 0.543793 0.337752
-0.378523 0.194249 -0.159521
-0.378523 0.460006 -0.291798
-0.378523 0.183034 -0.221672
-0.378523 0.029283 -0.446907
-0.378523 0.542648 -0.151872
-0.378523 -0.305527 0.091662
-0.378523 -0.246441 0.379701
-0.357199 -0.144261 -0.206663
-0.357199 -0.338547 -0.26959
-0.357199 -0.062377 0.178068
-0.378523 -0.036755 -0.410153
-0.357199 0.408278 0.420659
-0.357199 0.008258 0.392052
-0.378523 -0.401854 0.008898
-0.378523 0.51797 0.436125
-0.378523 -0.187189 0.098398
-0.357199 -0.137445 -0.271075
-0.357199 0.429087 -0.092226
-0.357199 0.313684 0.295026
-0.378523 0.225764 -0.307459
-0.378523 -0.194593 0.418728
-0.378523 0.376931 0.326266
-0.357199 -0.368018 0.302664
-0.378523 0.191052 0.227252
-0.357199 0.505867 0.309221
-0.357199 -0.132582 -0.066727
-0.357199 -0.103069 0.305545
-0.357199 0.449992 -0.037716
-0.378523 -0.051592 -0.16282
-0.357199 -0.176635 0.243133
-0.357199 -0.383256 -0.248557
-0.378523 0.132215 -0.092598
-0.364351 0.47327 -0.53491
-0.357199 0.253078 -0.076178
-0.378523 -0.147893 -0.30269
-0.378523 -0.286319 -0.149556
-0.357199 0.234865 0.279675
-0.378523 -0.011695 -0.321233
-0.357199 -0.373525 0.383455
-0.378523 0.557362 -0.195173
-0.357199 0.429402 -0.422582
-0.357199 0.389523 -0.320639
-0.378523 0.135612 0.39252
-0.378523 -0.238508 -0.288184
-0.357199 -0.319004 -0.368297
-0.378523 -0.249349 0.044368
-0.357199 -0.291062 -0.058156
-0.357199 0.096617 -0.129512
-0.357199 -0.004406 0.028004
-0.357199 0.495359 -0.238943
-0.378523 -0.098593 -0.449193
-0.357199 0.184587 0.45545
-0.378523 -0.320765 0.1259
-0.378523 0.351031 -0.398808
-0.357199 0.597975 0.068909
-0.357199 0.00405 0.28207
-0.357199 0.2566 -0.283111
-0.378523 0.46414 -0.133965
-0.357199 0.537505 -0.505952
-0.378523 -0.297656 0.003527
-0.36407 0.003117 -0.53491
-0.378523 0.268176 0.391888
-0.378523 -0.252495 -0.219963
-0.378523 0.050142 -0.343159
-0.378523 0.567099 -0.309391
-0.378523 0.052448 0.091174
-0.357199 0.087344 0.008424
-0.378523 0.447708 0.035502
-0.357199 -0.054424 -0.192181
-0.357199 0.137128 -0.137099
-0.357199 0.311685 0.142924
-0.357199 0.51318 0.401342
-0.378523 -0.280882 -0.497476
-0.378523 -0.009359 -0.447807
-0.357199 -0.018655 0.446171
-0.357199 -0.366785 0.1221
-0.357199 0.118837 -0.206262
-0.378523 -0.299618 0.254605
-0.357199 0.311696 -0.222974
-0.357199 -0.369491 0.080676
-0.357199 -0.203616 -0.438454
-0.357199 0.386371 0.057387
-0.378523 -0.122495 0.102233
-0.378523 0.11927 0.119009
-0.378523 0.031745 -0.022136
-0.378523 0.149284 0.079866
-0.357199 0.230017 -0.453563
-0.378523 0.046128 0.3784
-0.378523 0.540962 0.104233
-0.357199 -0.082971 0.437201
-0.378523 -0.163718 -0.144997
-0.378523 -0.35912 -0.289505
-0.357199 0.394322 -0.084234
-0.378523 -0.240024 0.159718
-0.378523 0.18951 0.123445
-0.378523 0.544232 0.367002
-0.357199 -0.329598 -0.459273
-0.378523 0.206423 -0.389132
-0.378523 -0.358933 -0.405213
-0.357199 -0.042114 -0.030582
-0.357199 0.178331 -0.504364
-0.357199 0.463104 0.45601
-0.378523 -0.139783 -0.528526
-0.357199 0.198446 -0.300991
-0.357199 0.49189 -0.183281
-0.357199 -0.14935 -0.387741
-0.357199 -0.256451 -0.355702
-0.378523 0.456885 -0.353522
-0.378523 -0.223412 -0.008644
-0.378523 -0.260801 -0.438148
-0.378523 -0.351076 0.160235
-0.378523 0.233874 0.185991
-0.357199 -0.184461 0.040188
-0.378523 -0.147608 0.162201
-0.378523 -0.013693 0.160823
-0.357199 0.492499 0.002682
-0.357199 0.570283 -0.488292
-0.357199 -0.015081 -0.099946
-0.357199 -0.120186 -0.121933
-0.357199 -0.219025 -0.107498
-0.357199 0.011531 -0.168276
-0.378523 0.357942 0.193056
-0.357199 -0.172539 -0.266074
-0.378523 0.571497 0.423426
-0.378523 0.211227 0.053482
-0.378523 0.33729 -0.13543
-0.357199 0.091461 -0.283399
-0.378523 -0.276447 0.166559
-0.378523 -0.1308 0.406989
-0.378523 0.307355 0.08531
-0.378523 0.396707 -0.532565
-0.357199 -0.049748 -0.33193
-0.378523 0.284424 -0.089683
-0.378523 -0.321583 -0.244452
-0.357199 0.267759 0.196776
-0.378523 -0.23702 -0.388423
-0.378523 -0.225372 -0.137313
-0.357199 -0.154717 -0.018504
-0.378523 -0.123681 -0.189473
-0.378523 0.418183 0.156806
-0.357199 -0.064996 -0.440176
-0.357199 0.248151 0.129943
-0.357199 0.509257 -0.043198
-0.378523 0.582943 -0.071046
-0.357199 0.078554 0.08043
-0.378523 0.541321 -0.466209
-0.378523 0.024908 -0.385517
-0.357199 0.33535 -0.530511
-0.378523 -0.094474 -0.234993
-0.357199 0.052154 0.326362
-0.357199 0.128346 0.261244
-0.357199 0.156875 -0.343442
-0.357199 0.448169 -0.17447
-0.378523 0.456212 -0.489726
-0.357199 0.38373 -0.429037
-0.357199 -0.301016 0.184566
-0.378523 -0.237417 0.32892
-0.378523 0.236288 -0.343039
-0.357199 0.296131 -0.148903
-0.357199 0.332895 0.181721
-0.357199 0.159684 -0.102302
-0.378523 -0.241616 0.086112
-0.378523 0.090888 -0.450827
-0.378523 0.511007 0.044082
-0.357199 0.481468 -0.445602
-0.378523 -0.272963 -0.325395
-0.378523 0.271364 0.006872
-0.357199 0.523478 -0.36497
-0.378523 0.434148 -0.117105
-0.367522 -0.070286 -0.53491
-0.378523 0.278771 -0.20386
-0.378523 0.18116 -0.450073
-0.378523 0.296357 0.449568
-0.378523 -0.131238 0.019852
-0.357199 0.221055 0.225956
-0.357199 -0.356331 0.009003
-0.378523 0.377723 -0.156421
-0.357199 -0.311217 -0.324533
-0.378523 -0.304578 -0.467286
-0.357199 0.420392 0.454484
-0.357199 -0.330858 0.402145
-0.357199 0.073147 0.25937
-0.357199 0.463539 0.15402
-0.378523 0.197464 0.36653
-0.357199 0.572818 -0.333772
-0.357199 -0.126781 -0.452642
-0.378523 0.581982 -0.4417
-0.378523 0.435086 0.280921
-0.378523 -0.206794 -0.267671
-0.360695 -0.402942 -0.200084
-0.37 0.599268 -0.520257
-0.378523 0.142992 -0.492869
-0.357199 0.029806 0.254909
-0.378523 -0.133453 0.440844
-0.378523 0.575143 -0.132016
-0.378523 0.508415 0.136038
-0.378523 -0.332366 0.364207
-0.378523 0.486249 0.275873
-0.357199 -0.005338 -0.065301
-0.357199 0.07012 0.124778
-0.378523 0.070288 -0.498581
-0.357199 -0.114423 0.184124
-0.357199 0.23668 -0.205633
-0.357199 -0.269675 0.404461
-0.378523 -0.334672 -0.004711
-0.357199 0.422517 -0.472797
-0.357199 0.22702 -0.095398
-0.378523 0.157505 0.043949
-0.378523 -0.211535 -0.308087
-0.378523 -0.02294 0.098415
-0.378523 0.195691 0.087301
-0.357199 0.151785 0.333277
-0.378523 0.15454 -0.026562
-0.357199 0.090485 0.221905
-0.378523 0.252917 -0.440552
-0.357199 0.166409 0.259515
-0.357199 -0.186674 -0.041654
-0.357199 -0.030237 0.319581
-0.357199 -0.243297 0.214407
-0.357199 0.056444 -0.278328
-0.378523 0.228877 0.385498
-0.378523 0.456646 0.397633
-0.378523 0.273024 0.348848
-0.357199 0.010387 0.090706
-0.378523 0.179608 0.428212
-0.378523 0.181549 -0.530164
-0.357199 -0.171871 -0.079725
-0.357199 0.441532 -0.306802
-0.357199 0.048918 -0.381567
-0.378523 0.328246 -0.270361
-0.378523 -0.095229 0.377666
-0.373237 0.599268 0.390537
-0.378523 0.100075 -0.48132
-0.357199 0.253943 0.162037
-0.357199 0.149339 0.179421
-0.378523 -0.066917 0.248618
-0.378523 0.179899 -0.187839
-0.378523 0.256332 -0.024867
-0.357199 0.391541 0.265545
-0.378523 -0.290201 0.214519
-0.357199 -0.396686 0.335559
-0.357199 0.082366 -0.046327
-0.357199 0.119918 -0.532719
-0.378523 0.186069 -0.482385
-0.378523 0.43419 0.43363
-0.357199 0.045169 0.180665
-0.357199 -0.348312 -0.355252
-0.357199 0.063983 -0.226474
-0.357199 -0.160342 0.34397
-0.378523 0.022806 -0.053443
-0.357199 0.567606 -0.238437
-0.378523 0.318778 0.357471
-0.378523 -0.103289 -0.100441
-0.357199 0.342841 -0.076531
-0.378523 -0.212812 0.037548
-0.378523 0.093854 0.366388
-0.378523 -0.395251 0.210649
-0.378523 -0.106766 -0.037355
-0.357199 0.108019 -0.37618
-0.369022 0.599268 -0.198749
-0.378523 -0.353114 -0.4994
-0.357199 0.397606 0.234065
-0.378523 -0.073988 -0.131636
-0.357199 0.47835 -0.064769
-0.378523 0.397344 0.112732
-0.357199 0.163919 -0.209468
-0.378523 0.578053 0.05815
-0.372838 0.599268 -0.253643
-0.357199 -0.273971 0.035596
-0.378523 0.567672 0.150444
-0.363518 -0.402942 0.276622
-0.378523 0.453878 0.248513
-0.378523 -0.277687 0.286204
-0.357199 0.179207 0.143278
-0.357199 0.319109 -0.307175
-0.378523 0.362518 -0.341715
-0.378523 -0.059197 -0.081578
-0.378523 -0.322884 -0.103221
-0.378523 0.445452 -0.212784
-0.357199 -0.357156 -0.035036
-0.357199 0.329026 -0.459743
-0.378523 -0.177077 -0.206539
-0.357199 -0.187955 0.129183
-0.357199 -0.011353 0.367588
-0.369682 0.087 -0.53491
-0.357199 -0.147054 -0.506507
-0.378523 0.100798 0.027834
-0.357199 -0.248942 0.356796
-0.357199 0.281743 0.065367
-0.357199 -0.064719 0.076411
-0.357199 0.522995 0.371168
-0.378523 -0.016247 0.258884
-0.378523 0.420926 0.226992
-0.378523 0.069542 -0.07319
-0.357199 -0.265393 -0.091196
-0.378523 0.323157 -0.087616
-0.378523 0.395171 0.437778
-0.357199 -0.199331 0.204833
-0.378523 0.065767 -0.297742
-0.378523 0.405975 -0.377363
-0.357199 -0.012771 -0.395532
-0.378523 0.540233 -0.099143
-0.357199 0.342683 0.286401
-0.378523 -0.231858 0.28113
-0.378523 -0.215126 0.368641
-0.357199 -0.026674 -0.163424
-0.357199 -0.045886 0.115167
-0.378523 0.229451 0.426222
-0.357199 0.541339 0.082666
-0.378523 0.032729 -0.119344
-0.357199 0.000528 -0.282028
-0.357199 -0.296243 -0.411816
-0.378523 0.082116 0.312936
-0.378523 0.109813 0.072442
-0.378523 0.103306 0.4398
-0.357199 -0.025212 -0.248676
-0.378523 -0.116388 -0.322141
-0.378523 0.32838 -0.209851
-0.357199 -0.37367 -0.420483
-0.357199 0.107636 -0.434501
-0.357199 -0.093795 0.162219
-0.357199 -0.11016 0.01844
-0.357199 -0.320087 -0.026012
-0.378523 0.518167 -0.492183
-0.378523 0.111389 0.338891
-0.378523 0.301316 0.238773
-0.357199 0.415476 0.094748
-0.357199 0.262603 -0.17592
-0.357199 0.521543 0.111992
-0.378523 0.49819 -0.298832
-0.378523 -0.164842 0.416292
-0.357199 0.387472 -0.231322
-0.357199 0.194457 0.168865
-0.378523 0.056858 0.425002
-0.378523 -0.266976 -0.467254
-0.357199 0.324312 0.097235
-0.357199 0.427056 0.033838
-0.378523 -0.284374 -0.271096
-0.378523 0.014801 -0.231136
-0.357199 -0.091008 0.214556
-0.378523 -0.013473 -0.133286
-0.378523 0.550622 0.271021
-0.378523 0.153675 -0.283477
-0.378523 -0.376164 0.445984
-0.378523 -0.051935 0.423085
-0.378523 -0.111791 0.28695
-0.357199 -0.236108 0.251172
-0.357199 0.463397 -0.39904
-0.378523 0.178367 0.200598
-0.378523 -0.122258 -0.284634
-0.378523 0.575627 0.200254
-0.378523 -0.376333 -0.051194
-0.378523 0.378792 0.24169
-0.357199 0.028656 -0.094377
-0.357199 -0.106694 -0.251181
-0.378523 -0.325618 0.427109
-0.378523 0.289473 -0.346041
-0.357199 0.356165 0.091681
-0.378523 0.44273 0.107212
-0.357199 0.577405 0.403241
-0.378523 -0.150108 -0.457725
-0.378523 0.469369 -0.162856
-0.357199 -0.380212 -0.383954
-0.378523 -0.391353 -0.313115
-0.357199 0.01176 -0.024638
-0.378523 -0.264971 -0.377641
-0.378523 0.564084 -0.047185
-0.357199 0.078752 -0.402072
-0.378523 -0.208462 0.126275
-0.378523 0.356887 -0.458926
-0.357199 0.272997 0.449301
-0.357199 0.522958 -0.194189
-0.357199 -0.192769 0.450301
-0.357199 -0.196997 0.157709
-0.357199 0.333348 -0.336012
-0.357199 0.19419 -0.026448
-0.378523 0.007693 0.227848
-0.378523 0.541237 0.19899
-0.378523 0.577238 -0.282023
-0.357199 0.586218 0.452394
-0.357199 -0.304681 0.414982
-0.357199 -0.355867 -0.092444
-0.378523 -0.155448 0.003655
-0.357199 0.050893 -0.008917
-0.357199 -0.393368 -0.51706
-0.357199 0.500364 -0.517508
-0.378523 0.039107 0.272356
-0.378523 -0.324395 -0.435806
-0.378523 -0.011268 -0.369423
-0.378523 0.404959 -0.340379
-0.357199 0.303425 -0.073927
-0.357199 -0.076931 -0.167554
-0.357199 -0.148621 -0.132501
-0.378523 0.138394 0.439958
-0.357199 -0.145108 0.201346
-0.357199 -0.096731 0.132072
-0.378523 0.514284 0.339748
-0.378523 0.088194 -0.172689
-0.378523 -0.078403 -0.469811
-0.378523 0.150462 -0.398859
-0.357199 -0.234168 0.427586
-0.357199 0.598762 0.336677
-0.378523 0.370644 0.407578
-0.378523 0.482931 0.177333
-0.357199 -0.162132 -0.436826
-0.378523 -0.125976 0.203206
-0.357199 -0.32622 0.293812
-0.378523 -0.226627 -0.2323
-0.357199 0.251212 -0.043311
-0.357199 0.409558 -0.021211
-0.357199 0.250367 0.357055
-0.357199 0.319897 0.402914
-0.357199 0.043525 0.114247
-0.357199 0.521911 -0.265534
-0.357199 0.42887 -0.222147
-0.378523 0.180815 0.295705
-0.357199 -0.048343 0.391611
-0.378523 -0.384553 -0.458436
-0.357199 0.273773 -0.406023
-0.357199 0.137697 -0.37992
-0.357199 0.009686 0.424728
-0.378523 0.383457 0.004394
-0.357199 -0.293012 -0.482261
-0.378523 0.15633 -0.24824
-0.357199 -0.329296 -0.298283
-0.378523 0.411576 -0.099297
-0.378523 0.154084 0.364714
-0.357199 -0.234333 0.1777
-0.357199 0.554871 -0.453105
-0.357199 -0.086751 -0.399209
-0.357199 -0.188682 -0.103507
-0.378523 0.228831 -0.371637
-0.378523 0.231544 -0.174221
-0.357199 0.326855 -0.118388
-0.357199 0.028073 0.149108
-0.359236 -0.402942 -0.013961
-0.357199 -0.343185 -0.166068
-0.378523 0.558856 0.025123
-0.357199 0.098225 0.1284
-0.357199 0.420494 0.353868
-0.357199 0.239602 -0.260455
-0.378523 -0.066232 0.364666
-0.357199 -0.129332 -0.302995
-0.378523 0.106888 -0.232285
-0.378523 -0.1932 -0.490521
-0.357199 0.164827 0.007364
-0.378523 0.110008 -0.515178
-0.357199 0.21169 -0.410561
-0.378523 -0.028729 -0.487879
-0.357199 0.239836 0.246977
-0.378523 0.015827 0.073157
-0.378523 -0.156487 -0.27594
-0.378523 -0.082505 -0.202911
-0.378523 0.499152 0.200241
-0.357199 0.2053 0.346385
-0.378523 -0.204298 -0.029128
-0.357199 -0.134446 0.041368
-0.357199 -0.034514 0.180876
-0.357199 -0.281916 -0.179281
-0.378523 0.510928 -0.327388
-0.378523 -0.105037 0.344703
-0.357199 0.429671 -0.379936
-0.357199 -0.173955 0.014252
-0.378523 0.146178 0.013173
-0.357199 0.231701 0.006096
-0.378523 -0.149521 -0.485664
-0.357199 -0.220161 -0.282135
-0.378523 0.02657 0.182185
-0.357199 0.517376 -0.07631
-0.357199 -0.39469 0.171761
-0.378523 0.474283 0.046662
-0.357199 -0.150681 -0.357173
-0.357199 -0.181221 -0.132726
-0.378523 0.1308 -0.048472
-0.378523 0.085312 0.056579
-0.378523 0.460645 -0.010212
-0.357199 0.481363 -0.361924
-0.378523 0.354856 0.015521
-0.357199 -0.03857 -0.43159
-0.378523 -0.027626 -0.087329
-0.357199 -0.124411 -0.366182
-0.357199 -0.282702 -0.378705
-0.357199 0.24769 -0.512872
-0.357199 0.311892 0.023102
-0.378523 0.209574 -0.003861
-0.357199 -0.347198 0.035895
-0.357199 -0.007945 0.207281
-0.378523 0.228277 -0.515672
-0.357199 0.213504 0.13015
-0.378523 -0.066996 -0.289039
-0.378523 -0.027182 0.010207
-0.357199 -0.313227 0.145115
-0.378523 -0.203831 -0.36433
-0.378523 0.087429 -0.353416
-0.378523 0.512882 -0.105043
-0.378523 0.291931 -0.228469
-0.357199 0.316319 -0.408364
-0.357199 -0.219226 -0.527507
-0.357199 0.477298 -0.293297
-0.357199 -0.058382 0.012413
-0.378523 0.152364 -0.153068
-0.357199 0.349116 -0.277274
-0.378523 0.123745 0.207814
-0.378523 0.320252 0.258608
-0.378523 0.488171 -0.204341
-0.378523 0.458307 -0.188415
-0.357199 -0.334893 0.066508
-0.357199 0.270059 -0.441393
-0.357199 0.363085 -0.138704
-0.357199 -0.188346 -0.414277
-0.378523 0.11464 -0.071635
-0.357199 0.400866 0.187961
-0.378523 0.028491 0.403252
-0.378523 0.590144 0.014151
-0.357199 0.3001 0.167651
-0.378523 -0.113748 -0.140562
-0.357199 0.282665 -0.533622
-0.357199 0.447671 -0.138113
-0.357199 0.493336 0.128298
-0.357199 0.228396 -0.285279
-0.357199 -0.220577 -0.473712
-0.378523 0.238146 0.069324
-0.357199 0.037199 0.030839
-0.357199 0.180543 -0.357258
-0.357199 0.027101 -0.409764
-0.357199 0.514442 -0.441286
-0.378523 0.202036 -0.076259
-0.378523 0.339679 -0.006955
-0.378523 -0.352443 0.284568
-0.357199 -0.047855 0.298969
-0.357199 0.395641 0.31716
-0.378523 -0.004355 0.126273
-0.357199 -0.093539 -0.049789
-0.357199 0.194012 0.277707
-0.378523 -0.065038 -0.393047
-0.357199 -0.026941 -0.511286
-0.357199 0.265668 0.293649
-0.357199 0.427795 0.266002
-0.357199 0.048302 -0.125062
-0.378523 0.00514 0.309702
-0.357199 0.493498 0.087703
-0.357199 -0.294047 -0.103539
-0.357199 0.47847 -0.036582
-0.357199 0.24436 0.103297
-0.378523 0.277966 -0.302899
-0.378523 0.406919 -0.042296
-0.357199 -0.348011 0.369102
-0.378523 -0.326211 0.232248
-0.378523 0.263923 0.053123
-0.357199 0.281248 0.401689
-0.378523 -0.209104 -0.423068
-0.357199 0.378414 0.166295
-0.357199 0.061293 -0.149967
-0.373431 -0.402942 -0.479984
-0.378523 -0.080963 0.271496
-0.378523 -0.380033 -0.229188
-0.378523 0.267026 -0.12782
-0.378523 0.288762 -0.379688
-0.357199 0.202794 -0.373464
-0.357199 0.488788 0.260002
-0.378523 0.447377 -0.053574
-0.357199 -0.096957 -0.341654
-0.357199 0.200879 -0.327548
-0.378523 0.441835 -0.440386
-0.378523 0.534509 -0.411948
-0.378523 -0.042833 -0.317527
-0.378523 0.385749 -0.358804
-0.378523 -0.13483 0.246727
-0.378523 0.470405 -0.467226
-0.378523 0.052851 -0.518659
-0.357199 0.073987 -0.453245
-0.378523 -0.3411 -0.074674
-0.378523 -0.13157 -0.437604
-0.357199 0.045306 0.287519
-0.357199 0.280042 -0.319038
-0.378523 -0.088787 -0.513076
-0.357199 -0.259262 0.057601
-0.378523 -0.251286 0.19649
-0.378523 0.569357 -0.171515
-0.378523 -0.284762 0.365443
-0.378523 0.016255 -0.153378
-0.378523 0.417195 -0.071323
-0.378523 0.386769 0.072972
-0.357199 0.12535 -0.496113
-0.378523 -0.127244 -0.409475
-0.378523 -0.242755 0.009263
-0.378523 0.562835 0.385671
-0.357199 -0.301473 0.058365
-0.378523 -0.333056 -0.529696
-0.357199 -0.327671 -0.418985
-0.357199 -0.341176 -0.055952
-0.357199 0.306066 0.345292
-0.357199 0.084789 -0.479731
-0.357199 -0.391612 0.422311
-0.357199 0.016907 0.04791
-0.378523 -0.146968 -0.328898
-0.378523 -0.236583 -0.059319
-0.378523 -0.206708 0.06303
-0.378523 0.384062 0.191041
-0.357199 0.334699 -0.191367
-0.378523 0.117593 -0.395121
-0.378523 -0.155668 0.294774
-0.378523 -0.18716 0.254052
-0.357199 -0.136088 0.108926
-0.357199 -0.196317 -0.383486
-0.357199 0.36798 -0.507722
-0.378523 -0.37029 0.13677
-0.357199 0.172337 0.358949
-0.378523 0.529242 -0.174261
-0.378523 -0.214154 0.314022
-0.357199 0.391418 0.019938
-0.357199 -0.372743 0.255675
-0.378523 -0.168395 0.191288
-0.378523 0.567284 0.291419
-0.357199 -0.224539 0.055976
-0.357199 0.568372 0.214103
-0.378523 -0.18892 -0.327197
-0.378523 0.36956 0.098022
-0.357199 0.593068 0.094396
-0.378523 0.003229 -0.300041
-0.357199 0.530899 -0.139173
-0.378523 0.055507 0.311335
-0.378523 0.07357 -0.330381
-0.357199 0.356658 -0.029097
-0.378523 0.400903 0.335912
-0.357199 -0.269059 0.328215
-0.357199 -0.140866 0.360926
-0.378523 0.01089 -0.006921
-0.378523 0.510674 0.223317
-0.378523 -0.103415 -0.16702
-0.357199 0.536263 -0.427568
-0.357199 0.37911 -0.397505
-0.357199 0.116541 0.166374
-0.357199 0.55006 -0.05043
-0.378523 -0.181638 -0.533254
-0.378523 0.136561 -0.302613
-0.357199 0.173722 0.231553
-0.357199 0.305855 -0.507919
-0.378523 0.329965 -0.504808
-0.357199 -0.390546 0.01742
-0.357199 0.321619 -0.146567
-0.378523 0.463328 -0.108388
-0.357199 0.175702 -0.242785
-0.357199 0.187287 0.404728
-0.357199 0.3615 -0.232593
-0.357199 -0.181845 0.295389
-0.378523 0.518587 -0.243169
-0.378523 -0.162101 -0.105277
-0.357199 0.309726 -0.345773
-0.357199 0.445854 0.180176
-0.378523 0.015772 0.380143
-0.378523 -0.296669 0.321842
-0.378523 -0.31251 -0.148937
-0.378523 -0.166559 0.064442
-0.357199 0.212574 -0.159166
-0.357199 0.045173 -0.190292
-0.378523 0.372615 -0.420651
-0.378523 -0.196394 -0.091924
-0.357199 0.431356 0.152352
-0.378523 -0.000227 0.405586
-0.357199 -0.079948 0.387249
-0.357199 0.05201 -0.329423
-0.357199 0.170482 -0.049544
-0.378523 0.024716 -0.343122
-0.357199 0.109951 0.366212
-0.378523 -0.107372 0.159648
-0.378523 -0.20201 -0.216825
-0.378523 -0.079239 0.103879
-0.363187 0.161941 -0.53491
-0.378523 0.078115 0.339168
-0.378523 -0.367753 -0.108297
-0.378523 0.17655 0.250404
-0.378523 0.204456 -0.102718
-0.357199 -0.079757 -0.073204
-0.378523 0.514084 0.381409
-0.357199 -0.13747 0.225433
-0.357199 0.289405 0.3263
-0.378523 -0.371441 -0.164934
-0.357199 0.300623 -0.103312
-0.378523 0.250734 -0.495258
-0.357199 0.108 0.420567
-0.378523 0.291487 0.381014
-0.378523 -0.387956 -0.026194
-0.357199 -0.286142 0.254806
-0.357199 0.140562 -0.25435
-0.378523 0.35183 0.324087
-0.357199 -0.179818 -0.016459
-0.357199 0.359431 0.06671
-0.378523 0.307823 -0.422768
-0.378523 -0.057869 -0.451477
-0.378523 0.408523 0.051943
-0.378523 -0.291492 0.070787
-0.378523 -0.342251 -0.476713
-0.357199 0.575788 -0.037661
-0.378523 0.370141 -0.218293
-0.357199 -0.301096 -0.515507
-0.357199 -0.20388 -0.081041
-0.378523 0.206939 0.399996
-0.378523 0.323274 0.212748
-0.378523 0.320082 0.311371
-0.378523 0.151819 -0.179411
-0.378523 -0.086475 -0.355089
-0.357199 0.064299 0.23595
-0.357199 0.540175 0.02747
-0.357199 0.450675 -0.23432
-0.378523 -0.26534 -0.530295
-0.378523 0.027827 -0.180788
-0.357199 -0.371636 -0.292829
-0.378523 0.498176 0.400657
-0.357199 -0.012994 -0.4354
-0.357199 0.118324 0.310885
-0.378523 0.304968 -0.290826
-0.357199 0.534756 -0.389421
-0.357199 0.132103 -0.341001
-0.357199 0.564282 0.099004
-0.357199 0.198008 0.004066
-0.378523 -0.060637 0.122635
-0.378523 0.037917 -0.492291
-0.378523 0.331769 0.443738
-0.357199 -0.242923 -0.047283
-0.378523 0.314052 0.17318
-0.378523 0.253754 -0.163134
-0.357199 -0.381106 -0.211356
-0.358857 0.411654 -0.53491
-0.378523 0.212587 0.336155
-0.378523 -0.1883 -0.14769
-0.378523 0.272592 0.226867
-0.378523 0.233328 -0.106637
-0.378523 0.396045 0.221675
-0.357199 0.221884 0.181104
-0.357199 0.138323 0.287911
-0.357199 0.472973 -0.118526
-0.357199 0.374208 -0.109467
-0.378523 -0.324318 0.075627
-0.357199 0.452474 -0.100122
-0.357199 -0.04166 0.437244
-0.357199 0.011834 -0.260096
-0.378523 -0.116738 -0.07122
-0.378523 -0.30664 -0.222032
-0.373563 -0.402942 -0.221522
-0.378523 0.373344 0.134509
-0.357199 0.178621 -0.153193
-0.357199 -0.23423 -0.126869
-0.378523 0.156998 -0.45465
-0.378523 0.016518 0.139225
-0.378523 0.371748 -0.267958
-0.378523 -0.180892 0.397706
-0.357199 0.093975 0.307856
-0.378523 0.254692 -0.407291
-0.378523 0.291206 -0.019124
-0.357199 0.579758 -0.103486
-0.357199 -0.278736 0.104483
-0.378523 0.399531 0.412351
-0.378523 -0.267978 0.017233
-0.378523 0.213678 -0.328735
-0.357199 -0.261878 -0.426222
-0.357199 -0.098157 -0.437235
-0.357199 0.257636 -0.222716
-0.378523 0.372579 -0.477651
-0.357199 0.030769 -0.45873
-0.357199 0.224334 0.37449
-0.357199 0.360223 -0.435637
-0.357199 0.108665 -0.018082
-0.357199 0.364603 0.297102
-0.378523 0.306823 -0.487721
-0.357199 0.141033 0.403002
-0.378523 -0.226009 0.412547
-0.357199 0.431538 0.00248
-0.378523 -0.009938 -0.204295
-0.357199 0.425347 -0.162644
-0.357199 -0.386078 -0.11002
-0.357199 -0.006768 0.05344
-0.357199 0.395569 0.449357
-0.357199 -0.083555 -0.480185
-0.378523 -0.296519 0.125334
-0.378523 0.160349 -0.376726
-0.378523 0.335127 0.132642
-0.378523 0.500745 0.359837
-0.357199 0.077444 0.167077
-0.357199 0.21743 -0.042422
-0.357199 -0.207399 -0.195989
-0.378523 0.015247 0.276306
-0.378523 0.484233 0.121545
-0.378523 0.053806 -0.431826
-0.357199 0.029297 -0.151971
-0.357199 -0.380754 -0.134968
-0.378523 0.394213 -0.29314
-0.378523 0.125535 -0.024955
-0.357199 -0.056878 -0.373339
-0.357199 -0.228294 -0.381392
-0.357199 -0.222382 -0.343076
-0.378523 0.087466 -0.089264
-0.378523 -0.125237 0.138348
-0.378523 0.195069 0.18327
-0.378523 0.542574 -0.2694
-0.378523 0.402934 -0.17728
-0.357199 -0.027209 0.257231
-0.357199 -0.377851 -0.002976
-0.357199 0.537155 0.309228
-0.357199 -0.369846 -0.44565
-0.378523 0.329539 0.057329
-0.378523 0.053495 -0.04784
-0.357199 -0.070755 -0.27866
-0.357199 0.133864 0.212544
-0.378523 0.160639 -0.054217
-0.357199 0.527725 0.242508
-0.357199 0.4495 0.053081
-0.378523 0.573467 -0.464055
-0.357199 -0.242431 0.096917
-0.357199 -0.154542 -0.051221
-0.357199 -0.118302 0.370826
-0.357199 -0.129229 -0.526511
-0.357199 0.208461 0.24624
-0.378523 -0.311079 -0.016213
-0.357199 0.575174 -0.391014
-0.378523 -0.006108 -0.51104
-0.378523 -0.351892 0.073124
-0.357199 0.185971 0.082894
-0.357199 0.313656 -0.03036
-0.357199 -0.368572 -0.070045
-0.378523 0.510637 0.272549
-0.357199 -0.370219 0.34962
-0.357199 0.554177 -0.02329
-0.357199 0.075702 -0.249956
-0.378523 0.241386 0.314019
-0.357199 0.335901 0.377951
-0.357199 0.161768 0.091224
-0.378523 0.293953 0.146668
-0.378523 0.22907 -0.396372
-0.357199 -0.276416 -0.206548
-0.357199 -0.385406 0.048367
-0.357199 0.20625 -0.125205
-0.357199 0.329253 -0.364744
-0.357199 0.231428 0.154604
-0.357199 0.285344 -0.195856
-0.378523 -0.39609 -0.179475
-0.357199 0.550683 -0.325331
-0.357199 -0.276877 0.351344
-0.378523 0.354228 0.428999
-0.357199 0.010519 -0.39124
-0.378523 -0.098102 -0.3071
-0.357199 0.255381 -0.464473
-0.378523 -0.171601 -0.474655
-0.357199 -0.28903 -0.316341
-0.357199 0.587128 -0.156719
-0.357199 -0.205839 0.307508
-0.378523 0.131676 -0.249486
-0.378523 -0.343994 0.121694
-0.378523 0.05734 -0.218149
-0.357199 -0.20319 -0.302483
-0.378523 -0.162903 0.368095
-0.378523 -0.138346 -0.214612
-0.378523 -0.26489 0.073269
-0.378523 -0.100655 0.412607
-0.378523 -0.320376 -0.32803
-0.357199 -0.159616 0.163871
-0.378523 -0.349242 0.216958
-0.357199 0.118013 0.063518
-0.377847 -0.402942 0.043983
-0.357199 -0.018455 -0.124977
-0.378523 -0.402645 0.071859
-0.357199 0.221672 0.311782
-0.378523 -0.104048 0.315115
-0.378523 -0.028838 0.394572
-0.357199 0.575889 0.36157
-0.378523 0.438498 -0.279446
-0.357199 -0.37005 -0.517496
-0.357199 0.541048 0.279876
-0.378523 0.585038 -0.489291
-0.357199 -0.294447 0.012346
-0.357199 0.515571 -0.000434
-0.357199 0.406239 -0.420337
-0.357199 0.587013 0.122947
-0.357199 0.215453 -0.257885
-0.378523 0.513989 0.313753
-0.357199 -0.34392 0.309007
-0.357199 -0.120351 -0.180843
-0.357199 0.483902 0.219647
-0.357199 -0.247107 0.399003
-0.357199 0.187948 0.431968
-0.378523 0.486989 -0.110687
-0.378523 -0.36003 0.307053
-0.357199 0.588164 -0.216785
-0.378523 -0.117609 0.058036
-0.357199 0.086301 -0.424657
-0.357199 -0.15983 0.109908
-0.378523 0.157589 -0.334506
-0.357199 0.494857 -0.319129
-0.357199 -0.061834 -0.010936
-0.378523 0.119429 0.26097
-0.357199 0.136449 -0.16793
-0.357199 -0.080072 0.303542
-0.378523 0.538037 0.145192
-0.378523 0.414077 -0.469795
-0.378523 0.124979 0.421189
-0.357199 -0.018849 -0.187078
-0.357199 -0.251445 0.307243
-0.357199 0.157263 -0.435546
-0.357199 0.355598 0.177816
-0.357199 0.298532 -0.465094
-0.378523 -0.022066 -0.297988
-0.357199 0.053646 0.361184
-0.378523 0.244876 -0.073384
-0.357199 -0.323427 0.189783
-0.378523 -0.208672 0.237614
-0.378523 0.346133 -0.087124
-0.357199 -0.346275 0.170442
-0.357199 -0.39263 0.370704
-0.378523 -0.142093 0.27625
-0.378523 0.584302 0.270134
-0.357199 -0.113098 0.433696
-0.378523 -0.34402 -0.362556
-0.378523 -0.299368 -0.168419
-0.357199 0.127708 0.118842
-0.378523 0.317795 -0.045584
-0.378523 0.348685 -0.115547
-0.378523 0.52108 -0.299651
-0.357199 0.55458 0.392838
-0.357199 0.023627 0.332082
-0.357199 0.054031 0.402118
0.346481 0.408551 -0.026556
0.367805 -0.236437 -0.534871
0.346481 -0.100602 -0.039005
0.346481 0.210298 0.317392
0.367805 0.395523 -0.424647
0.367805 0.080666 -0.487585
0.366747 0.599268 0.22586
0.367805 0.159907 -0.197046
0.367805 -0.273354 -0.27065
0.367805 -0.049072 -0.284571
0.367805 -0.316845 -0.004337
0.346481 0.363744 -0.225192
0.367805 -0.22349 0.284808
0.367805 0.02604 0.359682
0.367264 0.599268 -0.094255
0.346481 0.221083 -0.368715
0.367805 0.598452 -0.365881
0.367805 0.443179 0.142728
0.36449 0.256114 -0.53491
0.367805 -0.087633 -0.452422
0.367805 0.263986 0.157538
0.367805 0.003296 0.093193
0.367805 -0.382211 0.356992
0.367805 0.067712 -0.062285
0.346481 0.245207 -0.064305
0.365332 -0.402942 -0.147436
0.367805 0.595029 0.059704
0.367805 -0.147956 0.145756
0.346481 0.097847 0.210456
0.367805 0.354411 0.271048
0.367805 -0.380733 -0.527727
0.367805 0.502643 -0.236125
0.367805 -0.141647 -0.175461
0.367805 -0.28013 -0.405279
0.367805 -0.094126 0.305077
0.35775 0.472913 -0.53491
0.367805 -0.285233 0.160819
0.346481 0.293613 0.405564
0.346481 0.552435 0.336142
0.352211 -0.402942 -0.273968
0.367805 0.099584 -0.364368
0.367805 -0.030332 -0.13431
0.367805 -0.262488 -0.152853
0.367805 0.303176 0.04647
0.367805 0.43876 -0.138397
0.367805 -0.034007 0.20382
0.346481 0.253922 -0.250124
0.346481 -0.005526 -0.382765
0.367805 0.51802 -0.013955
0.367805 0.41941 0.363952
0.346481 0.517525 -0.439056
0.367805 -0.173594 0.035179
0.367805 0.319126 -0.133788
0.356528 0.599268 -0.205317
0.367805 0.109765 0.095859
0.346481 -0.268991 0.374413
0.346481 0.327492 -0.318669
0.367805 0.204484 0.030029
0.367805 -0.061701 0.405729
0.367805 0.505504 0.419994
0.367805 0.196046 0.430498
0.367805 -0.144057 -0.310238
0.367805 -0.182576 -0.41334
0.367805 -0.200234 -0.064337
0.367805 0.452908 -0.338124
0.367805 0.485539 0.237264
0.346481 0.104253 0.310318
0.367805 0.189108 0.2144
0.346481 -0.079337 0.055599
0.346481 0.287184 -0.449106
0.367805 0.152109 -0.100208
0.346481 0.140345 -0.285169
0.367805 -0.016983 -0.007129
0.367805 -0.345994 0.260616
0.367805 0.353394 0.135779
0.346481 0.023946 0.269224
0.367805 0.03146 -0.202803
0.367805 -0.268051 0.073115
0.346481 0.466497 0.055828
0.346481 -0.142732 0.232049
0.346481 0.270321 0.243149
0.367805 0.387919 -0.513381
0.367805 0.529642 -0.152147
0.346481 0.236561 -0.151939
0.367805 -0.184697 0.379215
0.36456 -0.022018 -0.53491
0.346481 -0.203077 -0.231027
0.367805 0.051353 -0.296865
0.367805 -0.083008 -0.366129
0.367805 0.184402 0.132503
0.367805 0.320458 -0.041849
0.367805 0.288104 0.320711
0.367805 -0.346291 -0.09003
0.367805 0.161539 -0.430969
0.367805 -0.314314 -0.479107
0.367805 0.382654 0.045245
0.367805 0.131003 0.381509
0.346481 0.428649 0.287263
0.367805 0.078309 -0.139802
0.367805 -0.158922 -0.526575
0.367805 0.135079 -0.003647
0.346481 0.007229 -0.457864
0.346481 -0.218895 -0.331027
0.351783 0.599268 -0.439825
0.346481 -0.217785 0.187389
0.346481 0.027363 0.161565
0.346481 0.498157 -0.087459
0.367805 -0.071405 -0.213076
0.367805 -0.339902 -0.361237
0.346481 0.42562 -0.272668
0.346481 -0.104425 -0.115503
0.346481 0.436682 0.444452
0.355102 0.599268 -0.287522
0.346481 0.383102 0.200743
0.346481 0.24381 0.087957
0.365239 0.599268 0.152893
0.346481 0.067863 0.04035
0.367805 0.514268 0.120718
0.346481 0.384358 -0.097943
0.346481 -0.249486 0.002327
0.367805 0.183692 -0.529459
0.367805 0.528066 -0.341349
0.367805 -0.305866 0.319043
0.367805 0.486528 0.328242
0.367805 0.223547 -0.46712
0.346481 -0.16046 0.303986
0.346481 0.099438 -0.229677
0.346481 -0.028602 0.313005
0.346481 -0.010142 -0.071662
0.346481 0.446865 -0.47297
0.367805 -0.084577 0.12213
0.367805 -0.229431 -0.467941
0.346481 -0.356572 0.04579
0.367805 -0.399528 -0.463273
