0.126613 -0.400287 -0.190717
-0.200284 -0.400287 -0.313676
-0.180335 -0.400287 0.180114
0.562287 -0.400287 0.006889
-0.058614 -0.400287 -0.082449
0.568132 -0.400287 0.22244
-0.472832 -0.400287 -0.074298
0.567478 -0.400287 -0.204131
0.244612 -0.400287 -0.032843
-0.668083 -0.400287 0.103952
0.213033 -0.400287 0.229364
-0.338669 -0.400287 0.238897
0.278259 -0.400287 -0.286199
-0.02323 -0.400287 -0.248078
-0.350636 -0.400287 -0.191213
0.42216 -0.400287 0.288404
0.706996 -0.400287 0.27923
0.396267 -0.400287 -0.000974
-0.346482 -0.400287 0.069859
-0.060058 -0.400287 0.091919
-0.618399 -0.400287 -0.181003
0.464339 -0.400287 -0.308805
-0.151209 -0.400287 -0.18558
0.086304 -0.400287 -0.329618
-0.600344 -0.400287 0.222425
-0.043773 -0.400287 0.225406
-0.591299 -0.400287 -0.011386
0.070744 -0.400287 -0.065249
0.666925 -0.400287 -0.122471
-0.152629 -0.400287 0.003613
0.25268 -0.400287 -0.162257
0.668994 -0.400287 -0.330408
0.240285 -0.400287 0.10764
0.086145 -0.400287 0.203776
-0.339959 -0.400287 -0.313856
0.505142 -0.400287 -0.100376
0.499734 -0.400287 0.125281
0.677001 -0.400287 -0.001923
0.663677 -0.400287 0.148194
-0.277556 -0.400287 0.346398
-0.234984 -0.400287 0.077385
-0.597677 -0.400287 -0.326527
-0.440908 -0.400287 0.217532
0.323568 -0.400287 0.240959
-0.088906 -0.400287 -0.340409
0.600516 -0.400287 0.32217
0.177498 -0.400287 -0.284528
-0.148724 -0.400287 0.332804
0.015441 -0.400287 -0.156153
-0.547721 -0.400287 0.378552
-0.487651 -0.400287 0.022645
-0.255439 -0.400287 -0.210257
-0.371131 -0.400287 -0.023802
0.663871 -0.400287 -0.227528
-0.502403 -0.400287 -0.165582
0.377782 -0.400287 -0.269024
0.000368 -0.400287 0.331603
-0.244524 -0.400287 0.259664
-0.376408 -0.400287 0.361439
-0.185286 -0.400287 -0.097464
0.444322 -0.400287 0.198525
0.14158 -0.400287 -0.008333
-0.566679 -0.400287 -0.101374
0.476995 -0.400287 -0.202902
-0.578314 -0.400287 0.093286
-0.378187 -0.400287 0.155312
0.152335 -0.400287 -0.098616
-0.434161 -0.400287 -0.318485
0.314147 -0.400287 0.349456
-0.434242 -0.400287 -0.219108
0.592824 -0.400287 0.087693
-0.052275 -0.400287 0.003495
0.140072 -0.400287 0.133704
0.323551 -0.400287 0.071743
0.345148 -0.400287 -0.080842
0.114004 -0.400287 0.31784
0.017337 -0.400287 0.121597
0.477405 -0.400287 0.045539
0.504166 -0.400287 0.278948
0.583798 -0.400287 -0.359468
-0.12375 -0.400287 0.24056
-0.145991 -0.400287 0.084477
-0.280813 -0.400287 0.144237
0.396427 -0.400287 0.370451
0.399951 -0.400287 -0.369991
-0.388713 -0.400287 -0.121584
0.226452 -0.400287 0.348817
0.588033 -0.400287 -0.12703
0.053276 -0.400287 -0.225461
0.00046 -0.400287 -0.323073
0.263665 -0.400287 -0.362987
0.566827 -0.400287 -0.282177
-0.670328 -0.400287 -0.238718
0.034359 -0.400287 0.262945
-0.118697 -0.400287 -0.254862
-0.312619 -0.400287 -0.384732
-0.672673 -0.400287 0.358217
-0.284712 -0.400287 0.02055
-0.420645 -0.400287 0.068985
-0.557911 -0.400287 0.283169
-0.670469 -0.400287 -0.35316
-0.640245 -0.400287 -0.101914
0.437415 -0.400287 -0.061954
0.699374 -0.400287 0.067915
-0.104453 -0.400287 0.169811
0.640415 -0.400287 0.234692
0.009204 -0.400287 0.04343
-0.081611 -0.400287 -0.163812
-0.578769 -0.400287 -0.24213
-0.655342 -0.400287 0.02298
0.396298 -0.400287 0.071536
0.624266 -0.400287 -0.05092
0.503269 -0.400287 0.359129
0.19199 -0.400287 -0.357774
-0.544706 -0.400287 0.16407
-0.24287 -0.400287 -0.137591
-0.632752 -0.400287 0.284439
0.218367 -0.400287 0.041941
0.337202 -0.400287 -0.324911
-0.319822 -0.400287 -0.124117
0.150341 -0.400287 0.257881
0.66856 -0.400287 0.335647
-0.386373 -0.400287 0.287017
0.330221 -0.400287 -0.015138
0.291551 -0.400287 -0.217221
0.185561 -0.400287 -0.157543
-0.066559 -0.400287 0.331347
-0.204891 -0.400287 0.369139
-0.375686 -0.400287 -0.252956
-0.507411 -0.400287 0.221383
-0.262814 -0.400287 -0.334223
0.052488 -0.400287 0.371585
0.444884 -0.400287 -0.142569
-0.605877 -0.400287 0.348583
0.282344 -0.400287 0.2928
-0.465319 -0.400287 0.357959
-0.53095 -0.400287 -0.035214
-0.193221 -0.400287 -0.234736
-0.157897 -0.400287 -0.374841
-0.216965 -0.400287 0.005921
-0.52819 -0.400287 -0.32804
0.223292 -0.400287 -0.093211
0.094208 -0.400287 -0.124893
0.314984 -0.400287 -0.136654
0.10078 -0.400287 -0.267022
0.160304 -0.400287 0.195018
0.730057 -0.400287 -0.181885
0.227948 -0.400287 0.168956
0.508223 -0.400287 0.20706
0.385018 -0.400287 0.235537
0.625956 -0.400287 -0.175422
0.011619 -0.400287 0.182493
-0.135224 -0.400287 -0.062606
-0.253396 -0.400287 0.19943
0.527364 -0.400287 -0.336813
-0.308966 -0.400287 0.291833
0.513934 -0.400287 -0.029773
0.699424 -0.400287 0.219137
0.693774 -0.400287 -0.059815
0.080022 -0.400287 0.129087
-0.372249 -0.400287 -0.364441
0.295147 -0.400287 0.131091
0.615831 -0.400287 0.032781
-0.446877 -0.400287 -0.133172
-0.316715 -0.400287 -0.259235
0.436461 -0.400287 -0.245953
-0.64281 -0.400287 -0.039539
0.019661 -0.400287 -0.037081
-0.625878 -0.400287 0.14388
0.159114 -0.400287 0.354244
0.284243 -0.400287 0.198761
0.569344 -0.400287 -0.06748
0.447196 -0.400287 0.097931
0.528984 -0.400287 0.07602
0.228992 -0.400287 -0.214403
0.612042 -0.400287 0.172201
0.370802 -0.400287 0.319607
0.071929 -0.400287 0.01203
0.17687 -0.400287 0.080755
-0.077269 -0.400287 0.272701
-0.034992 -0.400287 0.150704
-0.327786 -0.400287 0.180254
0.53598 -0.400287 -0.147088
-0.437369 -0.400287 0.309447
-0.430554 -0.400287 -0.038233
-0.529029 -0.400287 0.05947
-0.177244 -0.400287 0.254681
0.461771 -0.400287 -0.011358
0.626304 -0.400287 -0.295654
-0.315738 -0.400287 0.385915
0.728053 -0.400287 0.337619
-0.217458 -0.400287 0.139702
0.407523 -0.400287 -0.31502
-0.295225 -0.400287 0.088834
0.088687 -0.400287 0.265919
-0.623626 -0.400287 -0.380837
-0.566183 -0.400287 -0.155721
-0.387312 -0.400287 0.208584
0.231163 -0.400287 -0.319874
0.709218 -0.400287 -0.292696
0.447503 -0.400287 0.354331
-0.246225 -0.400287 -0.28337
0.28633 -0.400287 0.033389
-0.089221 -0.400287 0.041203
0.547495 -0.400287 0.172154
-0.652403 -0.400287 0.229464
0.723603 -0.400287 0.138349
0.339937 -0.400287 -0.197876
-0.040205 -0.400287 -0.358586
-0.359454 -0.400287 -0.074341
-0.013045 -0.400287 -0.106776
-0.472391 -0.400287 -0.353169
0.5678 -0.400287 0.371125
0.517904 -0.400287 -0.265972
0.399799 -0.400287 -0.209753
-0.405678 -0.400287 0.014058
-0.520049 -0.400287 0.324838
0.13824 -0.400287 -0.317053
-0.47734 -0.400287 0.17378
-0.068958 -0.400287 -0.21314
-0.100286 -0.400287 -0.013175
-0.012421 -0.400287 -0.198339
-0.146644 -0.400287 0.142185
0.452327 -0.400287 0.14916
-0.516688 -0.400287 -0.100116
-0.495274 -0.400287 0.271044
0.263077 -0.400287 0.243915
0.160919 -0.400287 -0.226553
-0.018256 -0.400287 0.377574
-0.153211 -0.400287 -0.135286
-0.117232 -0.400287 0.374775
-0.574401 -0.400287 0.039484
-0.190046 -0.400287 -0.035618
0.577703 -0.400287 0.278278
-0.400909 -0.400287 -0.169423
0.328462 -0.400287 -0.268165
-0.200299 -0.400287 -0.183326
-0.298075 -0.400287 -0.168117
0.643764 -0.400287 -0.372404
-0.206814 -0.400287 -0.361997
-0.183418 -0.400287 0.053287
-0.061175 -0.400287 -0.278621
-0.679886 -0.400287 -0.299108
0.60399 -0.400287 -0.250813
0.128765 -0.400287 0.038195
-0.664356 -0.400287 0.172702
0.275838 -0.400287 -0.108825
-0.378881 -0.400287 0.105014
0.104634 -0.400287 0.375325
0.646707 -0.400287 0.293235
0.22717 -0.400287 0.275162
-0.502693 -0.400287 -0.213155
0.05906 -0.400287 -0.174764
-0.685324 -0.400287 -0.12642
-0.467886 -0.400287 0.066208
0.052973 -0.400287 -0.296026
-0.162054 -0.400287 -0.273511
0.200913 -0.400287 -0.051725
0.548247 -0.400287 0.118995
0.480906 -0.400287 -0.389614
-0.422119 -0.400287 -0.264273
-0.624223 -0.400287 0.08664
0.04915 -0.400287 -0.115006
-0.612282 -0.400287 -0.273821
-0.039989 -0.400287 -0.144242
0.627234 -0.400287 -0.099279
-0.322422 -0.400287 0.336481
0.350213 -0.400287 -0.368877
0.114034 -0.400287 -0.044982
-0.428493 -0.400287 0.114074
-0.235218 -0.400287 -0.09253
-0.555663 -0.400287 -0.29153
0.294315 -0.400287 -0.043349
-0.535254 -0.400287 0.010238
0.049645 -0.400287 0.326068
0.042767 -0.400287 0.081162
-0.234259 -0.400287 0.32438
-0.605983 -0.400287 -0.072462
0.733903 -0.400287 -0.342906
0.121089 -0.400287 -0.365838
0.216473 -0.400287 -0.257645
-0.085271 -0.400287 -0.385226
0.027268 -0.400287 -0.359112
-0.42911 -0.400287 -0.083231
-0.315578 -0.400287 -0.066217
-0.36264 -0.400287 0.0258
-0.328092 -0.400287 -0.012957
0.385075 -0.400287 -0.06165
0.349275 -0.400287 0.024594
-0.605969 -0.400287 -0.137256
-0.682303 -0.400287 0.315508
0.402055 -0.400287 -0.119222
0.268546 -0.400287 0.337042
-0.501324 -0.400287 0.382673
0.157403 -0.400287 -0.054087
-0.28148 -0.400287 0.236668
-0.198284 -0.400287 0.100705
0.671225 -0.400287 0.100812
0.649263 -0.400287 0.06023
-0.419807 -0.400287 -0.362688
-0.535726 -0.400287 0.122039
0.668576 -0.400287 -0.179328
0.515986 -0.400287 -0.185327
0.411969 -0.400287 0.135091
0.2596 -0.400287 0.066381
-0.560496 -0.400287 0.237009
0.354062 -0.400287 0.368463
0.303818 -0.400287 -0.376636
-0.465068 -0.400287 -0.280806
0.32286 -0.400287 0.181616
-0.159698 -0.400287 -0.325397
0.110893 -0.400287 0.164035
0.199035 -0.400287 0.116507
-0.698971 -0.400287 -0.385295
-0.392418 -0.400287 -0.31481
-0.451104 -0.400287 0.257963
0.050348 -0.400287 0.158298
-0.031982 -0.400287 0.039758
0.440909 -0.400287 0.239698
0.436282 -0.400287 0.058135
0.669056 -0.400287 -0.283251
0.002077 -0.400287 -0.281913
0.293756 -0.400287 -0.32435
-0.246167 -0.400287 -0.373815
0.45812 -0.400287 -0.103785
0.478243 -0.400287 -0.065282
0.434597 -0.400287 -0.345597
-0.544306 -0.400287 -0.220273
-0.13643 -0.400287 0.19504
0.597771 -0.400287 -0.019998
0.152515 -0.400287 0.298523
-0.463705 -0.400287 -0.191036
0.698434 -0.400287 0.371255
0.540399 -0.400287 0.297151
0.092581 -0.400287 -0.215599
0.439722 -0.400287 -0.187037
-0.672512 -0.400287 -0.198443
-0.248871 -0.400287 0.039005
-0.098858 -0.400287 -0.083138
-0.041327 -0.400287 -0.03513
-0.271452 -0.400287 -0.247063
0.453701 -0.400287 0.313037
0.725422 -0.400287 -0.224579
-0.241067 -0.400287 -0.025841
0.226092 -0.400287 0.002444
0.529662 -0.400287 -0.228087
0.694479 -0.400287 0.179818
-0.322891 -0.400287 0.141027
0.120703 -0.400287 0.099318
0.558873 -0.400287 0.050543
0.62659 -0.400287 -0.214675
0.127666 -0.400287 0.225893
0.736372 -0.400287 0.381926
0.69517 -0.400287 -0.359274
-0.082247 -0.400287 0.222109
-0.401829 -0.400287 0.390459
-0.568397 -0.400287 -0.351425
-0.012201 -0.400287 0.075272
-0.108968 -0.400287 0.074521
0.022832 -0.400287 -0.249838
0.598863 -0.400287 0.245068
-0.222321 -0.400287 0.221545
-0.621378 -0.400287 0.181682
0.629638 -0.400287 0.346609
-0.112677 -0.400287 -0.217479
-0.634617 -0.400287 -0.215199
0.483604 -0.400287 0.170465
-0.120606 -0.400287 -0.163612
-0.30258 -0.400287 -0.310668
-0.283333 -0.400287 -0.115514
0.037359 -0.400287 -0.002371
0.514076 -0.400287 0.037995
0.256201 -0.400287 0.144464
-0.674968 -0.400287 -0.070693
-0.349933 -0.400287 0.29478
-0.415358 -0.400287 0.156867
-0.127033 -0.400287 -0.342937
-0.340118 -0.400287 -0.155689
-0.610975 -0.400287 0.045101
-0.256416 -0.400287 0.294618
-0.685476 -0.400287 0.044307
0.187175 -0.400287 0.260257
0.411997 -0.400287 0.337016
-0.398262 -0.400287 -0.206097
0.51625 -0.400287 0.244256
0.237834 -0.400287 -0.126882
-0.323921 -0.400287 -0.216272
0.365542 -0.400287 -0.116479
-0.533113 -0.400287 -0.140122
-0.209527 -0.400287 -0.267427
0.579113 -0.400287 -0.169561
0.093051 -0.400287 -0.392336
-0.009596 -0.400287 0.237688
-0.487613 -0.400287 -0.13242
-0.588803 -0.400287 -0.201994
-0.161686 -0.400287 0.221077
-0.019579 -0.400287 0.117898
0.27881 -0.400287 0.098768
-0.684508 -0.400287 0.246163
0.492898 -0.400287 -0.239832
0.328244 -0.400287 0.277728
0.493583 -0.400287 -0.349228
0.325268 -0.400287 0.107527
-0.388535 -0.400287 0.050404
-0.568494 -0.400287 -0.065739
-0.365716 -0.400287 0.326781
0.053286 -0.400287 0.232706
-0.30332 -0.400287 0.208536
-0.632304 -0.400287 -0.346304
-0.042686 -0.400287 0.264358
-0.024492 -0.400287 0.301908
0.480044 -0.400287 0.252923
0.418216 -0.400287 0.174704
0.276392 -0.400287 0.38007
0.062558 -0.400287 -0.360645
0.314469 -0.400287 -0.173588
-0.141374 -0.400287 0.0368
0.736098 -0.400287 0.10566
0.216393 -0.400287 -0.17404
0.535201 -0.400287 0.383696
0.433185 -0.400287 0.008721
-0.050698 -0.400287 0.364716
0.734452 -0.400287 -0.135846
-0.357893 -0.400287 -0.284248
0.127611 -0.400287 -0.133961
-0.208566 -0.400287 -0.142173
0.251453 -0.400287 0.031881
-0.62649 -0.400287 0.003928
0.17528 -0.400287 -0.124418
-0.431343 -0.400287 0.351994
0.159504 -0.400287 -0.369309
0.209072 -0.400287 0.308181
-0.661211 -0.400287 0.1384
0.194648 -0.400287 0.177584
-0.027575 -0.400287 -0.067735
0.19167 -0.400287 0.343614
-0.184954 -0.400287 0.01802
0.213504 -0.400287 0.085575
-0.063888 -0.400287 -0.312639
0.536971 -0.400287 -0.05671
-0.354635 -0.400287 -0.120999
0.364928 -0.400287 0.054843
0.25587 -0.400287 -0.260595
-0.493317 -0.400287 -0.326404
0.61595 -0.400287 -0.348628
0.178384 -0.400287 -0.326724
0.174958 -0.400287 0.140358
-0.535905 -0.400287 -0.253528
0.019035 -0.400287 0.376151
0.041274 -0.400287 -0.082176
0.641694 -0.400287 -0.02202
0.685449 -0.400287 0.030704
-0.239905 -0.400287 0.16484
0.153711 -0.400287 -0.260667
-0.677906 -0.400287 -0.00987
0.348774 -0.400287 -0.047474
-0.067614 -0.400287 0.143091
-0.289085 -0.400287 -0.218672
0.623904 -0.400287 -0.132515
-0.236062 -0.400287 -0.170247
0.092373 -0.400287 0.34316
0.415002 -0.400287 -0.271397
0.373791 -0.400287 -0.025546
0.693051 -0.400287 -0.211576
-0.386833 -0.400287 -0.053099
-0.655166 -0.400287 -0.170231
0.341433 -0.400287 0.209011
-0.450337 -0.400287 0.154663
0.600469 -0.400287 0.362046
-0.54696 -0.400287 -0.187414
-0.558384 -0.400287 -0.016993
-0.210281 -0.400287 -0.061576
-0.55397 -0.400287 0.195613
-0.650425 -0.400287 -0.318985
-0.527676 -0.400287 -0.3778
-0.457187 -0.400287 0.098665
-0.13055 -0.400287 -0.025139
0.609569 -0.400287 0.284678
-0.078132 -0.400287 -0.056496
0.245865 -0.400287 -0.065257
-0.572342 -0.400287 0.147112
-0.4668 -0.400287 -0.158614
0.345088 -0.400287 -0.229764
-0.60759 -0.400287 0.253876
0.5044 -0.400287 -0.153709
0.096948 -0.400287 -0.08406
0.520747 -0.400287 -0.36838
0.277061 -0.400287 -0.394614
0.584145 -0.400287 -0.396073
-0.464169 -0.400287 0.000611
-0.065996 -0.400287 -0.125274
0.665127 -0.400287 -0.090356
-0.146556 -0.400287 -0.217361
0.634854 -0.400287 -0.264829
0.390261 -0.400287 0.288215
0.701952 -0.400287 0.319325
0.051363 -0.400287 0.289844
-0.437189 -0.400287 -0.173534
-0.645419 -0.400287 0.063027
0.051945 -0.400287 0.111525
0.73277 -0.400287 -0.391793
0.383102 -0.400287 -0.237779
-0.248291 -0.400287 0.132591
-0.341368 -0.400287 -0.041672
-0.122458 -0.400287 0.315251
-0.224653 -0.400287 -0.237848
-0.652112 -0.400287 0.383222
0.304622 -0.400287 -0.096056
0.14202 -0.400287 0.066751
0.545714 -0.400287 -0.305515
-0.272892 -0.400287 -0.149247
-0.221563 -0.400287 0.281158
0.281375 -0.400287 -0.187469
0.682677 -0.400287 -0.255001
-0.401747 -0.400287 0.236368
-0.152634 -0.400287 0.391207
0.550214 -0.400287 0.345232
-0.368096 -0.400287 0.24897
-0.179394 -0.400287 0.337946
0.198439 -0.400287 0.018091
-0.451421 -0.400287 -0.252884
0.098461 -0.400287 0.031443
0.320846 -0.400287 0.036816
-0.287753 -0.400287 0.058806
-0.180125 -0.400287 0.149197
-0.547998 -0.400287 0.087492
0.211136 -0.400287 -0.29639
-0.693327 -0.400287 0.280637
0.724959 -0.400287 0.236345
-0.5984 -0.400287 0.286789
-0.299629 -0.400287 -0.039995
0.469128 -0.400287 0.119224
0.704635 -0.400287 -0.01496
-0.639989 -0.400287 0.314115
-0.685877 -0.400287 -0.264987
0.04398 -0.400287 -0.145464
0.735807 -0.400287 -0.065234
0.372403 -0.400287 -0.196466
0.482214 -0.400287 0.01118
0.064069 -0.400287 0.046075
0.168975 -0.400287 -0.02145
-0.286047 -0.400287 0.311757
-0.47084 -0.400287 0.212521
0.041442 -0.400287 0.188083
-0.516691 -0.400287 0.152445
-0.076461 -0.400287 0.181349
-0.097246 -0.400287 -0.311355
-0.598459 -0.400287 0.115818
0.084873 -0.400287 0.099338
0.129001 -0.400287 0.279125
0.37909 -0.400287 0.172967
0.419573 -0.400287 -0.037829
0.673084 -0.400287 0.233243
0.101017 -0.400287 -0.153946
0.597596 -0.400287 -0.221655
-0.514272 -0.400287 0.294009
-0.673669 -0.400287 0.206007
0.698275 -0.400287 -0.177545
-0.177274 -0.400287 0.307718
-0.467023 -0.400287 -0.312561
-0.277396 -0.400287 -0.36898
0.696452 -0.400287 -0.120317
0.49392 -0.400287 -0.308704
0.588901 -0.400287 0.05839
-0.173549 -0.400287 -0.204857
-0.591109 -0.400287 -0.370206
0.472536 -0.400287 -0.129445
0.365054 -0.400287 -0.334412
-0.409977 -0.400287 -0.235696
0.015731 -0.400287 -0.206705
0.35683 -0.400287 -0.303068
0.275966 -0.400287 -0.020424
-0.634765 -0.400287 -0.142184
-0.296315 -0.400287 0.119532
-0.533173 -0.400287 0.353289
-0.415987 -0.400287 -0.144483
0.155061 -0.400287 0.025656
-0.558385 -0.400287 0.312273
0.601461 -0.400287 -0.085752
-0.024584 -0.400287 -0.308262
0.081978 -0.400287 -0.294443
-0.696066 -0.400287 0.158242
0.5548 -0.400287 -0.358557
-0.311139 -0.400287 0.032487
-0.357036 -0.400287 -0.230796
0.323231 -0.400287 -0.350228
-0.597402 -0.400287 -0.100042
-0.116113 -0.400287 0.010958
-0.348992 -0.400287 0.379969
0.408738 -0.400287 -0.149943
0.138939 -0.400287 0.170302
0.358035 -0.400287 0.118317
-0.59327 -0.400287 -0.164969
0.099222 -0.400287 -0.182765
0.251321 -0.400287 -0.190673
-0.103085 -0.400287 -0.278601
-0.50128 -0.400287 0.05338
-0.577681 -0.400287 -0.037839
-0.378748 -0.400287 -0.148149
0.41499 -0.400287 0.106943
-0.458068 -0.400287 -0.031574
0.350041 -0.400287 0.081516
0.540681 -0.400287 0.229044
0.312358 -0.400287 -0.291346
0.244559 -0.400287 0.378421
0.297814 -0.400287 0.060381
0.316557 -0.400287 -0.070582
0.674165 -0.400287 0.299274
0.702634 -0.400287 0.095749
0.697937 -0.400287 0.152098
-0.361016 -0.400287 0.126476
0.046507 -0.400287 -0.044758
-0.205064 -0.400287 0.070856
0.026431 -0.400287 -0.313032
-0.15189 -0.400287 -0.247605
0.172276 -0.400287 0.10897
0.730699 -0.400287 0.20113
0.119386 -0.400287 -0.338104
-0.480788 -0.400287 0.247359
-0.305393 -0.400287 -0.194889
-0.417047 -0.400287 -0.10818
-0.012181 -0.400287 -0.158297
-0.256647 -0.400287 0.364564
0.123075 -0.400287 -0.106665
0.123889 -0.400287 0.198514
0.261219 -0.400287 0.213942
0.682026 -0.400287 -0.030749
0.126746 -0.400287 0.358976
0.364466 -0.400287 0.000222
-0.087389 -0.400287 0.379335
-0.602638 -0.400287 0.019082
0.066656 -0.400287 -0.201008
-0.344209 -0.400287 -0.34076
0.536465 -0.400287 -0.014475
0.444389 -0.400287 0.272767
0.021981 -0.400287 0.348027
-0.104185 -0.400287 0.206169
-0.178078 -0.400287 0.365161
-0.700002 -0.400287 0.07831
-0.500612 -0.400287 -0.078358
-0.094062 -0.400287 -0.243715
0.007365 -0.400287 0.26162
0.243791 -0.400287 -0.344681
-0.187971 -0.400287 -0.337708
0.13776 -0.400287 -0.075893
-0.062343 -0.400287 0.043348
0.481963 -0.400287 0.200964
0.299623 -0.400287 0.326752
-0.345934 -0.400287 0.349447
-0.152702 -0.400287 0.265522
-0.128257 -0.400287 -0.08851
0.468873 -0.400287 0.082147
-0.172708 -0.400287 0.086338
-0.048722 -0.400287 -0.195622
-0.533871 -0.400287 0.217429
0.504334 -0.400287 -0.071104
0.650144 -0.400287 0.266761
-0.119989 -0.400287 0.141378
0.055678 -0.400287 -0.322521
0.500017 -0.400287 0.385442
0.108779 -0.400287 0.248688
-0.521985 -0.400287 0.033963
-0.18874 -0.400287 0.278462
-0.035929 -0.400287 -0.332528
-0.292247 -0.400287 -0.078569
-0.515926 -0.400287 -0.236307
0.56287 -0.400287 -0.119124
0.738333 -0.400287 0.174971
-0.489771 -0.400287 -0.372996
-0.00462 -0.400287 -0.229443
0.219336 -0.400287 -0.025552
-0.09379 -0.400287 0.139342
-0.651782 -0.400287 0.266327
0.587336 -0.400287 0.01476
-0.159279 -0.400287 -0.073062
0.695201 -0.400287 -0.331013
0.325744 -0.400287 0.010671
0.244538 -0.400287 -0.390567
0.625314 -0.400287 0.008421
-0.417664 -0.400287 -0.009151
-0.311531 -0.400287 -0.335174
0.185233 -0.400287 0.234259
0.73664 -0.400287 -0.314486
-0.627661 -0.400287 0.221626
-0.388611 -0.400287 0.314578
0.609736 -0.400287 -0.315572
-0.198095 -0.400287 -0.38635
-0.45032 -0.400287 0.128871
0.355231 -0.400287 -0.157311
0.352436 -0.400287 -0.258913
0.509189 -0.400287 -0.128487
0.127641 -0.400287 0.386624
-0.35026 -0.400287 -0.255693
-0.514856 -0.400287 -0.349822
0.295867 -0.400287 -0.352384
-0.548587 -0.400287 -0.119366
0.564641 -0.400287 0.075397
-0.044712 -0.400287 0.061759
-0.573682 -0.400287 0.121332
-0.05019 -0.400287 -0.230228
-0.574451 -0.400287 0.210599
0.163285 -0.400287 0.05298
-0.394483 -0.400287 -0.376531
0.110086 -0.400287 0.0552
0.11026 -0.400287 0.122313
0.396315 -0.400287 0.258112
-0.66514 -0.400287 -0.14149
-0.134454 -0.400287 0.164208
-0.05737 -0.400287 0.391055
0.538861 -0.400287 0.01597
0.617094 -0.400287 0.381941
0.307151 -0.400287 0.259797
0.138911 -0.400287 -0.240572
-0.035528 -0.400287 0.201857
0.632577 -0.400287 0.158033
0.192751 -0.400287 0.061518
0.554504 -0.400287 -0.227162
0.42464 -0.400287 -0.210481
0.099591 -0.400287 -0.353393
-0.67398 -0.400287 -0.380426
-0.387796 -0.400287 -0.345078
0.254561 -0.400287 -0.293358
0.210435 -0.400287 0.367684
0.606511 -0.400287 0.108276
-0.665516 -0.400287 0.334569
-0.084704 -0.400287 0.069891
0.671124 -0.400287 0.076159
0.477065 -0.400287 0.277375
-0.270609 -0.400287 -0.094508
-0.477596 -0.400287 -0.259709
-0.286584 -0.400287 -0.340178
0.207953 -0.400287 -0.327729
0.723751 -0.400287 0.069864
0.739077 -0.400287 0.303487
-0.578482 -0.400287 -0.311385
0.351372 -0.400287 0.164901
0.046848 -0.400287 0.028859
0.724672 -0.400287 -0.158154
-0.626118 -0.400287 -0.320029
-0.45982 -0.400287 -0.373995
-0.445185 -0.400287 0.178401
0.147996 -0.400287 0.10825
0.071416 -0.400287 -0.133218
-0.122507 -0.400287 -0.187797
-0.290723 -0.400287 0.374264
0.53322 -0.400287 0.099982
-0.169074 -0.400287 -0.047593
0.245545 -0.400287 0.329994
-0.410018 -0.400287 0.129477
0.01547 -0.400287 0.097646
0.664857 -0.400287 0.359382
-0.626112 -0.400287 -0.022294
-0.159964 -0.400287 0.162109
0.395688 -0.400287 -0.036226
-0.211859 -0.400287 0.24307
-0.610781 -0.400287 -0.213105
-0.349639 -0.400287 -0.09613
-0.602495 -0.400287 0.374573
0.541247 -0.400287 -0.270645
0.063646 -0.400287 0.179498
0.230034 -0.400287 -0.149354
-0.520937 -0.400287 -0.180378
-0.242995 -0.400287 -0.350345
0.49534 -0.400287 -0.04894
-0.656226 -0.400287 -0.119315
-0.439085 -0.400287 0.054256
0.50256 -0.400287 -0.286755
-0.216399 -0.400287 -0.340459
0.671557 -0.400287 0.185327
-0.218019 -0.400287 -0.198826
0.249365 -0.400287 0.005918
-0.310682 -0.400287 0.063944
0.368609 -0.400287 -0.079589
0.094507 -0.400287 -0.238988
-0.321869 -0.400287 0.311431
0.1799 -0.400287 0.365095
0.364783 -0.400287 0.211142
0.351074 -0.400287 0.332263
-0.023387 -0.400287 -0.384504
0.441108 -0.400287 0.030771
0.210025 -0.400287 0.153884
0.510951 -0.400287 0.145818
-0.688317 -0.400287 -0.180192
0.613226 -0.400287 0.2267
-0.509908 -0.400287 0.345817
0.675271 -0.400287 0.210124
-0.224629 -0.400287 -0.123238
-0.038344 -0.400287 -0.093694
0.407689 -0.400287 0.230823
-0.013603 -0.400287 0.159555
0.687858 -0.400287 0.348388
0.602224 -0.400287 -0.373426
-0.316755 -0.400287 0.22724
0.208354 -0.400287 -0.380463
-0.243201 -0.400287 0.345882
-0.113087 -0.400287 -0.056314
-0.32296 -0.400287 -0.29838
0.208255 -0.400287 -0.195485
-0.229557 -0.400287 0.119469
-0.564594 -0.400287 -0.270484
0.241556 -0.400287 0.251465
-0.245982 -0.400287 -0.112636
0.269046 -0.400287 0.265921
-0.438226 -0.400287 -0.280401
-0.300274 -0.400287 0.331158
-0.675784 -0.400287 0.01297
-0.136755 -0.400287 0.363166
0.63306 -0.400287 0.213234
0.268812 -0.400287 -0.087258
-0.459521 -0.400287 0.232172
-0.163447 -0.400287 0.195212
-0.582947 -0.400287 0.311057
-0.370531 -0.400287 -0.320536
0.034205 -0.600645 -0.437507
-0.330464 -0.59731 -0.437507
0.391604 -0.586067 -0.437507
0.209602 -0.408613 -0.437507
-0.377272 -0.395831 -0.432144
-0.521803 -0.55325 -0.437507
0.560916 -0.485573 -0.437507
-0.143217 -0.531862 -0.437507
0.205148 -0.585618 -0.437507
0.003085 -0.431962 -0.437507
-0.616519 -0.395852 -0.437507
-0.125447 -0.395831 -0.437259
-0.26589 -0.467302 -0.437507
0.611909 -0.602636 -0.437507
0.441913 -0.448954 -0.437507
-0.410329 -0.508667 -0.437507
0.674493 -0.502959 -0.437507
0.098275 -0.490811 -0.437507
0.640582 -0.39754 -0.437507
-0.62187 -0.509233 -0.437507
0.293466 -0.529232 -0.437507
0.494094 -0.601762 -0.437507
-0.217958 -0.596746 -0.437507
-0.041854 -0.54263 -0.437507
-0.594334 -0.599784 -0.437507
-0.426506 -0.591685 -0.437507
0.182999 -0.486621 -0.437507
0.454583 -0.529874 -0.437507
-0.481699 -0.472216 -0.437507
0.118895 -0.567696 -0.437507
0.379331 -0.508298 -0.437507
-0.081793 -0.45911 -0.437507
0.316989 -0.600105 -0.437507
-0.179958 -0.447818 -0.437507
-0.135229 -0.604849 -0.437507
-0.318981 -0.517047 -0.437507
0.56552 -0.403395 -0.437507
0.255006 -0.469724 -0.437507
-0.670041 -0.602257 -0.437507
-0.547528 -0.452215 -0.437507
-0.210118 -0.507617 -0.437507
0.022214 -0.525085 -0.437507
0.556335 -0.551055 -0.437507
-0.336293 -0.444855 -0.437507
-0.647508 -0.451563 -0.437507
-0.273023 -0.56024 -0.437507
0.475522 -0.395831 -0.435969
-0.275387 -0.397635 -0.437507
-0.428827 -0.439541 -0.437507
0.690704 -0.593196 -0.437507
-0.042195 -0.395831 -0.417036
0.276585 -0.407609 -0.437507
0.374413 -0.445866 -0.437507
0.410696 -0.401826 -0.437507
-0.462763 -0.549574 -0.437507
0.623539 -0.481458 -0.437507
0.520881 -0.435631 -0.437507
0.04776 -0.464011 -0.437507
-0.092134 -0.562763 -0.437507
-0.695855 -0.475733 -0.437507
-0.030023 -0.490157 -0.437507
0.738317 -0.536349 -0.437507
-0.491182 -0.596562 -0.437507
-0.675546 -0.406993 -0.437507
0.508378 -0.488775 -0.437507
-0.02482 -0.590924 -0.437507
0.169328 -0.535846 -0.437507
0.729699 -0.471026 -0.437507
-0.585615 -0.544154 -0.437507
-0.644946 -0.553706 -0.437507
-0.573334 -0.494921 -0.437507
0.658033 -0.549715 -0.437507
0.667377 -0.438558 -0.437507
-0.35876 -0.488203 -0.437507
-0.098535 -0.504917 -0.437507
0.217907 -0.537235 -0.437507
-0.461541 -0.404045 -0.437507
-0.38592 -0.568775 -0.437507
0.270551 -0.603464 -0.437507
0.155771 -0.449621 -0.437507
0.102268 -0.445096 -0.437507
-0.519505 -0.412395 -0.437507
-0.260798 -0.512355 -0.437507
-0.283619 -0.603587 -0.437507
0.08943 -0.399089 -0.437507
-0.124581 -0.449246 -0.437507
-0.512128 -0.503806 -0.437507
-0.679222 -0.526901 -0.437507
-0.590945 -0.453153 -0.437507
0.40601 -0.545621 -0.437507
0.691917 -0.403371 -0.437507
0.569118 -0.591895 -0.437507
0.296046 -0.457984 -0.437507
0.5869 -0.4521 -0.437507
-0.325685 -0.404049 -0.437507
-0.148835 -0.490246 -0.437507
0.617428 -0.558816 -0.437507
-0.221388 -0.444942 -0.437507
0.325269 -0.559678 -0.437507
0.030885 -0.40151 -0.437507
-0.229782 -0.557274 -0.437507
0.341043 -0.522366 -0.437507
0.053515 -0.549878 -0.437507
-0.353401 -0.536681 -0.437507
0.072176 -0.591504 -0.437507
-0.08347 -0.420097 -0.437507
0.527545 -0.581991 -0.437507
-0.171326 -0.558343 -0.437507
-0.563147 -0.402612 -0.437507
0.263899 -0.553708 -0.437507
0.501196 -0.526386 -0.437507
-0.006497 -0.556717 -0.437507
0.464397 -0.578486 -0.437507
-0.305985 -0.466858 -0.437507
0.354432 -0.600959 -0.437507
0.428748 -0.590695 -0.437507
0.445035 -0.486215 -0.437507
0.062409 -0.500742 -0.437507
0.629635 -0.518118 -0.437507
0.143838 -0.484657 -0.437507
-0.309999 -0.566811 -0.437507
-0.491739 -0.436292 -0.437507
-0.470889 -0.51422 -0.437507
-0.279842 -0.433175 -0.437507
0.497346 -0.56309 -0.437507
-0.058945 -0.581351 -0.437507
0.738345 -0.436893 -0.437507
0.146586 -0.40115 -0.437507
-0.62603 -0.585619 -0.437507
-0.04895 -0.423768 -0.437507
-0.411182 -0.395831 -0.437452
0.633409 -0.442423 -0.437507
-0.411524 -0.546236 -0.437507
-0.073678 -0.530645 -0.437507
0.657863 -0.601632 -0.437507
-0.06686 -0.493672 -0.437507
0.484875 -0.465311 -0.437507
0.545568 -0.514717 -0.437507
-0.236219 -0.396667 -0.437507
0.364042 -0.476257 -0.437507
-0.559706 -0.523773 -0.437507
-0.453117 -0.487841 -0.437507
0.365143 -0.568686 -0.437507
-0.086068 -0.596951 -0.437507
0.72347 -0.563881 -0.437507
0.104684 -0.595467 -0.437507
-0.246791 -0.583419 -0.437507
0.243985 -0.401862 -0.437507
-0.193461 -0.475501 -0.437507
-0.172464 -0.509704 -0.437507
0.413229 -0.438362 -0.437507
-0.68225 -0.436778 -0.437507
0.480208 -0.504378 -0.437507
-0.646334 -0.491354 -0.437507
-0.496943 -0.536146 -0.437507
-0.121733 -0.568207 -0.437507
0.039034 -0.430452 -0.437507
0.302157 -0.42858 -0.437507
0.50437 -0.403837 -0.437507
0.230579 -0.601441 -0.437507
0.225406 -0.473531 -0.437507
0.687706 -0.55097 -0.437507
0.116573 -0.410647 -0.437507
-0.156028 -0.430685 -0.437507
-0.114847 -0.480519 -0.437507
0.186422 -0.425936 -0.437507
-0.452316 -0.456398 -0.437507
-0.019602 -0.414317 -0.437507
0.057864 -0.395831 -0.429979
0.440538 -0.554728 -0.437507
0.711905 -0.395831 -0.41592
-0.216062 -0.416844 -0.437507
-0.002056 -0.510182 -0.437507
-0.517291 -0.585191 -0.437507
0.240784 -0.445119 -0.437507
0.180945 -0.60012 -0.437507
0.619286 -0.416866 -0.437507
0.028355 -0.483805 -0.437507
-0.483751 -0.395831 -0.418631
0.272085 -0.511866 -0.437507
0.591583 -0.549344 -0.437507
-0.151911 -0.577755 -0.437507
0.60058 -0.496414 -0.437507
-0.507002 -0.461729 -0.437507
-0.235654 -0.497757 -0.437507
0.381975 -0.418772 -0.437507
-0.436959 -0.536466 -0.437507
0.223706 -0.565723 -0.437507
-0.350693 -0.414281 -0.437507
-0.651039 -0.395831 -0.435962
0.316783 -0.511256 -0.437507
-0.546718 -0.494476 -0.437507
0.275809 -0.433896 -0.437507
-0.540491 -0.395831 -0.420449
-0.470182 -0.574651 -0.437507
0.726994 -0.403247 -0.437507
-0.427014 -0.487747 -0.437507
-0.17308 -0.411097 -0.437507
0.561143 -0.459669 -0.437507
0.352328 -0.432701 -0.437507
0.299377 -0.395831 -0.436655
-0.284209 -0.485267 -0.437507
-0.670374 -0.478238 -0.437507
0.182123 -0.574435 -0.437507
0.659419 -0.462802 -0.437507
-0.005998 -0.481565 -0.437507
0.537464 -0.475909 -0.437507
0.388006 -0.484533 -0.437507
-0.1145 -0.426174 -0.437507
-0.036155 -0.567139 -0.437507
0.437507 -0.395831 -0.417476
0.663227 -0.408322 -0.437507
0.720525 -0.494666 -0.437507
0.468102 -0.550573 -0.437507
-0.103491 -0.541073 -0.437507
-0.298891 -0.530973 -0.437507
-0.38038 -0.477008 -0.437507
0.145339 -0.539305 -0.437507
-0.614919 -0.45637 -0.437507
-0.545837 -0.552892 -0.437507
0.301372 -0.581856 -0.437507
-0.119182 -0.516728 -0.437507
0.633258 -0.576537 -0.437507
0.437884 -0.513085 -0.437507
0.014795 -0.587408 -0.437507
-0.618443 -0.486242 -0.437507
-0.169965 -0.481271 -0.437507
-0.432934 -0.395831 -0.430314
-0.104696 -0.395831 -0.41879
-0.105006 -0.58431 -0.437507
-0.40242 -0.416798 -0.437507
0.348274 -0.395831 -0.417718
0.46157 -0.470737 -0.437507
0.752671 -0.588523 -0.437507
0.758241 -0.524734 -0.023984
0.758241 -0.550376 0.243156
0.758241 -0.59948 -0.190995
0.758241 -0.584161 0.104363
0.758241 -0.53299 -0.312891
0.758241 -0.472197 -0.137476
0.758241 -0.579951 -0.095969
0.758241 -0.498247 -0.405976
0.758241 -0.503792 -0.218632
0.758241 -0.509075 0.159345
0.758241 -0.508308 0.053939
0.758241 -0.594715 0.0263
0.758241 -0.602453 -0.275769
0.758241 -0.456201 0.220345
0.758241 -0.602692 0.184633
0.758241 -0.572967 -0.370868
0.758241 -0.454593 0.286331
0.758241 -0.480431 -0.275774
0.758241 -0.523482 -0.111944
0.758241 -0.469394 -0.01482
0.758241 -0.583882 0.304673
0.758241 -0.563549 -0.237748
0.758241 -0.459331 -0.079414
0.758241 -0.446605 -0.20349
0.758241 -0.507832 0.215565
0.758241 -0.57986 -0.022003
0.758241 -0.518487 -0.170996
0.758241 -0.580957 -0.321364
0.758241 -0.556414 0.185564
0.758241 -0.483059 -0.331823
0.758241 -0.524304 0.096893
0.758241 -0.54067 0.2879
0.758241 -0.450648 0.175255
0.758241 -0.547332 -0.062223
0.758241 -0.499679 -0.059977
0.758241 -0.596136 0.263539
0.758241 -0.488387 0.260751
0.758241 -0.486063 0.114937
0.758241 -0.599942 0.142431
0.758241 -0.549101 0.052118
0.758241 -0.547221 -0.403788
0.758241 -0.559452 -0.129682
0.758241 -0.491611 0.018744
0.758241 -0.461252 -0.371775
0.758241 -0.563775 -0.177947
0.758241 -0.524533 -0.276419
0.758241 -0.598892 0.063065
0.758241 -0.468771 0.078237
0.758241 -0.476784 -0.172202
0.758241 -0.534802 -0.347682
0.758241 -0.554447 0.121133
0.748259 -0.479883 0.306696
0.744663 -0.501167 -0.437507
0.758241 -0.513657 -0.376116
0.758241 -0.521894 0.129782
0.758241 -0.465211 -0.048456
0.758241 -0.483739 -0.108934
0.758241 -0.526327 -0.245907
0.758241 -0.445025 -0.151183
0.758241 -0.552777 0.0872
0.758241 -0.462318 -0.252253
0.758241 -0.589051 0.234795
0.758241 -0.529835 -0.205001
0.758241 -0.571902 0.151066
0.758241 -0.561008 0.025573
0.758241 -0.528224 0.032004
0.758241 -0.512552 0.294926
0.758241 -0.475413 -0.42354
0.758241 -0.498107 0.088341
0.758241 -0.536378 0.219442
0.758241 -0.583597 -0.411799
0.758241 -0.503813 -0.293136
0.758241 -0.519225 0.269241
0.758241 -0.48915 0.175869
0.758241 -0.449526 -0.313682
0.758241 -0.501825 -0.003509
0.758241 -0.532788 0.073624
0.758241 -0.586033 -0.350645
0.758241 -0.57449 0.253767
0.758241 -0.560273 -0.33263
0.758241 -0.584324 -0.290451
0.758241 -0.574897 0.199754
0.758241 -0.465168 0.260539
0.758241 -0.547459 -0.366952
0.758241 -0.545587 -0.033617
0.758241 -0.569668 -0.042477
0.758241 -0.48744 0.283584
0.758241 -0.531252 0.150507
0.513859 -0.604534 0.306696
-0.370587 -0.600882 0.306696
0.196805 -0.593323 0.306696
-0.125388 -0.601419 0.306696
-0.486344 -0.434124 0.306696
0.063415 -0.466692 0.306696
-0.570318 -0.578911 0.306696
0.357651 -0.58163 0.306696
-0.212192 -0.48226 0.306696
0.629104 -0.526733 0.306696
0.051287 -0.604887 0.306696
0.278654 -0.467444 0.306696
-0.245876 -0.603765 0.306696
0.503443 -0.487344 0.306696
-0.06128 -0.480488 0.306696
-0.372833 -0.48315 0.306696
-0.473475 -0.538959 0.306696
0.175606 -0.461902 0.306696
-0.601812 -0.458601 0.306696
0.706893 -0.602654 0.306696
-0.664593 -0.538071 0.306696
0.382442 -0.480757 0.306696
-0.036428 -0.580709 0.306696
0.718733 -0.501543 0.306696
0.440803 -0.544846 0.306696
0.612173 -0.60276 0.306696
0.268318 -0.543093 0.306696
-0.139727 -0.505146 0.306696
0.132797 -0.524376 0.306696
0.023867 -0.529054 0.306696
-0.299763 -0.4927 0.306696
0.579708 -0.466147 0.306696
0.560063 -0.533122 0.306696
0.120373 -0.60162 0.306696
-0.641507 -0.602472 0.306696
-0.490686 -0.603147 0.306696
0.198884 -0.52664 0.306696
-0.192797 -0.565696 0.306696
-0.343089 -0.539594 0.306696
-0.083988 -0.539441 0.306696
-0.115775 -0.447987 0.306696
0.449483 -0.457594 0.306696
-0.430483 -0.459554 0.306696
0.651703 -0.469696 0.306696
-0.605806 -0.526044 0.306696
-0.53047 -0.520408 0.306696
-0.198338 -0.421266 0.306696
-0.249338 -0.529159 0.306696
-0.30241 -0.594358 0.306696
-0.258918 -0.449577 0.306696
0.301642 -0.592135 0.306696
0.329367 -0.501412 0.306696
0.006777 -0.475793 0.306696
0.0877 -0.556903 0.306696
-0.397077 -0.551651 0.306696
-0.436595 -0.595902 0.306696
0.453858 -0.595848 0.306696
0.666039 -0.570341 0.306696
-0.702228 -0.597125 0.306696
0.125239 -0.453862 0.306696
0.564106 -0.588324 0.306696
-0.544785 -0.442384 0.306696
0.246329 -0.587635 0.306696
0.404737 -0.600483 0.306696
-0.024722 -0.520597 0.306696
-0.359122 -0.436782 0.306696
0.376852 -0.53841 0.306696
0.508774 -0.557872 0.306696
0.229708 -0.491756 0.306696
-0.517772 -0.565554 0.306696
0.686779 -0.431402 0.306696
-0.042388 -0.430656 0.306696
-0.496418 -0.48958 0.306696
-0.647185 -0.464165 0.306696
-0.165665 -0.467948 0.306696
0.007073 -0.596354 0.306696
0.400425 -0.441652 0.306696
-0.204417 -0.524078 0.306696
0.310754 -0.544487 0.306696
0.421222 -0.497562 0.306696
0.344678 -0.461843 0.306696
-0.321046 -0.454899 0.306696
0.07588 -0.516767 0.306696
0.546001 -0.490844 0.306696
0.337306 -0.419954 0.306696
0.205755 -0.434542 0.306696
0.247053 -0.441802 0.306696
-0.096947 -0.499924 0.306696
-0.548945 -0.482779 0.306696
-0.129293 -0.544293 0.306696
-0.076703 -0.580685 0.306696
0.669246 -0.528244 0.306696
0.613079 -0.490125 0.306696
0.071646 -0.426748 0.306696
-0.588971 -0.421664 0.306696
-0.398928 -0.431531 0.306696
-0.172754 -0.598943 0.306696
-0.568172 -0.534404 0.306696
-0.614203 -0.563578 0.306696
0.144377 -0.57167 0.306696
-0.403817 -0.504806 0.306696
0.716365 -0.566704 0.306696
0.472314 -0.525406 0.306696
-0.002085 -0.561133 0.306696
-0.335703 -0.49678 0.306696
0.573877 -0.430506 0.306696
-0.461558 -0.498844 0.306696
0.495187 -0.421453 0.306696
-0.665253 -0.432995 0.306696
-0.151309 -0.424931 0.306696
0.472023 -0.562707 0.306696
0.110206 -0.496496 0.306696
-0.092366 -0.420828 0.306696
-0.686631 -0.510062 0.306696
0.695153 -0.466033 0.306696
0.149541 -0.486066 0.306696
0.312756 -0.445605 0.306696
-0.28236 -0.541528 0.306696
0.049227 -0.55329 0.306696
-0.626793 -0.491959 0.306696
-0.687514 -0.471231 0.306696
-0.442802 -0.562445 0.306696
-0.343388 -0.573148 0.306696
0.524793 -0.516768 0.306696
-0.596 -0.599856 0.306696
0.005077 -0.42163 0.306696
-0.64958 -0.570405 0.306696
0.277991 -0.430832 0.306696
0.296699 -0.501026 0.306696
0.549726 -0.452483 0.306696
0.619791 -0.557009 0.306696
-0.400202 -0.589765 0.306696
0.025082 -0.450233 0.306696
0.472098 -0.489618 0.306696
0.051471 -0.497292 0.306696
0.234214 -0.558915 0.306696
-0.053064 -0.53651 0.306696
0.180464 -0.566911 0.306696
0.163632 -0.527256 0.306696
0.48205 -0.449328 0.306696
0.163082 -0.433966 0.306696
0.260076 -0.494172 0.306696
-0.240296 -0.425475 0.306696
-0.374957 -0.51422 0.306696
0.384981 -0.567395 0.306696
0.604365 -0.425813 0.306696
-0.182851 -0.492486 0.306696
0.354683 -0.518299 0.306696
-0.628246 -0.441036 0.306696
0.71664 -0.42794 0.306696
0.115096 -0.567915 0.306696
0.587425 -0.504701 0.306696
-0.032115 -0.458184 0.306696
-0.25608 -0.557671 0.306696
-0.216641 -0.582477 0.306696
-0.271234 -0.590209 0.306696
-0.095807 -0.601129 0.306696
0.62056 -0.463376 0.306696
0.641462 -0.501962 0.306696
-0.138142 -0.576855 0.306696
-0.352483 -0.46444 0.306696
0.428172 -0.586064 0.306696
-0.198552 -0.458434 0.306696
-0.328729 -0.602157 0.306696
-0.41029 -0.47814 0.306696
0.13537 -0.419891 0.306696
0.079384 -0.489831 0.306696
-0.064431 -0.453588 0.306696
0.73644 -0.548688 0.306696
0.023839 -0.575242 0.306696
0.098511 -0.456859 0.306696
-0.660552 -0.503663 0.306696
-0.25283 -0.475702 0.306696
-0.144213 -0.45079 0.306696
0.242344 -0.468032 0.306696
0.008816 -0.502138 0.306696
0.647766 -0.551439 0.306696
0.574327 -0.564353 0.306696
-0.687157 -0.551103 0.306696
0.545628 -0.569965 0.306696
-0.584732 -0.510767 0.306696
0.689853 -0.561103 0.306696
-0.503706 -0.544341 0.306696
-0.366225 -0.562235 0.306696
-0.575622 -0.442918 0.306696
0.478521 -0.599913 0.306696
0.530328 -0.468147 0.306696
0.207337 -0.502714 0.306696
0.355821 -0.55689 0.306696
-0.589667 -0.561315 0.306696
-0.451885 -0.447459 0.306696
0.199772 -0.466298 0.306696
-0.142017 -0.480883 0.306696
0.324922 -0.585376 0.306696
0.324316 -0.477847 0.306696
-0.519865 -0.589388 0.306696
0.419247 -0.534465 0.306696
-0.449405 -0.474194 0.306696
-0.395663 -0.528194 0.306696
-0.419808 -0.545933 0.306696
-0.043736 -0.602909 0.306696
0.055428 -0.581914 0.306696
-0.309446 -0.434671 0.306696
-0.640428 -0.514946 0.306696
-0.040082 -0.503598 0.306696
-0.22719 -0.52159 0.306696
-0.056902 -0.558911 0.306696
0.138937 -0.546175 0.306696
-0.721252 -0.553578 -0.433894
-0.721252 -0.594374 0.258758
-0.721252 -0.593612 -0.175416
-0.721252 -0.599212 0.05007
-0.721252 -0.508496 -0.047793
-0.721252 -0.583572 -0.307152
-0.721252 -0.506648 0.156321
-0.721252 -0.469475 -0.196936
-0.721252 -0.482567 -0.322673
-0.721252 -0.478693 0.061643
-0.721252 -0.602127 0.169319
-0.721252 -0.603739 -0.038921
-0.721252 -0.497115 0.243334
-0.721252 -0.529194 -0.134093
-0.721252 -0.44858 -0.093807
-0.721252 -0.574021 -0.240629
-0.721252 -0.561239 0.104206
-0.721252 -0.506055 -0.382707
-0.721252 -0.550287 0.011735
-0.721252 -0.514609 -0.244761
-0.721252 -0.596642 -0.096867
-0.720923 -0.524173 0.306696
-0.721252 -0.489 0.004378
-0.721252 -0.604671 -0.358269
-0.721252 -0.460828 0.185748
-0.721252 -0.536174 -0.339492
-0.721252 -0.45001 -0.148046
-0.721252 -0.530107 0.063229
-0.721252 -0.519986 -0.18982
-0.721252 -0.571661 0.216041
-0.721252 -0.535538 -0.087018
-0.721252 -0.548483 0.258376
-0.721252 -0.571044 -0.388529
-0.721252 -0.516675 0.105856
-0.721252 -0.466434 0.14414
-0.721252 -0.488314 0.28489
-0.721252 -0.459028 -0.377113
-0.721252 -0.586009 -0.135988
-0.721252 -0.489784 -0.128376
-0.721252 -0.459704 0.252019
-0.721252 -0.556127 -0.202456
-0.721252 -0.477435 -0.253879
-0.721252 -0.599372 0.012109
-0.721252 -0.568517 -0.020133
-0.721252 -0.520109 -0.280237
-0.721252 -0.445271 -0.312503
-0.721252 -0.529582 -0.020163
-0.721252 -0.468913 -0.410343
-0.721252 -0.561579 -0.281746
-0.721252 -0.477037 -0.02696
-0.721252 -0.561337 -0.108353
-0.721252 -0.541132 -0.374302
-0.721252 -0.565646 -0.073842
-0.721252 -0.555008 0.136123
-0.721252 -0.575226 0.284959
-0.721252 -0.603853 -0.252637
-0.721252 -0.592657 0.099019
-0.721252 -0.491567 -0.073545
-0.721252 -0.492146 -0.431675
-0.721252 -0.511814 -0.16031
-0.721252 -0.454199 0.082399
-0.721252 -0.478883 -0.156513
-0.721252 -0.511994 -0.316565
-0.721252 -0.546169 -0.311234
-0.721252 -0.523758 0.025267
-0.721252 -0.494079 0.036177
-0.721252 -0.596313 0.198154
-0.721252 -0.58251 -0.336323
-0.721252 -0.568003 -0.158867
-0.721252 -0.557694 0.054468
-0.721252 -0.51213 0.267968
-0.721252 -0.448388 -0.251752
-0.721252 -0.453351 0.015392
-0.721252 -0.512067 -0.354293
-0.721252 -0.578702 -0.421105
-0.721252 -0.573829 0.156651
-0.721252 -0.598983 -0.284806
-0.721252 -0.493613 -0.296592
-0.721252 -0.52809 0.132752
-0.721252 -0.540174 -0.172212
-0.721252 -0.509894 -0.110853
-0.721252 -0.453378 0.047871
-0.721252 -0.464303 -0.123855
-0.721252 -0.590494 -0.06005
-0.721252 -0.483491 -0.229946
-0.721252 -0.469441 -0.300254
-0.721252 -0.468033 -0.080728
-0.721252 -0.492122 -0.196402
-0.7245253494562557 0.281962088477851 0.4277364366623737
-0.264201246003112 0.15976058229997503 0.7171265987997865
-0.5672490182454005 -0.18839693088694412 0.5443001313577704
-0.48894946766730263 0.34446395126088436 0.5957955326078417
-0.3267389842547053 -0.130338797268728 0.7027766101158625
-0.5763008315208881 0.07996892503383402 0.5383013637898609
-0.411499736124368 -0.38090691278756456 0.6469230840603983
-0.6392635374698412 -0.43532362498970967 0.4891136408519237
-0.40031124003956886 0.052330224670041725 0.6274506951751206
-0.7242625338918027 -0.2813728316274391 0.43517387109539973
-0.21360439949753524 -0.030817658967779438 0.7768444407314959
-0.39203019707155395 0.22530573124896336 0.632885511467079
-0.5864303516122058 0.2606770748249838 0.5047812267409317
-0.2878496748254021 -0.28190292973253267 0.715673622080118
-0.5278064748151294 -0.33733709616165297 0.5556631881953285
-0.4629878026419368 -0.08727008381144996 0.6129901140587265
-0.4371355362271728 -0.24109320187954816 0.6032226275843082
-0.6259133443501018 -0.05708360208757929 0.5011943850202903
-0.2978789557337319 -0.4193360414692451 0.7217982672801384
-0.320982880469501 -0.0041882250419778 0.7065535672346861
-0.5139223761985463 0.1947135132034118 0.5793910128926775
-0.6603658723753413 0.17478066398718894 0.4722925106125787
-0.2700986590478287 0.280843355845271 0.729578171991901
-0.6256281998401033 -0.309438365623432 0.4978515109017736
-0.7176670271589682 -0.3986851670927352 0.41626576416702255
-0.7175929125486926 -0.003355232259305674 0.44517533252458885
-0.5370632318462799 -0.022912702955699582 0.5641700084199607
-0.6564489723420962 -0.20224835423904988 0.4685885946459316
-0.48142375678858973 0.09656858453235839 0.573996062790902
-0.19898408970417236 -0.29223324065041817 0.7711202970336378
-0.34404288332535893 0.12842139769498495 0.6645190099651217
-0.36176851260173865 -0.22688496794277474 0.6797061984818622
-0.6485837447382565 0.07849530360519785 0.4740530830914994
-0.3745431568289834 -0.06923169965738413 0.6444459875664131
-0.25125564620068214 -0.2081507721316404 0.7524938298908612
-0.5803004518734411 0.1664424707339469 0.5088324865447751
-0.4283572960596569 0.134728266115007 0.635781657529607
-0.3431879003704351 -0.32979600185178376 0.6651405964383927
-0.28109727174884674 0.07605673199584473 0.7060036099809845
-0.21745633249596746 0.33156795579516385 0.7746973072798311
-0.4969864447513539 -0.17537469044148718 0.5905979317782482
-0.6469694281542773 0.29982927476112187 0.4596542277093778
-0.5686057928038052 -0.10306134924102639 0.5433952479671811
-0.24345925539577984 -0.35563069067793723 0.7256301100070683
-0.3416317545075855 0.280280343061582 0.6759494626232174
-0.35047821405573254 -0.43827368415742224 0.658100163286453
-0.4712768440380407 0.0028114344727875884 0.6075166174304042
-0.45237579427789665 0.2694262105025882 0.603341428028253
-0.3964420197785578 -0.1454972748880935 0.6568477880100894
-0.6524910601047963 -0.12041997542320737 0.46129898882032
-0.4484715072069734 -0.3194002558539913 0.6131984103500249
-0.5232022879178551 0.2700872123159408 0.5566487385654295
-0.26059108915745716 -0.05868296466162676 0.7195332517419921
-0.5534019685993032 -0.27206895826395006 0.5266129093961371
-0.32672048242157614 0.2123672228722504 0.7027452762127766
-0.5581586870304239 -0.40874879577359075 0.5502858473867044
-0.6684822144035888 -0.3527876664993069 0.4455612843449355
-0.47417624940947745 -0.38929236602795914 0.6056235217216198
-0.6264872043611853 0.013533177583600509 0.5052311569434642
-0.49635988588931196 -0.25593611785546366 0.564198685235686
-0.29286266126350047 -0.1932603066083189 0.6982850228659767
-0.4556514175567408 0.19829883208132681 0.6177881489383341
-0.7035380061285873 0.12405782500580609 0.4544206172081135
-0.38981899897955086 -0.2796932465593198 0.6344067161169884
-0.6052227976129361 -0.15857899961958077 0.49245121073756337
-0.21793050698671879 -0.15210288284781115 0.7744462794853272
-0.6221467470272463 -0.242187682638444 0.5081321582240237
-0.5990716403084441 0.35162404866633956 0.5189567356629452
-0.7223098805346598 -0.161293971617824 0.43948838713524646
-0.5267231392036285 0.050644923369992934 0.5709742601401108
-0.5061215438636792 -0.09877097034897347 0.5577462893353534
-0.4341599475838259 -0.15013845480310972 0.6051718370360334
-0.5740274595957391 -0.3495342283957539 0.5130316007492282
-0.34151560707149087 0.06022247711706663 0.6930153665172047
-0.6583974869153565 0.2335111098484981 0.4521321423219759
-0.673507872526252 -0.26151592612120733 0.47425791459635874
-0.721961890625053 0.06456962382282638 0.44228777182567275
-0.3264184921779691 -0.06466492765582194 0.7029794570920884
-0.3739406584816631 -0.01487079496535848 0.6716584477787126
-0.2462486249778788 0.0830491308528909 0.7557562175554253
-0.43223457806119303 0.32083392701008107 0.6331707549867553
-0.42240381271490246 -0.4255189021122421 0.6077236445847806
-0.23525121811481198 0.23496748516185761 0.762983653569909
-0.6270446295858594 0.1296215120694867 0.5040107875682754
-0.6805878236024513 -0.05888851501947234 0.43754697805195675
-0.3522092265613188 0.35052423039801095 0.6840445497641677
-0.26415458192038865 -0.14467055113931648 0.7274629231141463
-0.5430847187131942 0.12286985942391693 0.5601836402803079
-0.48310136902134815 0.1494424548731793 0.5997062352208675
-0.3697351301669461 0.17986843962700416 0.6744049435414716
-0.46104476069720274 0.05901510513047675 0.6142519005802174
-0.6186797665687574 -0.385690159408683 0.5104026124313293
-0.3180645252062627 -0.36731848736481837 0.7084903994170032
-0.23924380982002785 -0.0919598504140558 0.7603942608400253
-0.21585076455927266 -0.3511957800029427 0.7758420096926539
-0.2134822282280765 0.025638303800386897 0.7768243633727965
-0.6888571115651462 -0.40563343651878375 0.46416185225843015
-0.24788313441881832 -0.26983020563778304 0.7547239768910663
-0.5689051038473675 0.311888814840678 0.5431129813100349
-0.30352686798249073 0.31919880682415824 0.6859629079479135
-0.27327703826235517 0.2210334314708019 0.7111383323264111
-0.260276651417795 0.024554067828711224 0.7465198924204889
-0.7209866756599765 -0.22841081316022296 0.442967599004638
-0.577332494250555 0.21098737270388657 0.5376049105308979
-0.3883473492536036 -0.21493786460904055 0.6353682339574667
-0.40687256649735887 -0.10527700906232179 0.6231471325409272
-0.4203476582343704 0.00543186297434356 0.6410760219668894
-0.5196871946927382 -0.153170228883925 0.5488141259674142
-0.4970492287215671 -0.3932902824541552 0.558532027238668
-0.5935305090049435 -0.43821631287444335 0.5128079240702526
-0.3885894054947009 0.3040084391617103 0.6619328358451608
-0.2139181727495129 -0.4065125736276556 0.7768446746305968
-0.24251004109284408 0.1380065518141389 0.7582127738488473
-0.28877002132026364 0.34734516291425355 0.7277032177387749
