0.760183 0.436148 -0.214044
0.835407 0.431636 -0.135098
0.799386 0.44576 0.152737
0.831482 0.44576 0.15559
0.783232 0.431636 0.049109
0.822109 0.44576 -0.18098
0.799499 0.431636 -0.151513
0.817603 0.431636 -0.025303
0.839528 0.431636 0.08893
0.820244 0.44576 0.131262
0.794967 0.431636 0.10069
0.809299 0.431636 0.071674
0.8283 0.431636 -0.090859
0.796534 0.44576 -0.018232
0.819076 0.44576 -0.234265
0.809788 0.44576 0.005613
0.792702 0.44576 -0.193359
0.780843 0.44576 0.00965
0.812148 0.431636 -0.073587
0.778143 0.44576 -0.12383
0.809309 0.44576 0.192072
0.810778 0.44576 -0.201126
0.778458 0.431636 0.116669
0.787167 0.44576 0.031605
0.791241 0.431636 -0.103486
0.792622 0.44576 0.062058
0.836628 0.431636 0.027713
0.817636 0.44576 -0.151653
0.832146 0.44576 -0.048895
0.79016 0.431636 -0.172959
0.820433 0.44576 -0.013632
0.814439 0.44576 -0.251739
0.81832 0.431636 0.056259
0.771468 0.431636 -0.017107
-0.722792 0.445637 0.023118
-0.729428 0.431636 0.139566
-0.727461 0.431636 -0.156098
-0.758426 0.431636 0.078682
-0.793377 0.44576 0.017036
-0.727013 0.44576 -0.052574
-0.755675 0.431636 -0.213013
-0.762798 0.44576 -0.101138
-0.761974 0.431636 0.188587
-0.765251 0.431636 -0.017486
-0.768995 0.44576 0.125851
-0.775722 0.431636 -0.168537
-0.722792 0.434753 0.097887
-0.765 0.44576 -0.057558
-0.802191 0.431636 -0.031481
-0.760966 0.431636 0.030916
-0.723624 0.44576 -0.08948
-0.732914 0.44576 -0.124226
-0.791109 0.44576 0.051469
-0.786713 0.431636 -0.200399
-0.78337 0.431636 -0.123182
-0.722792 0.434222 0.169613
-0.786185 0.431636 -0.088049
-0.738779 0.44576 -0.179718
-0.761016 0.431636 0.150731
-0.746063 0.431636 -0.077284
-0.746118 0.44576 0.051256
-0.786977 0.44576 0.080035
-0.736524 0.431636 -0.029538
-0.789719 0.431636 -0.058057
-0.783214 0.44576 0.16485
-0.726962 0.44576 0.193466
-0.75677 0.431636 -0.248026
-0.757089 0.431636 -0.125464
-0.783573 0.44576 0.191546
-0.723442 0.431636 0.072174
-0.748372 0.431636 0.209224
-0.806783 0.44576 -0.203002
-0.776126 0.431636 0.004064
-0.768504 0.44576 -0.195796
-0.769038 0.44576 0.058763
-0.770556 0.431636 0.098484
-0.802388 0.431636 0.033068
-0.72371 0.44576 0.118264
-0.799341 0.44576 -0.224524
-0.786325 0.431636 0.128293
-0.794394 0.44576 -0.103364
-0.770122 0.44576 -0.035812
-0.734365 0.44576 -0.229838
-0.761697 0.44576 0.169293
-0.757768 0.44576 -0.231279
-0.804298 0.431636 -0.076247
-0.742908 0.44576 -0.014757
-0.737967 0.431636 0.028336
-0.746194 0.44576 0.145314
-0.756056 0.431636 -0.045575
-0.788254 0.44576 0.144969
-0.741007 0.431636 -0.141714
-0.790464 0.431636 0.176566
-0.738021 0.44576 0.103554
-0.733993 0.44576 0.080641
-0.7541 0.431636 -0.00159
-0.796144 0.44576 -0.126879
-0.778766 0.431636 -0.231836
-0.806767 0.431636 -0.158019
-0.792767 0.44576 -0.040108
-0.734375 0.431636 -0.062661
-0.767438 0.431636 -0.069431
-0.75419 0.44576 0.198414
-0.774908 0.431636 -0.106691
-0.781489 0.44576 0.035767
-0.778673 0.44576 -0.179917
-0.760117 0.44576 -0.083047
-0.791832 0.431636 -0.182848
-0.738675 0.431636 -0.219486
0.502284 -0.380469 0.234704
-0.033393 -0.355069 0.234733
-0.49584 -0.380469 0.231597
-0.65974 -0.359916 0.234733
0.785737 -0.368973 0.234733
-0.179906 -0.380469 0.229528
0.288273 -0.373053 0.234733
-0.371994 -0.380469 0.226452
0.393468 -0.380469 0.234181
0.696271 -0.338099 0.224181
-0.281861 -0.380469 0.220107
-0.754993 -0.380469 0.224906
-0.581884 -0.371669 0.213547
0.214914 -0.380469 0.234454
0.128089 -0.380469 0.21897
0.343843 -0.338099 0.214588
0.641074 -0.375133 0.213547
0.040504 -0.371435 0.234733
0.575234 -0.380469 0.233564
-0.086408 -0.380469 0.23369
-0.320263 -0.338099 0.223235
0.734328 -0.380469 0.225265
0.446716 -0.380469 0.229112
-0.132614 -0.375961 0.213547
-0.714384 -0.342705 0.234733
-0.224594 -0.36086 0.213547
-0.418841 -0.380466 0.213547
0.818836 -0.338099 0.221867
-0.000585 -0.380469 0.21403
0.476479 -0.347479 0.213547
0.331946 -0.380469 0.225057
0.106274 -0.338099 0.214188
-0.539485 -0.380469 0.220875
0.239275 -0.351842 0.213547
-0.393649 -0.346758 0.213547
0.740687 -0.340165 0.234733
0.537727 -0.33819 0.213547
0.595361 -0.338099 0.217249
-0.563708 -0.338099 0.229225
-0.694942 -0.380469 0.230312
-0.620539 -0.364734 0.234733
0.088876 -0.380469 0.21832
0.285142 -0.338099 0.219962
-0.356376 -0.341646 0.234733
-0.457176 -0.374836 0.213547
-0.335818 -0.378646 0.234733
0.611499 -0.377069 0.234733
0.161581 -0.380469 0.2326
-0.053688 -0.375926 0.213547
0.427075 -0.347817 0.213547
-0.284922 -0.345916 0.213547
0.813949 -0.380469 0.217214
0.376566 -0.338099 0.227042
0.668502 -0.370379 0.234733
-0.09259 -0.354234 0.213547
0.070304 -0.348272 0.234733
-0.481861 -0.338099 0.232183
-0.725166 -0.364724 0.213547
-0.248905 -0.360385 0.234733
0.78789 -0.338099 0.216221
0.216938 -0.346503 0.234733
-0.644537 -0.344079 0.213547
0.513897 -0.357132 0.213547
0.766057 -0.361004 0.213547
0.363479 -0.380469 0.234275
0.108889 -0.363898 0.234733
0.24556 -0.380469 0.213904
-0.253341 -0.380335 0.213547
-0.399486 -0.375665 0.234733
0.060445 -0.380469 0.214147
0.375702 -0.363753 0.213547
0.707857 -0.380469 0.234231
-0.203434 -0.380469 0.214635
-0.421327 -0.344786 0.213547
-8.1e-05 -0.347095 0.213547
0.31961 -0.351186 0.213547
-0.059422 -0.349067 0.213547
0.621253 -0.346478 0.213547
-0.304787 -0.356994 0.234733
-0.669107 -0.373128 0.213547
0.303036 -0.379424 0.213547
-0.63987 -0.380469 0.225467
0.181084 -0.355299 0.234733
-0.016007 -0.375852 0.234733
0.189923 -0.380469 0.227026
0.412573 -0.362751 0.234733
-0.548711 -0.358538 0.234733
-0.154057 -0.380469 0.229526
0.762605 -0.380469 0.234282
0.522969 -0.380469 0.2179
-0.119422 -0.371783 0.234733
0.560466 -0.375954 0.213547
-0.59478 -0.376084 0.234733
0.156822 -0.344937 0.234733
0.42531 -0.380469 0.216236
-0.606182 -0.36796 0.213547
-0.699377 -0.363082 0.213547
0.023785 -0.380469 0.216887
-0.621124 -0.338099 0.222738
-0.222904 -0.344828 0.234733
-0.52552 -0.365636 0.234733
0.254137 -0.347468 0.234733
-0.347266 -0.376525 0.213547
0.124798 -0.356548 0.213547
-0.064418 -0.370969 0.234733
0.42042 -0.339097 0.234733
0.740266 -0.360568 0.213547
0.164017 -0.360653 0.213547
0.080555 -0.34538 0.213547
-0.486323 -0.368444 0.213547
-0.30484 -0.380469 0.23408
-0.194114 -0.358972 0.213547
0.44725 -0.359178 0.213547
-0.152491 -0.338273 0.234733
-0.66477 -0.338099 0.229999
-0.465696 -0.373345 0.234733
-0.559756 -0.378565 0.234733
0.454948 -0.347415 0.234733
0.554237 -0.370511 0.234733
0.669052 -0.380469 0.214378
0.350675 -0.375324 0.213547
0.033264 -0.338099 0.233084
0.467934 -0.380469 0.222021
-0.07999 -0.374067 0.213547
-0.565711 -0.356762 0.213547
0.791539 -0.369363 0.213547
0.095094 -0.338143 0.234733
0.728701 -0.361645 0.234733
0.641636 -0.379426 0.234733
0.595165 -0.380469 0.221039
-0.372955 -0.363275 0.213547
-0.345794 -0.355064 0.213547
0.496731 -0.338099 0.21418
0.258659 -0.338099 0.215921
-0.19834 -0.364324 0.234733
-0.738405 -0.371526 0.234733
-0.71734 -0.363687 0.234733
0.580314 -0.352381 0.213547
0.21546 -0.379475 0.213547
-0.336179 -0.347023 0.234733
-0.32467 -0.355985 0.213547
0.110205 -0.37173 0.213547
0.405288 -0.376811 0.213547
-0.445644 -0.338099 0.217462
-0.023709 -0.338099 0.228834
-0.052261 -0.347344 0.234733
-0.27757 -0.34777 0.234733
0.683471 -0.349832 0.213547
0.143986 -0.369196 0.213547
-0.646402 -0.365487 0.213547
0.304209 -0.338099 0.226549
-0.365079 -0.363758 0.234733
0.590985 -0.346513 0.234733
0.268892 -0.360757 0.234733
-0.156281 -0.347175 0.213547
-0.200054 -0.340215 0.213547
0.137351 -0.3732 0.234733
0.80544 -0.378223 0.234733
-0.223693 -0.364325 0.234733
0.767054 -0.380469 0.215355
0.796832 -0.353192 0.234733
-0.292148 -0.363739 0.213547
-0.297629 -0.338099 0.22564
-0.626051 -0.354126 0.213547
0.368886 -0.362167 0.234733
0.044377 -0.37027 0.213547
0.014678 -0.35898 0.213547
0.231389 -0.371309 0.234733
0.495154 -0.380469 0.217299
-0.037223 -0.380469 0.221291
-0.679963 -0.347855 0.234733
0.489146 -0.367239 0.234733
-0.140022 -0.367114 0.234733
-0.468424 -0.338099 0.219432
-0.098218 -0.371591 0.213547
0.208448 -0.363575 0.234733
0.058043 -0.361526 0.234733
-0.523088 -0.3792 0.213547
0.107762 0.248069 0.213547
-0.487131 0.260785 0.213547
-0.020762 0.272136 0.234733
-0.176061 0.262626 0.213547
-0.095407 0.240968 0.214499
-0.23967 0.269604 0.234733
0.167137 0.240968 0.222444
0.268727 0.240968 0.220995
0.368443 0.283339 0.223337
-0.411708 0.242242 0.213547
0.025576 0.274211 0.213547
0.220828 0.268589 0.213547
-0.570587 0.240968 0.228549
0.322357 0.25312 0.213547
0.135671 0.283339 0.214648
-0.280269 0.274201 0.213547
-0.438492 0.283339 0.217215
-0.132439 0.274236 0.213547
-0.327387 0.26286 0.213547
-0.057802 0.274827 0.213547
0.064756 0.257324 0.213547
0.180926 0.283339 0.213549
-0.005774 0.240968 0.213777
-0.449923 0.246804 0.213547
0.290902 0.27904 0.213547
0.087819 0.283339 0.226577
0.821272 0.240968 0.220913
-0.262528 0.240968 0.222145
-0.525367 0.252422 0.234733
-0.207376 0.246935 0.213547
0.031706 0.240968 0.221431
-0.124432 0.250385 0.234733
0.213913 0.240968 0.228475
-0.192742 0.283339 0.229146
0.137376 0.240968 0.217216
-0.232036 0.240968 0.230045
0.369443 0.251885 0.234733
0.337296 0.279862 0.213547
-0.154332 0.274816 0.234733
0.202246 0.283339 0.232733
-0.080327 0.254246 0.234733
-0.002572 0.283339 0.216013
-0.030464 0.255912 0.213547
0.156674 0.273217 0.234733
-0.453888 0.264471 0.234733
0.086578 0.250981 0.234733
-0.387955 0.265065 0.213547
-0.414684 0.279305 0.234733
-0.540765 0.240968 0.217008
-0.136829 0.242434 0.213547
-0.527113 0.266354 0.213547
-0.256262 0.265929 0.213547
-0.435554 0.240968 0.233486
0.34874 0.240968 0.217028
0.330065 0.240968 0.233983
0.24528 0.264258 0.213547
0.190413 0.260413 0.213547
-0.464738 0.270649 0.213547
-0.216845 0.283339 0.232897
-0.291793 0.252729 0.213547
-0.422899 0.263654 0.213547
-0.470052 0.240968 0.23181
-0.578031 0.260143 0.213547
-0.331419 0.283339 0.224726
0.040934 0.264647 0.234733
0.108088 0.283339 0.214633
-0.08125 0.263913 0.213547
-0.026791 0.279675 0.213547
-0.048045 0.253825 0.234733
-0.019525 0.240968 0.232371
0.247519 0.243827 0.234733
0.010163 0.257766 0.213547
-0.589213 0.251756 0.234733
0.190351 0.240968 0.22422
-0.337373 0.241849 0.213547
-0.109534 0.278928 0.213547
-0.430833 0.262099 0.234733
-0.364608 0.268835 0.213547
0.313173 0.283339 0.233935
0.001413 0.273628 0.234733
0.166699 0.267291 0.213547
0.229117 0.242198 0.213547
-0.496283 0.250069 0.234733
0.046067 0.27969 0.213547
0.332716 0.271849 0.234733
0.233194 0.27221 0.234733
-0.308252 0.269309 0.213547
-0.400946 0.240968 0.233433
-0.178791 0.270251 0.234733
0.265342 0.258169 0.234733
0.139686 0.264091 0.213547
0.07692 0.242061 0.213547
0.367754 0.240968 0.219224
-0.152883 0.283339 0.217796
0.044811 0.244145 0.234733
0.076622 0.276856 0.213547
-0.293938 0.260965 0.234733
-0.39085 0.265352 0.234733
-0.145037 0.261159 0.213547
0.228774 0.283339 0.220481
-0.119845 0.240968 0.219694
-0.558434 0.24223 0.213547
-0.065904 0.279631 0.234733
-0.264199 0.283339 0.226289
-0.301598 0.452427 0.234733
0.108324 0.466945 0.218519
0.291397 0.466945 0.23311
-0.177702 0.466945 0.215471
-0.01776 0.466945 0.228425
-0.653093 0.463615 0.234733
-0.393808 0.466945 0.215176
-0.481431 0.466945 0.231029
0.203819 0.466945 0.221741
-0.733245 0.466425 0.213547
-0.092655 0.443105 0.213547
0.335734 0.425195 0.213547
-0.584344 0.466945 0.217539
-0.243437 0.454004 0.213547
-0.531 0.451179 0.213547
-0.436523 0.4363 0.234733
0.735927 0.466945 0.219927
0.376381 0.46564 0.213547
0.783799 0.463203 0.234733
0.144055 0.432614 0.213547
0.027028 0.462836 0.213547
-0.783286 0.466945 0.215334
0.253133 0.447154 0.213547
-0.049372 0.439785 0.213547
-0.340227 0.466945 0.222194
-0.13836 0.466945 0.231643
0.679743 0.46275 0.213547
0.001702 0.42962 0.213547
-0.714951 0.425755 0.213547
0.339121 0.466945 0.226469
-0.179648 0.426265 0.213547
-0.671426 0.424574 0.222463
0.168324 0.466945 0.234186
-0.63225 0.441225 0.213547
-0.556361 0.424574 0.214423
-0.691908 0.466945 0.230535
-0.065731 0.466945 0.231166
0.062395 0.454818 0.213547
0.106604 0.424574 0.219961
0.360029 0.439773 0.234733
-0.297416 0.424574 0.214941
-0.430736 0.466945 0.220749
0.191139 0.436563 0.213547
-0.462102 0.438152 0.213547
-0.132286 0.440207 0.213547
-0.370215 0.424574 0.21959
-0.22004 0.461955 0.234733
-0.502493 0.424574 0.222591
-0.757582 0.463012 0.234733
0.311101 0.445158 0.213547
0.28172 0.434344 0.213547
-0.263596 0.464827 0.234733
-0.210155 0.424574 0.224975
-0.761325 0.424574 0.228875
0.221995 0.443694 0.213547
-0.252021 0.425819 0.234733
0.082948 0.466033 0.234733
-0.608004 0.424574 0.219912
-0.10963 0.466945 0.215295
-0.730518 0.43759 0.234733
-0.514667 0.466945 0.231028
-0.373351 0.465792 0.234733
0.145497 0.460807 0.213547
-0.282113 0.448194 0.213547
-0.586592 0.436776 0.234733
-0.155039 0.442818 0.234733
0.801485 0.460418 0.213547
-0.498241 0.453027 0.213547
-0.625476 0.465416 0.234733
-0.550259 0.449524 0.234733
-0.473736 0.425549 0.234733
-0.669425 0.466273 0.213547
-0.045626 0.466443 0.213547
-0.312234 0.466945 0.215077
-0.782503 0.42945 0.213547
0.081309 0.424574 0.227873
0.133776 0.444112 0.234733
-0.362441 0.45511 0.213547
0.229745 0.466945 0.222189
0.386948 0.455338 0.234733
-0.074801 0.424574 0.215178
-0.64171 0.424574 0.230432
0.773929 0.447546 0.213547
-0.558713 0.460674 0.213547
-0.343636 0.445457 0.234733
-0.657938 0.444055 0.213547
-0.042587 0.424574 0.2322
-0.326866 0.425663 0.234733
-0.080895 0.445415 0.234733
-0.604477 0.447741 0.213547
0.326223 0.448999 0.234733
0.049227 0.442719 0.234733
-0.009191 0.445141 0.234733
-0.408982 0.445992 0.213547
0.360681 0.464252 0.234733
-0.235476 0.424574 0.218482
-0.57796 0.439449 0.213547
-0.769149 0.449207 0.213547
0.107775 0.444679 0.234733
0.687237 0.465792 0.234733
0.380699 0.443536 0.213547
-0.694749 0.435541 0.213547
0.090747 0.439064 0.213547
-0.712977 0.451259 0.234733
0.755051 0.466945 0.231114
-0.311654 0.444931 0.213547
0.657828 0.46442 0.213547
-0.390644 0.451343 0.234733
0.318444 0.466945 0.219349
-0.573081 0.459644 0.234733
0.294966 0.445602 0.234733
-0.303704 0.430611 0.234733
-0.221931 0.452555 0.213547
0.190078 0.456844 0.234733
0.264688 0.424574 0.22171
-0.435729 0.436679 0.213547
-0.551277 0.427814 0.234733
0.17257 0.465844 0.213547
-0.733067 0.458483 0.234733
-0.13962 0.424574 0.22781
0.228791 0.424574 0.218627
-0.625904 0.461155 0.213547
0.008141 0.466945 0.220838
-0.322118 0.450849 0.234733
-0.670112 0.452762 0.234733
-0.542288 0.466945 0.228707
0.118953 0.461327 0.234733
-0.244746 0.458234 0.234733
-0.030295 0.445478 0.213547
-0.111147 0.435921 0.213547
-0.073722 0.463515 0.213547
-0.705406 0.466945 0.216473
-0.333357 0.450906 0.213547
0.771087 0.436812 0.234733
-0.47247 0.450094 0.234733
0.021052 0.431315 0.213547
0.024045 0.454717 0.234733
0.080332 0.462122 0.213547
-0.74424 0.449994 0.213547
0.698021 0.456828 0.213547
-0.155333 0.466945 0.222958
-0.361301 0.438354 0.234733
-0.685799 0.42568 0.234733
-0.196656 0.434429 0.213547
-0.489453 0.442269 0.234733
0.247292 0.466945 0.228428
-0.764949 0.466945 0.217642
-0.753546 0.440209 0.234733
0.811952 0.430387 0.234733
-0.269679 0.461657 0.213547
-0.118873 0.452164 0.234733
-0.499279 0.457661 0.234733
0.063738 0.424574 0.222972
-0.4119 0.466075 0.213547
-0.062874 0.443197 0.234733
-0.174642 0.466945 0.233247
0.690852 0.448149 0.234733
-0.12702 0.462696 0.213547
-0.280634 0.466945 0.229437
0.218819 0.460314 0.234733
0.321625 0.431498 0.234733
0.332708 0.456451 0.213547
-0.3015 0.235775 0.234733
-0.2779 0.086087 0.2314
-0.357768 -0.019131 0.213547
-0.2779 -0.177432 0.214211
-0.318552 -0.101211 0.234733
-0.362641 0.098228 0.219046
-0.360568 -0.295133 0.213547
-0.324331 0.165585 0.213547
-0.345401 -0.159851 0.213547
-0.362411 0.222317 0.213547
-0.2779 0.392178 0.220538
-0.310785 0.299303 0.234733
-0.321127 0.038322 0.213547
-0.284487 -0.056358 0.213547
-0.284401 -0.243332 0.213547
-0.358747 -0.072746 0.213547
-0.337372 0.418297 0.213547
-0.278338 0.133997 0.213547
-0.282142 -0.130049 0.213547
-0.327747 -0.257625 0.213547
-0.297054 0.349199 0.234733
-0.309799 -0.203994 0.234733
-0.318851 0.087637 0.213547
-0.319272 -0.026724 0.234733
-0.359922 -0.121157 0.234733
-0.2779 0.205007 0.222059
-0.281972 -0.004324 0.213547
-0.283005 -0.307141 0.213547
-0.313682 0.136554 0.234733
-0.324776 -0.290433 0.234733
-0.354504 0.287928 0.213547
-0.357698 0.135172 0.213547
-0.317273 0.202224 0.234733
-0.361006 0.173068 0.213547
-0.322651 -0.128716 0.213547
-0.335918 -0.197661 0.213547
-0.322082 0.00438 0.213547
-0.362278 0.057776 0.213547
-0.2779 -0.275539 0.223622
-0.323327 -0.173523 0.234733
-0.358341 0.014998 0.213547
-0.282232 -0.088753 0.213547
-0.333556 0.238163 0.234733
-0.336503 -0.042123 0.213547
-0.302355 0.166617 0.234733
-0.345759 -0.231451 0.213547
-0.345199 -0.321377 0.213547
-0.2779 0.060317 0.214029
-0.300292 0.373051 0.213547
-0.362641 -0.188214 0.222776
-0.344421 -0.098766 0.213547
-0.340539 0.109788 0.234733
-0.325654 -0.063764 0.234733
-0.305536 -0.268425 0.234733
-0.307199 0.108451 0.234733
-0.320435 -0.309301 0.213547
-0.33709 0.211471 0.213547
-0.307558 -0.137508 0.234733
-0.303818 0.008596 0.234733
-0.303183 -0.048442 0.234733
-0.302172 0.148595 0.213547
-0.322763 0.122835 0.213547
-0.284521 0.022873 0.213547
-0.289949 0.101385 0.213547
-0.362193 -0.087494 0.234733
-0.298716 -0.193832 0.213547
-0.296681 0.294999 0.213547
-0.308378 -0.21812 0.213547
-0.290354 -0.153588 0.213547
-0.303237 -0.230589 0.234733
-0.306891 -0.085789 0.213547
-0.29107 0.185869 0.213547
-0.348583 -0.283733 0.234733
-0.302339 0.062904 0.213547
-0.302063 0.084058 0.234733
-0.2959 -0.034782 0.213547
-0.332927 -0.247191 0.234733
-0.281304 0.296064 0.234733
-0.340951 -0.311043 0.234733
-0.282644 0.410729 0.234733
-0.330602 0.010476 0.234733
-0.311864 0.235033 0.213547
-0.322681 -0.153796 0.213547
-0.307794 0.402709 0.234733
-0.314469 -0.318663 0.234733
-0.288497 -0.179691 0.234733
-0.332759 -0.207058 0.234733
-0.299259 -0.113843 0.234733
-0.328632 -0.121922 0.234733
-0.339906 0.155591 0.234733
-0.3127 0.366473 0.234733
-0.328271 0.307599 0.213547
-0.314423 0.211378 0.213547
-0.362641 -0.314645 0.22622
-0.305302 -0.11458 0.213547
-0.340912 -0.082527 0.234733
-0.342038 0.104887 0.213547
-0.343355 0.081348 0.234733
-0.340845 -0.026981 0.234733
-0.359522 -0.169826 0.234733
-0.336036 0.147623 0.213547
-0.340846 0.046385 0.213547
-0.284566 -0.038094 0.234733
-0.314755 -0.044573 0.213547
-0.362641 -0.244241 0.233948
-0.356647 -0.040987 0.234733
-0.338888 0.081403 0.213547
-0.324241 -0.231696 0.213547
-0.362641 0.238697 0.226035
-0.362641 -0.133789 0.219526
-0.2779 -0.301333 0.233046
-0.347438 -0.25681 0.213547
-0.305907 -0.07692 0.234733
-0.302211 -0.06685 0.213547
-0.2779 0.349631 0.217428
-0.36231 -0.169299 0.213547
-0.303305 0.018461 0.213547
-0.341939 0.192836 0.213547
-0.305703 -0.165849 0.234733
-0.296774 -0.305889 0.234733
-0.334981 0.174126 0.234733
-0.29322 0.400757 0.213547
-0.329866 0.404176 0.234733
-0.337171 -0.060813 0.213547
-0.345593 -0.284095 0.213547
-0.286191 0.001481 0.234733
-0.336064 -0.007576 0.213547
-0.362641 -0.058131 0.233784
-0.341797 -0.139789 0.234733
-0.310066 0.357701 0.213547
-0.823273 -0.065849 0.213547
-0.828719 0.461546 0.224361
-0.828719 -0.324798 0.213883
-0.828719 0.282982 0.231375
-0.828719 -0.192201 0.216177
-0.828719 0.350015 0.233353
-0.826726 0.046962 0.234733
-0.828028 0.223891 0.213547
-0.814943 -0.128891 0.234733
-0.791816 -0.009215 0.234733
-0.815831 -0.378235 0.234733
-0.828719 0.152438 0.234377
-0.825843 0.404779 0.213547
-0.789095 0.073638 0.213547
-0.786348 -0.215887 0.214572
-0.786348 0.131799 0.219765
-0.787658 -0.170556 0.213547
-0.827562 -0.023382 0.213547
-0.786348 0.032805 0.221325
-0.786348 0.296233 0.218975
-0.828719 0.083577 0.21442
-0.790759 0.177132 0.213547
-0.788722 0.357303 0.213547
-0.828719 -0.293987 0.233903
-0.806778 0.320714 0.234733
-0.828719 0.190584 0.225046
-0.786348 -0.372387 0.215009
-0.828719 0.014372 0.226493
-0.792009 -0.033701 0.213547
-0.791858 -0.323821 0.213547
-0.809057 -0.158785 0.234733
-0.828719 0.308554 0.215615
-0.825838 -0.345618 0.234733
-0.815272 0.422464 0.234733
-0.809281 0.387737 0.234733
-0.809394 -0.318545 0.234733
-0.828719 -0.087227 0.231242
-0.808415 -0.192164 0.234733
-0.80504 -0.044339 0.234733
-0.799377 -0.127809 0.213547
-0.814367 -0.286026 0.213547
-0.792939 0.401269 0.213547
-0.786348 0.332441 0.224679
-0.817683 -0.169544 0.213547
-0.801685 0.466945 0.232369
-0.786348 0.097507 0.218188
-0.815168 -0.013717 0.234733
-0.786348 -0.182757 0.233791
-0.806185 0.023434 0.213547
-0.807285 0.125041 0.213547
-0.81178 -0.236178 0.234733
-0.828719 0.426408 0.215103
-0.828719 -0.10845 0.225127
-0.808902 0.01412 0.234733
-0.797345 0.447979 0.213547
-0.788002 0.358755 0.234733
-0.826612 0.10463 0.213547
-0.828719 0.329704 0.216407
-0.793245 0.051608 0.234733
-0.798926 -0.304215 0.213547
-0.811169 -0.041729 0.213547
-0.798574 0.158019 0.213547
-0.786348 -0.013507 0.215438
-0.825589 -0.365526 0.213547
-0.786348 -0.150135 0.213965
-0.807161 0.103733 0.234733
-0.826087 -0.000836 0.213547
-0.828587 0.273715 0.213547
-0.817281 0.369539 0.234733
-0.799588 -0.108035 0.213547
-0.828719 0.132852 0.226673
-0.809652 0.061291 0.213547
-0.797358 0.286458 0.234733
-0.828719 -0.047317 0.219425
-0.79873 -0.186075 0.213547
-0.824461 0.301212 0.234733
-0.828719 -0.146945 0.222841
-0.806832 -0.380469 0.21848
-0.828719 0.058848 0.214662
-0.800105 0.328084 0.213547
-0.786348 -0.314105 0.227779
-0.828719 0.398793 0.230219
0.86519 -0.226528 0.213547
0.85817 0.456744 0.234733
0.865551 0.258526 0.234733
0.86611 0.129484 0.217319
0.86611 -0.333979 0.228372
0.86611 0.056234 0.218191
0.863807 -0.16575 0.213547
0.852418 0.317761 0.234733
0.86611 0.362912 0.221246
0.823739 -0.154557 0.228916
0.865588 -0.048406 0.213547
0.825623 -0.263658 0.213547
0.82518 0.045345 0.213547
0.823739 -0.076159 0.215763
0.853191 -0.285019 0.234733
0.864427 -0.378613 0.234733
0.827078 -0.036872 0.213547
0.823739 0.192246 0.218485
0.823739 0.147891 0.226929
0.866042 -0.07798 0.234733
0.865623 0.024939 0.234733
0.823739 0.109962 0.21607
0.86611 -0.015191 0.224695
0.86611 0.1625 0.228802
0.823739 0.452761 0.232757
0.832841 -0.18251 0.213547
0.823739 -0.306079 0.227621
0.862128 -0.258742 0.213547
0.86611 -0.138186 0.230127
0.844136 0.223526 0.234733
0.857409 0.408993 0.234733
0.837247 -0.106118 0.213547
0.823739 0.318725 0.221075
0.86611 0.297577 0.217375
0.823739 0.414833 0.228835
0.841541 0.07053 0.213547
0.823739 0.006178 0.223206
0.853224 0.196338 0.234733
0.837472 0.263779 0.234733
0.841899 -0.364741 0.213547
0.86611 0.101787 0.216962
0.864904 -0.199418 0.213547
0.848778 0.032164 0.213547
0.839839 -0.349025 0.234733
0.86611 -0.308198 0.227243
0.860876 0.423043 0.213547
0.86611 -0.355231 0.214114
0.856275 0.383632 0.234733
0.842041 -0.32001 0.213547
0.864452 0.181831 0.213547
0.86611 -0.101367 0.22704
0.834793 0.466945 0.215126
0.85799 -0.175443 0.234733
0.86611 0.218286 0.227091
0.856188 0.11661 0.234733
0.836638 0.133489 0.213547
0.834379 -0.014944 0.213547
0.86611 0.342585 0.231959
0.86611 -0.235345 0.234327
0.823739 0.168453 0.217769
0.838966 0.224754 0.213547
0.861591 0.285582 0.234733
0.863764 -0.291998 0.213547
0.836245 0.263598 0.213547
0.847252 -0.150018 0.234733
0.845895 0.103447 0.213547
0.842117 0.33533 0.234733
0.82656 0.39912 0.213547
0.823739 -0.134947 0.224845
0.851592 0.002105 0.234733
0.839515 0.374006 0.234733
0.834253 0.41994 0.213547
0.823739 -0.371236 0.230739
0.838794 -0.345988 0.213547
0.834462 0.205596 0.234733
0.832899 0.019247 0.213547
0.823739 -0.246219 0.218805
0.834141 -0.380469 0.218076
0.823739 -0.057767 0.221193
0.315583 -0.189347 0.213547
0.318003 0.306041 0.213547
0.341664 0.164994 0.213547
0.347326 0.056035 0.213547
0.397522 -0.125288 0.213547
0.400032 -0.204295 0.22586
0.338457 -0.262095 0.213547
0.397734 0.114158 0.213547
0.344441 -0.04841 0.213547
0.365039 0.222297 0.213547
0.36656 0.007647 0.234733
0.344401 0.379621 0.234733
0.346404 0.112142 0.213547
0.344747 -0.107978 0.213547
0.391268 -0.063135 0.213547
0.367927 -0.163171 0.213547
0.358067 -0.223521 0.234733
0.367229 -0.301283 0.234733
0.385647 0.157931 0.213547
0.400032 -0.246993 0.213715
0.315291 0.348694 0.219598
0.356128 0.321413 0.213547
0.327786 0.196223 0.234733
0.386498 0.048519 0.213547
0.360303 -0.078157 0.234733
0.320913 -0.227629 0.213547
0.344073 -0.142247 0.234733
0.338166 0.019507 0.213547
0.330712 -0.297535 0.213547
0.381125 -0.028493 0.213547
0.39348 0.192822 0.213547
0.394679 -0.293238 0.213547
0.367648 -0.257571 0.234733
0.361496 0.188056 0.234733
0.326109 0.138399 0.234733
0.315291 0.04043 0.228555
0.355201 0.354882 0.213547
0.400032 -0.169791 0.219601
0.391844 0.00314 0.213547
0.315291 0.381044 0.213934
0.400032 0.219458 0.231174
0.348492 -0.177867 0.234733
0.317608 -0.052028 0.234733
0.327989 0.220135 0.213547
0.340738 0.300064 0.234733
0.324314 -0.32132 0.234733
0.316469 0.104336 0.213547
0.358979 0.15152 0.234733
0.352329 -0.202831 0.213547
0.358809 0.076186 0.234733
0.365236 -0.046556 0.234733
0.315291 0.405046 0.231867
0.364097 0.045192 0.234733
0.315291 0.170164 0.228644
0.329056 -0.024339 0.213547
0.387724 -0.228313 0.234733
0.391666 0.076159 0.213547
0.342001 -0.078157 0.213547
0.3778 0.096571 0.234733
0.372383 0.125581 0.213547
0.400032 0.019316 0.234543
0.344897 0.406948 0.234733
0.32681 -0.24993 0.234733
0.348622 -0.026185 0.234733
0.323479 0.009583 0.234733
0.375009 -0.239715 0.213547
0.341649 -0.156808 0.213547
0.396262 -0.099797 0.213547
0.364597 -0.320241 0.213547
0.342862 0.087383 0.213547
0.375475 -0.113424 0.213547
0.350747 0.201988 0.213547
0.360081 -0.003393 0.213547
0.362504 0.332447 0.234733
0.334203 0.111791 0.234733
0.396719 -0.337888 0.213547
0.368139 0.400287 0.234733
0.400032 -0.269315 0.222743
0.323456 0.127402 0.213547
0.315651 -0.165144 0.213547
0.366382 -0.139342 0.213547
0.369643 -0.078205 0.213547
0.3653 -0.266019 0.213547
0.322326 0.075081 0.213547
0.361825 0.175264 0.213547
0.339065 0.401589 0.213547
0.336924 0.027757 0.234733
0.379249 0.21147 0.234733
0.335037 0.340194 0.213547
0.379885 0.161792 0.234733
0.390125 -0.150778 0.213547
0.339082 -0.104079 0.234733
0.350533 -0.331938 0.234733
0.39245 -0.224507 0.213547
0.318162 -0.043253 0.213547
0.367397 -0.099606 0.234733
0.3396 -0.004926 0.234733
0.376357 -0.281618 0.234733
0.368316 -0.166559 0.234733
0.337559 -0.128192 0.213547
0.380575 0.028194 0.234733
0.393702 0.190494 0.234733
0.327775 0.194353 0.213547
0.355495 0.148908 0.213547
0.315291 -0.259084 0.217792
0.317599 0.306333 0.234733
0.34313 -0.184223 0.213547
0.400032 -0.036512 0.216667
0.37185 0.411883 0.213547
0.334327 -0.317706 0.213547
0.370219 0.196219 0.213547
0.400032 0.035865 0.221814
0.315291 -0.305657 0.223835
0.370872 0.420305 0.234733
0.315291 0.116916 0.229898
0.371207 -0.12788 0.234733
0.364687 0.225214 0.234733
0.371745 0.074506 0.213547
0.328209 0.346916 0.234733
0.337423 0.301398 0.213547
0.351999 0.205478 0.234733
0.400032 0.104261 0.230955
0.35632 0.311984 0.234733
0.33309 -0.064066 0.234733
0.315291 0.235637 0.218007
0.341108 -0.281253 0.213547
0.341033 0.084033 0.234733
0.3476 -0.245111 0.213547
0.324315 0.095307 0.234733
0.326554 0.22209 0.234733
0.348062 -0.30145 0.234733
0.364447 0.351407 0.234733
0.344993 0.383842 0.213547
0.398326 0.213484 0.213547
0.384924 0.139352 0.213547
0.340502 0.151104 0.234733
0.400032 -0.081861 0.215377
0.399341 0.084184 0.234733
0.315291 -0.277155 0.216997
0.318499 -0.074702 0.234733
0.357641 0.293735 0.234733
0.324424 -0.279186 0.234733
0.400032 -0.18832 0.217636
0.346404 0.047813 0.234733
0.859048 0.149652 0.079077
0.859048 -0.139693 -0.272906
0.844925 0.406111 -0.030481
0.844925 -0.104628 -0.012069
0.844925 -0.328966 0.016863
0.859048 0.082436 -0.111713
0.859048 0.318356 -0.215548
0.859048 -0.242718 -0.133891
0.854732 0.040615 -0.273716
0.844925 0.238691 -0.068631
0.859048 -0.099182 0.137058
0.859048 0.4542 -0.164988
0.844925 -0.053813 -0.149808
0.844925 0.29156 0.099018
0.859048 0.010686 0.054589
0.859048 0.176089 -0.205125
0.859048 -0.208562 0.072234
0.844925 -0.254817 -0.249278
0.844925 -0.007278 -0.054187
0.844925 -0.212045 -0.031096
0.844925 0.045868 0.153817
0.844925 0.383178 0.147682
0.844925 0.364439 -0.122537
0.859048 0.152424 -0.020953
0.844925 -0.146433 -0.10559
0.859048 -0.287846 0.129025
0.859048 0.431163 0.06509
0.859048 0.212212 0.146762
0.859048 -0.321681 -0.089249
0.844925 0.03225 -0.185344
0.856718 -0.370531 -0.273716
0.859048 0.247898 -0.155155
0.859048 0.226532 0.038535
0.844925 -0.179011 -0.197302
0.844925 0.315652 -0.031867
0.859048 0.124563 -0.271096
0.859048 0.069393 -0.024447
0.859048 0.259315 -0.271905
0.844925 0.164685 -0.126923
0.844925 -0.303269 -0.184835
0.859048 -0.029618 0.174145
0.859048 -0.066347 0.064809
0.845866 0.466945 0.132403
0.859048 -0.175815 0.14543
0.844925 0.458281 -0.086875
0.859048 0.340148 0.038585
0.859048 0.077782 0.08874
0.859048 0.10225 -0.190445
0.844925 0.135388 0.14741
0.859048 -0.259905 0.023014
0.844925 -0.106364 -0.212991
0.859048 -0.033638 -0.22057
0.851229 0.466945 0.002346
0.859048 0.010182 -0.122981
0.859048 -0.148937 0.035811
0.859048 0.299554 -0.095002
0.844925 -0.070412 -0.074364
0.854288 0.466945 -0.236676
0.859048 0.394359 -0.192184
0.844925 -0.04175 0.002283
0.859048 0.103252 0.029298
0.844925 -0.269516 -0.056321
0.844925 -0.015202 0.115755
0.844925 0.403681 0.206682
0.844925 -0.234586 0.154837
0.859048 -0.345231 0.097519
0.844925 -0.294231 0.189228
0.859048 0.205352 0.20822
0.844925 -0.132698 0.090902
0.844925 -0.200406 -0.270111
0.859048 -0.245627 -0.191943
0.859048 0.326263 -0.272934
0.856237 -0.380469 0.195487
0.844925 0.315756 -0.15991
0.844925 0.262096 -0.012465
0.844925 -0.283969 0.074341
0.844925 -0.200741 -0.086308
0.859048 -0.083358 -0.273414
0.859048 -0.115007 0.190529
0.844925 0.214585 0.090752
0.859048 0.375017 0.081933
0.859048 -0.160813 -0.018167
0.844925 0.254314 -0.207176
0.844925 0.046591 -0.071587
0.844925 0.157115 -0.073221
0.844925 -0.364981 -0.127331
0.859048 -0.189424 -0.143328
0.859048 0.212441 -0.245174
0.844925 0.259354 0.168633
0.859048 0.416391 -0.11695
0.859048 -0.109094 -0.140845
0.859048 0.28755 0.046123
0.844925 0.164932 0.030659
0.859048 0.019034 0.003176
0.859048 0.33195 0.128193
0.859048 0.089992 0.176051
0.859048 0.35945 -0.054073
0.85716 -0.319768 -0.273716
0.859048 0.396416 0.028602
0.844925 -0.203734 0.024155
0.859048 0.207606 -0.105579
0.844925 0.11161 -0.046219
0.856812 0.466945 0.180605
0.844925 -0.034521 -0.267817
0.844925 0.204141 -0.003007
0.859048 -0.352893 -0.220189
0.859048 -0.317472 -0.137818
0.844925 -0.239333 0.106467
0.859048 0.012917 -0.235339
0.859048 0.374299 -0.235078
0.844925 0.057204 0.025795
0.844925 0.065948 -0.152829
0.859048 0.411806 0.114141
0.859048 0.367563 -0.008682
0.844925 0.004965 0.202844
0.844925 0.248313 0.122631
0.844925 -0.027897 -0.102221
0.844925 -0.015312 -0.181713
0.850434 0.466945 -0.042689
0.844925 -0.105318 0.047355
0.859048 -0.336734 0.160149
0.859048 -0.060406 0.114737
0.844925 0.028244 0.106263
0.859048 0.128778 -0.148568
0.844925 -0.14655 -0.159497
0.844925 0.194992 -0.050707
0.844925 0.254583 0.072307
0.844925 0.164402 0.201348
0.859048 -0.118732 -0.051095
0.859048 -0.30232 -0.233667
0.844925 0.083829 0.129609
0.859048 0.355971 0.178687
0.844925 0.391074 -0.080774
0.853071 0.466945 0.088981
0.859048 0.202817 -0.171154
0.859048 -0.373953 -0.075519
0.859048 -0.311232 -0.032784
0.859048 0.164689 -0.255876
0.859048 -0.266849 -0.096714
0.859048 0.258089 -0.105701
0.844925 -0.07573 0.169951
0.859048 0.133207 -0.219469
0.844925 0.167261 0.119544
0.859048 -0.101999 -0.098578
0.859048 -0.048576 -0.036876
0.859048 -0.073239 -0.184454
0.859048 0.273957 -0.050462
0.844925 0.393364 -0.152699
0.859048 -0.159446 -0.068778
0.859048 -0.221012 -0.229948
0.859048 -0.159806 -0.236703
0.859048 -0.1713 0.094931
0.844925 -0.272518 -0.013439
0.859048 0.322975 0.075593
0.859048 0.285242 0.136613
0.859048 -0.20069 0.182823
0.844925 -0.278065 -0.147405
0.844925 -0.024818 0.041541
0.847875 0.370845 -0.273716
0.844925 0.113729 0.10002
0.844925 0.047306 0.064632
0.852727 0.452225 -0.273716
0.859048 0.010115 0.164034
0.844925 -0.155153 0.176133
0.859048 -0.320235 0.061725
0.844925 0.316455 0.010263
0.859048 0.191128 0.056318
0.844925 -0.246983 0.061174
0.854852 0.466945 0.041357
0.859048 0.420854 -0.221858
0.859048 0.279669 -0.239234
0.844925 0.329194 -0.073086
0.859048 0.134285 -0.100529
0.859048 -0.137233 0.140722
0.844925 -0.216203 -0.1724
0.844925 0.359275 -0.189539
0.844925 -0.067945 -0.228235
0.859048 0.433788 0.162446
0.859048 0.081409 -0.066948
0.846788 0.466945 -0.123633
0.859048 -0.337651 -0.179533
0.859048 0.167823 0.159375
0.859048 -0.212277 0.127769
0.859048 0.433784 0.026234
0.859048 -0.370722 0.036579
0.859048 0.46635 -0.200414
0.844925 -0.337443 0.196241
0.859048 0.283222 -0.132251
0.859048 -0.075132 0.00546
0.859048 0.137881 0.180828
0.845 0.090024 -0.273716
0.844925 0.067605 -0.193608
0.859048 -0.266213 0.16559
0.844925 0.041539 -0.112034
0.859048 0.05905 -0.226736
0.844925 0.120544 0.064397
0.859048 0.233573 -0.028218
0.844925 -0.292186 0.019055
0.844925 -0.073942 -0.120682
0.844925 0.208154 -0.206281
0.844925 -0.098861 0.099279
0.859048 -0.275476 -0.273522
0.859048 -0.305511 0.099169
0.859048 -0.232172 -0.089143
0.859048 -0.030144 0.072645
0.844925 0.236902 0.19611
0.844925 -0.05061 0.144509
0.844925 0.020304 -0.02811
0.859048 -0.13518 -0.188476
0.844925 0.446017 0.204602
0.859048 0.235912 0.005989
0.859048 -0.365202 -0.030352
0.859048 0.118417 -0.00096
0.844925 -0.104681 -0.171263
0.844925 -0.210887 -0.121614
0.853205 0.007019 -0.273716
0.844925 0.022173 -0.150992
0.859048 0.094385 -0.230448
0.859048 -0.336569 -0.058875
0.859048 -0.175166 0.013962
0.844925 0.295387 -0.26921
0.844925 -0.191489 -0.236798
0.859048 0.075895 0.054665
0.859048 -0.039411 -0.074229
0.844925 0.280251 -0.186276
0.851765 0.191701 -0.273716
0.859048 -0.187903 -0.051977
0.859048 -0.001449 0.089357
0.844925 -0.017588 -0.022977
0.859048 -0.116035 0.015327
0.859048 -0.232015 -0.009376
0.859048 -0.053341 0.034308
0.859048 -0.019824 -0.135643
0.859048 0.055384 0.12246
0.859048 0.394513 0.1789
0.859048 0.34341 -0.24555
0.844925 0.378038 0.053095
0.844925 0.133327 0.024751
0.859048 0.29324 -0.006914
0.844925 -0.142865 0.0052
0.844925 0.083921 0.000272
0.859048 -0.269185 -0.213362
0.844925 0.182861 -0.232776
0.844925 0.352359 -0.151866
0.859048 -0.368439 0.160029
0.859048 0.042954 0.190318
0.859048 0.169354 -0.154798
0.859048 0.016779 -0.068951
0.859048 0.326072 0.205057
0.855116 -0.237835 -0.273716
0.844925 -0.199299 0.098704
0.844925 0.106443 -0.131661
0.859048 -0.154998 -0.132183
0.844925 0.264536 0.03058
0.844925 -0.290077 -0.081885
0.859048 0.223186 -0.132315
0.859048 0.368958 0.124152
0.844925 0.27028 -0.077631
0.844925 -0.112069 0.161165
0.859048 -0.111663 -0.26058
0.844925 0.004928 0.02632
0.844925 -0.349246 -0.086529
0.859048 0.186435 0.100572
0.859048 -0.173803 -0.265809
0.844925 -0.141761 0.203364
0.859048 0.321192 -0.116166
0.859048 0.24968 -0.242986
0.859048 0.421781 -0.179738
0.859048 -0.132246 -0.22458
0.844925 0.311667 -0.241936
0.859048 0.183874 -0.020135
0.844925 -0.182211 0.069262
0.859048 -0.243037 -0.05697
0.844925 -0.360551 0.012188
0.844925 0.310161 -0.190424
0.844925 0.398995 -0.244088
0.844925 0.35234 0.094822
0.859048 0.132632 -0.064322
0.859048 -0.277434 -0.182332
0.844925 -0.072267 -0.026281
0.859048 -0.13159 -0.078249
0.859048 -0.362457 0.121324
0.859048 0.394218 -0.053183
0.844925 -0.219248 0.048912
0.844925 0.197228 0.184001
0.859048 0.301739 -0.05922
0.859048 0.110799 0.154048
0.859048 0.439719 -0.139734
0.859048 -0.245151 0.185678
0.859048 0.367522 -0.090409
0.859048 -0.337436 -0.020253
0.859048 0.050024 -0.002843
0.844925 -0.204963 -0.210356
0.859048 0.364518 0.020134
0.844925 -0.364759 0.080682
0.859048 -0.046134 -0.174224
0.859048 -0.18414 -0.105357
0.859048 -0.322082 0.135201
0.859048 -0.274272 0.103482
0.859048 0.409177 0.14731
0.844925 -0.217528 -0.062811
0.859048 -0.084457 0.207475
0.844925 -0.26118 0.12526
0.844925 -0.050974 0.18732
0.859048 0.447641 0.115604
0.859048 0.071026 0.151171
0.844925 -0.300898 -0.119186
0.844925 -0.247321 -0.167126
0.859048 0.141592 0.12344
0.844925 -0.158174 0.115881
0.859048 -0.01149 -0.252889
0.859048 -0.309615 0.16998
0.844925 -0.184134 -0.026336
0.844925 0.003984 -0.20239
0.844925 0.414044 0.001513
0.844925 0.233761 -0.104648
0.859048 -0.251767 -0.029378
0.859048 0.230353 -0.196557
0.844925 0.287912 -0.156709
0.844925 0.311727 0.045818
0.844925 0.441812 -0.111433
0.844925 0.377749 -0.030547
0.844925 0.166768 0.002775
0.844925 0.226871 -0.16956
0.844925 0.305669 0.123826
0.859048 0.286101 0.07399
0.844925 0.350127 0.204466
0.844925 0.202348 0.118568
0.859048 0.011934 0.136249
0.859048 -0.094214 -0.071519
0.859048 0.336701 -0.18148
0.859048 0.389064 -0.111747
0.859048 0.06896 -0.262202
0.844925 0.145861 0.053001
0.844925 -0.337272 -0.155756
0.859048 -0.22735 0.024535
0.844925 0.392681 -0.215732
0.844925 0.180483 -0.10443
0.844925 0.346979 0.156915
0.844925 -0.312018 0.038467
0.844925 -0.013771 0.143137
0.859048 -0.048512 -0.126939
0.844925 0.293202 -0.22012
0.859048 -0.278717 0.042841
0.859048 0.199392 -0.073625
0.859048 0.404258 0.054725
0.844925 0.200217 -0.128596
0.859048 -0.125812 -0.02484
0.844925 0.171112 -0.182555
0.844925 0.290289 0.159123
0.844925 -0.302711 -0.005788
0.859048 0.34317 0.002799
0.859048 -0.083177 0.041301
0.844925 0.389059 0.111329
0.859048 0.041084 -0.037747
0.844925 -0.185783 0.121899
0.844925 -0.126264 -0.123291
0.844925 -0.222356 -0.254327
0.859048 -0.293274 -0.05259
0.859048 -0.120821 0.063929
0.844925 0.339837 -0.020701
0.859048 -0.322869 -0.216818
0.859048 0.349104 0.07105
0.859048 0.245793 0.14469
0.859048 0.114985 0.1936
0.844925 0.382592 0.007552
0.859048 -0.331481 -0.113416
0.844925 0.079318 -0.088745
0.844925 0.449274 -0.186709
0.859048 -0.133612 0.172307
0.844925 0.190904 0.019389
0.859048 0.0103 -0.169312
0.859048 0.137909 -0.248807
0.859048 -0.093621 0.065712
0.859048 -0.344941 0.033693
0.859048 -0.018471 -0.001289
0.859048 -0.295713 -0.159998
0.859048 -0.075914 0.148281
0.844925 -0.151835 -0.215428
0.859048 0.208387 -0.033803
0.859048 0.053015 -0.130236
0.844925 -0.146792 0.069483
0.859048 0.050727 -0.174732
0.844925 -0.230026 0.082674
0.859048 0.4375 -0.082269
0.844925 -0.36945 -0.102149
0.844925 -0.206454 0.162361
0.859048 -0.094571 -0.030796
0.844925 -0.290139 -0.210082
0.859048 0.253188 0.102001
0.844925 0.346528 -0.104467
0.859048 0.154713 -0.05173
0.844925 -0.005233 0.068476
0.859048 -0.26306 0.07712
0.844925 0.280978 -0.02942
0.858391 0.466945 0.209365
0.844925 -0.249441 -0.076941
0.844925 0.113816 -0.104379
0.844925 -0.207183 -0.006452
0.859048 -0.022032 0.198085
0.844925 0.380501 -0.174206
0.859048 -0.245505 -0.221448
0.859048 -0.274424 -0.120554
0.859048 0.380827 0.205408
0.859048 -0.253478 0.14433
0.859048 -0.337808 -0.239847
0.844925 0.030135 0.046779
0.844925 -0.236381 -0.109023
0.859048 0.365069 -0.20888
0.844925 -0.013766 -0.224085
0.859048 0.270698 -0.167152
0.859048 0.25395 -0.187064
0.844925 -0.273465 -0.232971
0.844925 -0.044751 0.102186
0.859048 -0.01394 -0.087978
0.859048 0.157541 -0.108009
0.859048 -0.222921 -0.200952
0.844925 -0.191807 -0.17292
0.859048 0.165496 0.055457
0.844925 -0.361906 -0.179913
0.844925 0.082153 0.03593
0.844925 -0.16507 -0.090094
0.844925 -0.079008 -0.206705
0.859048 -0.046708 -0.240908
0.844925 -0.168467 0.034379
0.859048 0.228624 -0.051849
0.844925 -0.319526 0.115836
0.844925 0.314786 -0.134617
0.844925 0.345728 -0.27164
0.859048 0.389513 -0.263468
0.859048 0.093382 -0.025455
0.844925 0.026103 0.180835
0.859048 0.04599 0.083801
0.859048 0.175978 -0.069268
0.844925 -0.21109 0.207994
0.859048 -0.092935 -0.122262
0.859048 0.230569 0.115702
0.859048 0.213535 0.174408
0.844925 -0.173901 0.190391
0.844925 -0.243285 0.037923
0.844925 0.103829 -0.155023
0.844925 -0.113285 0.124645
0.844925 -0.151026 -0.051989
0.859048 0.355994 -0.030934
0.859048 0.039842 -0.239959
0.844925 -0.074883 -0.049438
0.844925 -0.234603 0.205408
0.859048 0.26784 0.213477
0.844925 0.001567 -0.009833
0.844925 -0.099406 0.023231
0.859048 0.138848 0.099592
0.844925 -0.024065 0.018381
0.859048 0.080792 -0.206359
0.844925 0.064643 -0.057143
0.844925 0.330755 0.058899
0.844925 -0.174283 -0.120722
0.844925 0.374223 -0.064779
0.844925 0.133029 -0.166274
0.859048 0.24301 0.176635
0.844925 -0.331931 0.08456
0.844925 -0.022897 -0.153522
0.859048 -0.192882 0.038658
0.844925 -0.225967 -0.151625
0.859048 0.222562 -0.076638
0.844925 -0.165653 -0.171996
0.844925 -0.051023 -0.060684
0.859048 0.378697 -0.142637
0.859048 -0.361818 0.181638
0.844925 0.105984 -0.207686
0.844925 -0.005761 -0.106676
0.859048 0.330476 0.163026
0.859048 0.212137 0.012666
0.844925 0.089011 0.158504
0.844925 0.108628 0.177218
0.859048 0.123426 0.047119
0.844925 0.261976 -0.122751
0.844925 0.029394 0.135364
0.844925 -0.359108 -0.148996
0.859048 0.041308 0.032954
0.859048 0.104023 0.085545
0.844925 0.144469 0.000779
0.844925 -0.055097 0.051491
0.844925 0.330005 -0.050798
0.859048 -0.291903 -0.104456
0.859048 0.082252 -0.158475
0.859048 -0.059208 0.092479
0.859048 -0.024291 -0.200368
0.844925 0.207705 -0.15466
0.844925 -0.347908 -0.199023
0.859048 0.340519 -0.216196
0.844925 -0.039028 -0.18975
0.859048 0.08227 -0.180896
0.859048 -0.18804 -0.212176
0.847199 0.466945 -0.066699
0.859048 -0.229005 -0.031427
0.859048 0.149601 0.209626
0.859048 0.409132 -0.146583
0.859048 0.183615 0.003947
0.844925 0.021455 0.067504
0.844925 -0.160421 0.138719
0.859048 -0.112089 0.084056
0.859048 0.346211 -0.12124
0.859048 0.45221 0.150578
0.844925 0.156629 0.142084
0.844925 0.335162 0.021635
0.844925 -0.347139 0.173744
0.859048 0.27074 -0.209977
0.844925 0.32384 -0.094252
0.859048 0.449316 -0.248631
0.859048 0.285239 0.114312
0.859048 0.039734 -0.095674
0.859048 0.298366 -0.251587
0.859048 0.272719 0.092665
0.859048 -0.3358 0.117848
0.859048 -0.070112 0.185347
0.844925 -0.092787 -0.139444
0.844925 0.116152 -0.179699
0.859048 -0.233808 0.126854
0.859048 -0.278426 0.193055
0.859048 -0.010954 0.029766
0.859048 0.164904 -0.087779
0.859048 -0.050737 -0.268341
0.844925 -0.379873 -0.196792
0.844925 -0.331937 -0.005045
0.844925 -0.157824 -0.263443
0.859048 0.102817 -0.068322
0.844925 -0.365265 -0.046484
0.844925 -0.116915 -0.194351
0.844925 -0.129374 0.024326
0.859048 0.418165 -0.095673
0.859048 -0.307265 0.013761
0.844925 0.330554 -0.203703
0.844925 0.177543 0.06595
0.844925 -0.04239 -0.019004
0.844925 -0.270469 0.150248
0.844925 0.091083 0.109639
0.844925 0.402907 0.095251
0.859048 0.24112 -0.121205
0.859048 0.261316 -0.138884
0.844925 -0.024811 0.095406
0.844925 0.218545 0.132495
0.859048 0.213192 0.075216
0.844925 -0.103004 -0.05871
0.844925 0.267752 0.130426
0.844925 0.144191 -0.148615
0.844925 0.263856 -0.225738
0.859048 0.179928 -0.12878
0.859048 -0.221749 0.163353
0.844925 -0.376541 0.115294
0.859048 0.013066 -0.041584
0.859048 -0.324166 0.188747
0.859048 0.410383 0.192292
0.859048 -0.124171 -0.097625
0.844925 -0.170749 0.159722
0.859048 -0.099329 0.003072
0.859048 0.419965 -0.036627
0.859048 0.387889 -0.01929
0.859048 0.197387 -0.216923
0.859048 0.44839 0.189457
0.859048 -0.262236 -0.164852
0.859048 -0.00423 -0.154638
0.844925 -0.126265 -0.264143
0.844925 -0.146731 -0.023392
0.844925 -0.175205 -0.007764
0.844925 -0.242609 -0.206777
0.844925 -0.176587 -0.154581
0.844925 -0.264012 0.203729
0.844925 0.017546 -0.249423
0.844925 0.42386 0.173419
0.859048 0.13232 -0.015927
0.859048 -0.271245 -0.041679
0.844925 0.432762 0.009665
0.844925 -0.065831 0.016862
0.859048 -0.002109 -0.188998
0.844925 -0.073613 0.133808
0.859048 0.267343 0.065108
0.844925 -0.058035 -0.090489
0.859048 0.102829 -0.114006
0.844925 -0.216983 0.14469
0.844925 0.242307 -0.039907
0.844925 0.252403 -0.17256
0.859048 -0.189937 -0.253515
0.859048 0.205901 -0.191913
0.844925 0.216647 -0.22457
0.844925 0.413417 -0.066049
0.859048 -0.217127 0.108253
0.844925 0.349974 0.048947
0.844925 0.114296 0.018353
0.859048 -0.16141 -0.103864
0.844925 0.447628 -0.23181
0.859048 0.299667 -0.115052
0.844925 0.151795 -0.245739
0.859048 0.225845 0.205003
0.859048 -0.250426 0.097618
0.844925 0.249662 0.009415
0.859048 0.210272 0.106893
0.844925 0.178509 0.177096
0.859048 0.279036 -0.08866
0.844925 0.305176 -0.014367
0.859048 0.301458 0.167652
0.844925 0.440979 -0.206642
0.844925 0.416088 0.040852
0.844925 -0.072682 -0.143497
0.859048 -0.192435 0.004162
0.844925 -0.322706 -0.057433
0.844925 0.049485 -0.026636
0.859048 0.209378 0.048568
0.844925 -0.247946 0.172058
0.859048 0.411268 -0.250596
0.844925 -0.128275 0.111695
0.859048 -0.347474 0.134237
0.859048 0.023528 -0.264563
0.844925 -0.309034 0.139638
0.844925 0.337402 0.078328
0.844925 0.245561 0.035972
0.859048 0.455488 -0.112975
0.844925 0.317986 -0.261963
0.844925 0.066659 -0.128631
0.859048 -0.378119 -0.123388
0.859048 -0.084599 -0.240419
0.844925 -0.266348 -0.131572
0.859048 -0.356169 -0.056628
0.859048 0.428968 0.045259
0.844925 -0.020969 -0.24232
0.844925 0.268619 -0.153401
0.859048 -0.235635 0.070367
0.844925 -0.085151 -0.010387
0.859048 0.065981 -0.101185
0.844925 0.458503 0.018779
0.844925 0.21786 0.191871
0.844925 0.067274 -0.172276
0.844925 0.058823 0.10949
0.844925 0.088459 0.059337
0.844925 0.349852 -0.063408
0.844925 0.092343 -0.244308
0.859048 0.020632 0.095259
0.844925 -0.131595 -0.14198
0.844925 -0.289439 0.209526
0.859048 -0.278959 -0.250163
0.844925 -0.030106 0.18743
0.859048 0.251616 -0.071688
0.844925 -0.06166 -0.002062
0.844925 0.13787 0.085132
0.844925 0.379872 -0.247096
0.859048 0.105233 -0.270216
0.859048 -0.304554 0.118471
0.859048 0.453421 -0.214761
0.844925 0.382778 0.034383
0.859048 0.130326 0.159552
0.844925 0.136875 -0.26649
0.859048 -0.019642 -0.166247
0.844925 -0.265377 -0.109745
0.859048 0.335418 -0.088109
0.859048 -0.364465 0.09787
0.844925 0.4282 -0.2619
0.844925 -0.31933 0.161285
0.859048 -0.227354 -0.122342
0.844925 -0.377194 0.025281
0.859048 0.20931 -0.057183
0.844925 0.404459 -0.183994
0.844925 -0.374792 0.180947
0.844925 0.452778 0.103677
0.859048 0.27044 -0.256051
0.859048 0.429777 0.084188
0.859048 -0.14153 0.018169
0.859048 -0.14389 -0.00933
0.859048 -0.164428 -0.159227
0.859048 0.262081 0.188735
0.859048 0.068835 -0.045047
0.859048 -0.08363 -0.168474
0.844925 0.069565 -0.212564
0.844925 -0.193388 0.148516
0.844925 0.352447 -0.043182
0.859048 0.227506 0.158079
0.859048 -0.289188 0.062746
0.859048 -0.192174 0.057636
0.844925 0.091409 0.08687
0.844925 0.387681 0.081587
0.844925 -0.285639 0.11656
0.859048 0.244124 -0.092882
0.859048 -0.374015 0.141918
0.844925 -0.375979 -0.157624
0.844925 0.093335 0.016709
0.859048 -0.004929 0.123087
0.844925 -0.256692 -0.268126
0.844925 0.296885 -0.070867
0.859048 -0.058266 -0.077747
0.859048 0.413693 -0.204335
0.859048 0.188569 -0.25658
0.844925 0.195681 -0.024325
0.859048 -0.170076 -0.206463
0.859048 -0.324126 0.09427
0.859048 0.077246 0.119039
0.844925 -0.095276 -0.088159
0.844925 0.149988 0.183372
0.844925 0.233174 0.088184
0.844925 -0.344196 0.150377
0.844925 -0.298951 -0.032234
0.844925 0.465671 -0.104057
0.859048 -0.298053 -0.256899
0.859048 0.427057 -0.161816
0.859048 0.377899 -0.042775
0.844925 -0.352216 0.064712
0.844925 0.292172 0.034854
0.844925 0.433229 -0.175588
0.844925 -0.140013 0.044079
0.859048 0.379064 -0.161265
0.859048 0.108279 0.057945
0.859048 0.056915 0.163309
0.859048 -0.116795 -0.171161
0.844925 0.152692 0.107976
0.844925 -0.329244 -0.079794
0.844925 -0.145954 -0.249136
0.859048 -0.240465 -0.239339
0.859048 0.327219 0.186527
0.859048 0.016668 0.037031
0.859048 -0.206101 -0.151428
0.844925 0.358978 -0.000319
0.844925 0.040665 -0.151525
0.859048 0.036901 0.015
0.844925 0.290803 -0.123028
0.844925 0.010311 0.087395
0.844925 0.194745 0.037465
0.859048 0.127798 0.135707
0.844925 -0.376302 0.000511
0.844925 0.287125 0.057979
0.844925 -0.123845 -0.036524
0.844925 0.21608 -0.024793
0.844925 -0.171607 -0.237689
0.844925 -0.36471 -0.220548
0.844925 -0.258392 -0.217957
0.859048 -0.050628 0.132779
0.859048 0.166157 -0.220562
0.844925 0.24436 -0.021677
0.859048 0.326056 -0.026548
0.844925 0.26354 -0.055743
0.859048 -0.117304 -0.208904
0.859048 -0.203147 -0.17568
0.844925 0.093085 -0.10697
0.859048 -0.28453 -0.229361
0.844925 -0.206024 -0.192091
