0.377325 -0.050867 0.0543
0.377325 0.384138 0.295765
0.402801 0.690318 0.000199
0.402801 0.526346 0.052058
0.402801 -0.602867 -0.179424
0.402801 -0.517888 0.20252
0.402801 -0.455772 0.040327
0.402801 -0.828226 -0.230126
0.377325 -0.035323 0.288743
0.377325 -0.498242 -0.284135
0.402801 0.401289 -0.144935
0.377325 -0.28452 0.190178
0.377325 -0.695451 -0.239672
0.377325 -0.388012 -0.339294
0.402715 0.57084 -0.418627
0.402801 0.017008 -0.270929
0.377325 -0.391895 -0.074907
0.377325 0.463377 -0.063865
0.377325 -0.633074 -0.124596
0.402801 0.040545 -0.164601
0.402801 -0.069209 0.237739
0.402801 0.592044 -0.297821
0.402801 -0.181348 -0.351599
0.377325 -0.660103 0.017846
0.377325 -0.049766 0.174921
0.402801 0.693587 0.164521
0.377325 -0.339768 -0.026468
0.402801 0.380256 0.007641
0.402801 -0.82217 -0.151291
0.402801 -0.572462 -0.073611
0.377325 -0.663688 0.317445
0.377325 -0.13 -0.046576
0.402801 -0.677569 0.098644
0.402801 0.555778 0.195103
0.402801 -0.338215 0.310873
0.377325 -0.573473 -0.006552
0.377325 -0.507549 -0.356552
0.402801 0.650662 0.32205
0.402801 0.603864 -0.14648
0.377325 -0.118479 -0.297298
0.402801 0.501155 0.353151
0.402801 0.351131 0.210215
0.402801 -0.835672 -0.066076
0.402801 -0.628659 0.196704
0.402801 -0.344616 -0.259681
0.402801 0.177752 -0.38636
0.377325 0.064563 0.239812
0.402801 -0.112891 -0.225978
0.377325 0.03313 0.036293
0.377325 -0.229739 0.039411
0.377325 0.092524 -0.289452
0.402801 -0.39402 0.253705
0.377325 0.469562 -0.338024
0.402801 0.297486 -0.10504
0.377325 0.455772 0.251201
0.402801 0.612867 -0.360543
0.377325 -0.76387 0.075794
0.377325 -0.491336 -0.102568
0.377325 -0.462631 0.260753
0.377325 -0.763454 -0.295428
0.402801 0.073679 -0.369033
0.402801 0.517149 -0.036377
0.402801 -0.649185 -0.351707
0.402801 0.240415 -0.289663
0.377325 0.002785 -0.064654
0.402801 0.132517 -0.013302
0.402801 -0.735644 0.137457
0.402801 0.278301 0.090594
0.377325 0.648444 0.200441
0.377325 -0.118322 0.199417
0.377325 -0.29063 -0.135213
0.377325 0.578761 0.283657
0.377325 -0.381349 -0.134982
0.402801 0.263024 0.348543
0.402801 -0.710606 -0.371521
0.402801 0.143632 -0.217757
0.398003 -0.780525 -0.418627
0.402801 -0.524654 -0.176216
0.402801 -0.331927 -0.40127
0.402801 0.102761 -0.166647
0.377325 0.2289 -0.041048
0.399135 0.510908 -0.418627
0.402801 0.514798 0.111379
0.377325 -0.228139 -0.245668
0.402801 -0.55099 0.121664
0.402801 -0.232584 0.359198
0.402801 -0.417465 -0.182283
0.402801 0.601441 0.062965
0.377325 -0.797634 0.264668
0.402801 0.400115 0.14491
0.402801 -0.050575 -0.253539
0.402801 -0.469338 0.158151
0.377325 0.015426 0.315132
0.377325 0.193129 0.082302
0.402801 0.126957 0.281524
0.402801 0.135 0.085252
0.402801 -0.412138 -0.294245
0.402801 0.523884 -0.107088
0.377325 -0.207641 -0.143317
0.377325 0.441983 -0.267801
0.402801 0.5763 -0.013063
0.402801 -0.640726 -0.296756
0.402801 -0.605452 0.297148
0.402801 0.645838 -0.042451
0.402801 -0.090389 -0.010943
0.402801 0.457891 0.078365
0.402801 -0.791476 0.337192
0.402801 0.35897 0.343896
0.402801 0.102261 0.033081
0.402801 0.665152 -0.242854
0.402801 0.341136 0.271546
0.381781 0.401389 -0.418627
0.402801 -0.148393 0.336847
0.402801 0.30521 -0.211178
0.377325 0.208007 -0.220803
0.402801 -0.209209 -0.401237
0.402801 0.020702 0.262309
0.402801 -0.698586 0.209795
0.377325 -0.241348 -0.027161
0.402801 -0.358244 0.016621
0.402801 0.000945 0.070285
0.377325 -0.622621 0.146504
0.377325 -0.431493 0.080128
0.38367 -0.844892 0.069496
0.377325 -0.447732 -0.056128
0.377325 -0.695308 -0.037528
0.402801 -0.428645 -0.382944
0.402801 -0.14787 -0.159609
0.402801 0.19857 0.010729
0.377325 -0.029492 -0.346603
0.402801 -0.266397 0.2321
0.402801 -0.540417 -0.31205
0.377325 0.406473 -0.052567
0.402801 0.502817 0.166458
0.402801 -0.699773 0.262402
0.402801 0.300056 0.012041
0.402801 -0.594845 0.244357
0.377325 0.123318 -0.057443
0.377325 -0.840897 -0.014797
0.402801 -0.18369 -0.054309
0.402801 0.662866 -0.372877
0.377325 0.662227 0.044627
0.377325 -0.059521 -0.121508
0.402801 -0.796672 0.177398
0.402801 0.349897 0.114686
0.377325 -0.702763 -0.133297
0.402801 -0.178053 0.252206
0.402801 -0.279763 -0.057187
0.402801 0.398523 -0.273488
0.402801 0.343176 -0.04076
0.377325 -0.534111 0.324181
0.377325 -0.512891 0.155662
0.402801 -0.813627 -0.373722
0.377325 -0.595817 0.03873
0.402801 -0.56731 -0.366222
0.402801 0.502483 -0.366229
0.402801 -0.709409 0.341613
0.402801 0.49685 0.290454
0.377325 -0.792821 -0.047857
0.402801 -0.295305 -0.214284
0.377325 -0.483012 -0.165792
0.402801 0.622742 -0.19252
0.402801 -0.427275 0.345164
0.377325 -0.641181 -0.199747
0.402801 0.651977 0.128573
0.402801 -0.098083 0.287737
0.402801 -0.102072 0.084558
0.377325 -0.061244 -0.049435
0.377325 0.169077 0.277088
0.402801 0.409445 0.344077
0.402801 -0.591555 -0.276421
0.402801 -0.248061 0.077093
0.402801 -0.505237 0.046939
0.377325 0.039284 0.106836
0.377325 -0.450142 0.308775
0.402801 0.565962 0.096197
0.402801 -0.840529 0.150306
0.377325 0.352894 -0.293478
0.402801 0.364534 -0.364206
0.400788 -0.721682 -0.418627
0.402801 0.012168 0.189172
0.392975 0.695711 -0.136591
0.377325 0.35905 0.170256
0.402801 -0.524532 -0.070664
0.402801 0.484112 -0.171783
0.377325 -0.59601 -0.417419
0.402801 -0.048777 -0.160377
0.402801 0.041836 -0.055182
0.401768 0.695711 -0.068195
0.402801 0.155255 0.236672
0.377325 0.40842 0.252174
0.402801 -0.014835 -0.410075
0.402801 0.489557 0.215448
0.402801 -0.440437 -0.245227
0.383597 -0.844892 0.254274
0.377325 -0.271817 0.327837
0.402801 0.367704 0.06808
0.377325 0.4511 0.18722
0.402801 0.195311 -0.308909
0.402801 -0.056563 0.095559
0.377325 -0.18305 0.037604
0.402801 -0.385208 0.152879
0.402801 0.163931 0.157139
0.377325 -0.142958 0.072149
0.377325 0.099751 0.324651
0.377325 0.429467 0.021774
0.377325 -0.156587 0.123891
0.377325 0.486255 0.035769
0.377325 -0.724397 0.099937
0.402801 0.227943 -0.175372
0.402801 -0.375841 -0.039821
0.402801 0.548347 -0.283232
0.402801 -0.157417 -0.250977
0.377325 -0.671608 -0.382595
0.377325 0.0307 -0.016541
0.402801 0.443589 -0.305885
0.402526 0.695711 0.330487
0.377325 -0.407023 0.031846
0.402801 -0.613864 0.005387
0.402801 -0.367578 0.345711
0.402801 -0.204082 0.175356
0.377325 -0.20594 0.125858
0.402801 -0.498846 -0.243155
0.377325 0.037628 -0.201858
0.402801 -0.59167 -0.135654
0.377325 -0.105978 -0.115214
0.402801 0.397672 -0.190217
0.377325 0.17806 -0.096884
0.377325 -0.807339 0.218109
0.382997 -0.106014 -0.418627
0.402801 -0.093182 -0.268034
0.377325 0.075893 -0.14117
0.377325 0.314156 0.210002
0.402801 0.215085 0.329536
0.402801 0.274988 0.305429
0.402801 -0.283751 0.1334
0.402801 -0.291236 -0.382765
0.377325 -0.672981 -0.279222
0.377325 -0.748337 0.02156
0.402801 0.070724 0.198463
0.402801 0.243846 -0.001165
0.377325 -0.356446 0.120347
0.402801 0.537881 0.00909
0.377325 0.41232 -0.373664
0.402801 -0.2327 0.303035
0.377325 0.168471 -0.017878
0.402801 -0.297955 0.285544
0.402801 -0.699774 0.005187
0.402801 0.12849 -0.286452
0.402801 -0.375937 -0.211114
0.402801 0.036227 0.34453
0.377325 0.330742 -0.090368
0.402801 -0.145443 -0.32104
0.402801 0.311703 -0.271923
0.402801 -0.233073 -0.115892
0.377325 -0.550894 0.216468
0.377325 -0.061616 -0.219625
0.402801 0.077705 0.150487
0.377325 -0.147947 0.011455
0.402801 0.425521 -0.108553
0.377325 -0.202644 -0.188242
0.402801 -0.786687 -0.331407
0.377325 -0.739985 -0.066259
0.377325 -0.01521 -0.174906
0.402801 0.225292 0.240467
0.377325 -0.358866 0.255325
0.402801 -0.585186 -0.225045
0.402801 -0.513991 -0.391066
0.402801 0.415944 0.10001
0.402801 -0.722046 -0.262482
0.377325 -0.161644 0.198219
0.380129 0.695711 0.205065
0.402801 -0.783898 -0.01405
0.402801 -0.65931 0.142658
0.377325 -0.578464 0.099109
0.402801 -0.08215 -0.378936
0.402801 0.552414 0.32603
0.402801 -0.781437 0.04163
0.402801 0.131124 -0.382615
0.402801 -0.153275 0.294153
0.402801 0.502863 -0.323373
0.377325 -0.619573 -0.084015
0.402801 -0.550465 0.018919
0.377325 0.632315 -0.394903
0.377325 -0.359052 0.17498
0.377325 -0.24025 0.193434
0.377325 -0.786709 -0.119906
0.377325 -0.28967 -0.2479
0.402801 -0.63745 0.0511
0.402801 -0.318565 0.108497
0.377325 -0.726335 -0.329283
0.402801 -0.337988 -0.131284
0.402801 0.345771 -0.200153
0.402801 -0.734443 -0.200658
0.377325 -0.355906 -0.378098
0.402801 -0.557365 0.300367
0.377325 -0.695439 -0.196541
0.402801 -0.678178 -0.418433
0.402801 0.5616 0.151478
0.377325 -0.393974 0.100386
0.377325 -0.065072 0.010324
0.377325 0.238958 0.09848
0.377325 -0.723106 0.184734
0.402801 -0.077287 0.156818
0.377325 0.413206 -0.237884
0.377325 0.430733 -0.159194
0.402801 -0.000569 0.011238
0.377325 -0.791711 -0.236822
0.402801 0.102975 -0.242914
0.377325 0.100237 -0.017562
0.377325 0.049343 -0.267308
0.377325 -0.140379 -0.208661
0.402801 -0.785788 0.294906
0.402801 -0.001747 -0.370981
0.377325 -0.469111 0.191836
0.377325 -0.254104 -0.304868
0.377325 -0.516791 0.286856
0.377325 0.010493 -0.2329
0.377325 0.382225 0.218619
0.402801 0.132492 -0.088195
0.402801 0.193254 -0.131534
0.377325 0.552542 -0.123177
0.377325 -0.403666 0.223194
0.377325 -0.180201 0.351849
0.377325 0.611566 -0.111643
0.402801 -0.068022 0.323102
0.402801 -0.584914 0.199296
0.402801 0.229495 -0.24434
0.377325 -0.474915 -0.383698
0.402801 0.117152 0.169305
0.402801 -0.422347 -0.083792
0.377325 -0.250678 -0.21183
0.377325 0.312234 0.358096
0.402801 -0.362349 -0.092965
0.402801 0.181994 0.305863
0.402801 -0.248087 -0.376839
0.377325 -0.561682 -0.266908
0.402801 -0.666561 -0.131929
0.402801 -0.143624 -0.36588
0.402801 -0.452363 -0.291445
0.377325 -0.677937 0.233149
0.402801 -0.209947 -0.32329
0.402801 -0.519514 -0.122075
0.377325 0.490565 0.320918
0.377325 0.607417 -0.263756
0.377325 -0.129039 0.160722
0.377325 0.655597 0.291453
0.377325 0.304565 0.107044
0.377325 0.148243 -0.157937
0.377325 -0.291743 -0.085689
0.402801 0.377628 0.24956
0.377325 -0.090601 -0.326513
0.377325 -0.8253 -0.260867
0.402801 -0.253706 0.001117
0.402801 -0.44608 -0.001105
0.377325 -0.488152 -0.062863
0.377325 -0.81429 -0.087987
0.377325 -0.636114 0.288715
0.377325 -0.621162 0.355158
0.402801 -0.024338 -0.049772
0.39582 0.083572 0.362641
0.377325 -0.70402 0.308914
0.402801 0.425592 -0.008456
0.377325 0.620344 0.320587
0.377325 0.125567 0.242707
0.402801 -0.605918 -0.346458
0.377325 -0.800464 -0.172541
0.377325 0.472787 -0.401002
0.377325 -0.005191 0.164769
0.402801 -0.647787 -0.234042
0.377325 0.141791 0.19959
0.402801 -0.489308 0.247506
0.402801 -0.757888 0.105204
0.377325 -0.144233 -0.09428
0.402801 0.076494 -0.20028
0.377325 -0.491578 0.020634
0.377325 0.430527 -0.338209
0.377325 -0.686913 -0.340525
0.377325 0.24213 -0.20191
0.377325 0.106976 -0.365728
0.377325 0.372915 -0.03286
0.377325 0.585479 -0.171062
0.402801 -0.755948 0.170615
0.377325 -0.553915 -0.050974
0.389024 0.161197 -0.418627
0.402801 -0.298049 0.049118
0.377325 0.107646 0.106066
0.402801 0.427257 0.27439
0.402801 -0.106458 0.248152
0.402801 -0.717486 -0.162642
0.377325 -0.764678 0.137402
0.377325 0.165447 0.121986
0.402801 -0.203339 -0.087528
0.377325 -0.105325 0.014517
0.402801 0.252551 0.270972
0.377325 0.583714 -0.325049
0.377325 -0.469592 0.081528
0.377325 -0.394312 0.355022
0.402801 -0.674032 -0.056481
0.377325 -0.26198 0.159409
0.377325 -0.191034 -0.253267
0.377325 -0.354169 -0.066186
0.402801 -0.83318 -0.34132
0.377325 -0.725372 -0.102998
0.377325 -0.026692 0.021116
0.377325 -0.073714 -0.288078
0.377325 -0.034369 -0.299497
0.377325 -0.292911 -0.026733
0.377325 0.504372 0.13704
0.402801 -0.392003 -0.001995
0.377325 0.233791 -0.083572
0.377325 -0.439414 -0.19887
0.377325 0.673324 -0.041812
0.402801 0.191177 -0.346634
0.377325 -0.288553 -0.187745
0.377325 0.39643 -0.118005
0.377325 -0.760396 -0.209308
0.402801 0.569265 0.2577
0.377325 0.310773 -0.014269
0.377325 -0.382215 -0.29201
0.402801 0.01288 -0.093806
0.402801 0.2759 0.180366
0.402801 0.639664 -0.156746
0.402801 -0.491103 -0.332481
0.377325 0.082743 0.051934
0.402801 0.245121 0.208979
0.377325 -0.517627 0.09489
0.377325 -0.543995 -0.089305
0.402801 0.327711 -0.368544
0.377325 -0.296468 -0.409165
0.402801 0.336109 0.020362
0.392275 0.695711 -0.215389
0.377325 -0.748954 0.238626
0.402801 -0.723323 -0.036955
0.402801 -0.133538 -0.020026
0.402801 -0.209763 0.073908
0.402801 0.273404 -0.35282
0.377325 -0.424861 -0.145494
0.377325 -0.815461 0.348611
0.402801 -0.374865 0.28508
0.402801 -0.31071 0.186217
0.402801 -0.294477 -0.305197
0.377325 -0.210127 -0.054962
0.402801 -0.010506 0.310047
0.402801 0.629806 0.158896
0.377325 -0.262091 0.118389
0.377325 0.644436 -0.073605
0.402801 0.38295 -0.240183
0.377325 0.423387 0.31963
0.402801 0.206631 -0.087511
0.402801 0.278122 -0.303295
0.377325 0.54244 0.08479
0.395305 -0.427401 -0.418627
0.377325 0.141004 -0.309341
0.377325 0.407619 -0.297927
0.377325 0.118453 -0.211085
0.402801 0.368764 -0.161273
0.402801 -0.216585 0.240566
0.377325 0.169011 -0.232123
0.377325 0.37848 0.093417
0.402801 -0.558997 -0.188003
0.377325 0.070389 -0.415537
0.377325 -0.198546 0.267982
0.402801 -0.017609 0.142088
0.377325 -0.752699 -0.139092
0.377325 0.164351 -0.362166
0.377325 0.210836 0.165037
0.377325 0.431034 0.131808
0.377325 0.056072 -0.350382
0.377325 -0.241823 -0.155086
0.402801 0.657651 0.069859
0.402801 -0.821416 -0.032866
0.377325 0.090134 0.286071
0.402801 0.657768 0.224249
0.402801 -0.78724 0.233879
0.402801 -0.375313 -0.361599
0.377325 -0.625317 0.245708
0.402801 -0.065638 -0.192171
0.402801 0.17971 0.048048
0.402801 0.423952 0.171844
0.377325 0.266532 -0.41679
0.377325 -0.73386 -0.237241
0.402801 -0.20593 -0.221898
0.402801 -0.439979 0.249527
0.377325 -0.371717 -0.18258
0.402801 0.610675 -0.035395
0.377325 0.052135 0.073368
0.402801 -0.754083 -0.38183
0.402801 -0.767714 -0.049402
0.402801 -0.680765 0.05592
0.377325 0.619003 0.284621
0.377325 0.321544 -0.230166
0.377325 0.357821 0.032844
0.402801 -0.338581 -0.208716
0.402801 0.582792 0.032522
0.402801 0.577441 -0.120899
0.377325 -0.485345 -0.020754
0.377325 0.119981 0.012086
0.377325 -0.289017 -0.344396
0.377325 0.313679 -0.123805
0.402801 -0.418568 0.103097
0.377325 0.676848 0.118722
0.377325 -0.662792 0.118307
0.402801 -0.827062 0.101686
0.377325 -0.769791 0.325703
0.402801 0.075798 -0.265449
0.402801 0.207055 0.208823
0.377325 -0.593313 -0.038118
0.377325 0.047324 -0.30733
0.377325 0.007238 -0.138482
0.377325 -0.579215 -0.173742
0.402801 0.043455 -0.120811
0.402801 -0.427646 -0.034637
0.402801 0.483421 -0.077377
0.377325 -0.128603 -0.174188
0.402801 -0.025797 0.047539
0.377325 -0.840352 -0.383608
0.402801 0.54296 -0.240427
0.402801 -0.317429 -0.014973
0.402801 0.265875 -0.198088
0.402801 -0.223987 -0.177207
0.377325 0.541683 -0.050879
0.402801 0.456267 0.226002
0.377325 -0.153788 -0.294861
0.377325 -0.0586 -0.384533
0.377325 -0.260769 -0.117209
0.402801 0.205843 -0.023368
0.402801 -0.07659 -0.138031
0.377325 -0.08864 0.064977
0.402801 -0.232669 -0.268967
0.377325 0.6016 -0.07598
0.395316 0.222643 0.362641
0.377325 -0.652235 0.16755
0.377325 -0.698107 0.030542
0.402801 0.585724 0.316569
0.377325 -0.773406 0.201245
0.402801 0.460535 0.03851
0.402801 -0.064795 0.20349
0.402801 -0.746135 -0.341536
0.377325 -0.482509 0.290583
0.402801 -0.578766 0.14208
0.402801 0.477767 0.258516
0.402801 0.317301 -0.41069
0.402801 -0.643249 0.101195
0.377325 -0.029719 -0.243612
0.377325 -0.649408 0.206833
0.377325 0.632819 -0.023392
0.377325 0.266624 0.002353
0.377325 0.017159 -0.384159
0.377325 -0.090415 0.219435
0.377325 -0.609299 -0.385542
0.377325 -0.518274 -0.413653
0.402801 0.438909 -0.245029
0.402801 -0.407841 0.294763
0.402801 -0.414241 0.065019
0.377325 -0.477508 0.1368
0.402801 -0.815898 0.06935
0.377325 -0.712992 -0.296516
0.377325 -0.162553 -0.177716
0.377325 0.527222 0.318683
0.402801 0.311144 0.2553
0.402801 -0.781893 -0.186968
0.402801 -0.121754 -0.096784
0.377325 -0.612906 0.212932
0.377325 -0.180854 -0.089292
0.402801 -0.252664 -0.234259
0.377325 -0.800949 0.000573
0.377325 0.18273 0.241531
0.377325 -0.480022 -0.255348
0.377325 -0.419883 -0.327625
0.377325 -0.524045 -0.262121
0.402801 -0.595259 -0.098722
0.402801 0.668469 0.190468
0.377325 -0.541431 -0.355681
0.402801 0.68791 -0.267935
0.377325 -0.067032 0.137033
0.402801 0.484965 -0.24192
0.377325 -0.611182 0.107674
0.377325 0.344703 0.092055
0.377325 0.098206 -0.322774
0.402801 -0.541988 -0.032237
0.377325 -0.73072 0.33542
0.402801 -0.730109 0.076908
0.377325 -0.356866 0.038644
0.377325 0.117169 0.0723
0.377325 0.547842 -0.087819
0.377325 -0.609544 0.318759
0.377325 -0.457717 -0.101456
0.377325 -0.018509 -0.028598
0.377325 -0.528195 0.241249
0.377325 -0.527486 -0.153624
0.402801 0.322407 0.338731
0.377325 -0.098947 -0.209128
0.377325 -0.620337 -0.289164
0.377325 0.464127 -0.298778
0.402801 0.380719 -0.393518
0.402801 0.020361 0.117498
0.402801 -0.257232 -0.326308
0.377325 0.657092 -0.169602
0.377325 -0.664939 0.270461
0.377325 0.441671 -0.094349
0.377325 0.435339 -0.035937
0.402801 -0.434873 0.175756
0.377325 -0.355246 0.293526
0.402801 -0.317327 -0.240744
0.377325 -0.245193 0.234026
0.377325 -0.409511 -0.116073
0.402801 0.484905 -0.044186
0.402801 -0.177947 -0.143056
0.398864 -0.120142 0.362641
0.402801 -0.648119 -0.031377
0.377325 -0.625629 -0.339045
0.402801 0.111146 0.126824
0.377325 -0.482985 0.334414
0.402801 0.535829 -0.397272
0.402801 0.004622 -0.323763
0.402801 -0.170837 -0.022881
0.377325 0.666394 -0.217768
0.377325 0.403555 0.165582
0.377325 -0.239715 0.335361
0.402801 0.129546 -0.147447
0.402801 0.42595 0.042345
0.402801 -0.167191 0.051092
0.377325 -0.162739 0.231096
0.377325 -0.402464 -0.378897
0.402801 -0.111343 -0.327383
0.402801 -0.47918 -0.145418
0.377325 0.220113 -0.278057
0.377325 -0.737389 0.052489
0.402801 -0.460273 -0.365003
0.402801 -0.386238 0.119547
0.379117 -0.52942 0.362641
0.402801 -0.177646 0.135495
0.377325 0.306209 0.031684
0.377325 0.367438 -0.322815
0.377325 0.074865 -0.179783
0.402801 -0.719874 0.29141
0.397119 0.627402 0.362641
0.377325 -0.79944 -0.315302
0.377325 -0.165761 -0.232214
0.377325 -0.639665 -0.369876
0.402801 -0.143599 0.207944
0.377325 -0.761644 -0.328243
0.377325 -0.804763 -0.411515
0.402801 -0.296069 -0.11555
0.377325 0.517786 -0.135524
0.377325 -0.146788 0.362057
0.402801 -0.222718 0.020341
0.402801 -0.689574 -0.261627
0.377325 -0.542361 0.174318
0.402801 0.032172 0.079209
0.377325 -0.708201 -0.072914
0.402801 -0.793367 0.092663
0.402801 -0.029842 0.172104
0.377325 -0.270788 -0.385131
0.402801 -0.635722 -0.144429
0.377325 -0.538926 -0.219433
0.377325 -0.455404 -0.133757
0.402801 0.623936 -0.2924
0.377325 0.334979 -0.183442
0.402801 0.67495 0.276145
0.377325 0.410335 -0.205546
0.377325 -0.671484 -0.151191
0.402801 0.588929 -0.19059
0.402801 -0.4033 -0.263203
0.377325 -0.195572 -0.336924
0.377325 -0.663784 0.084429
0.402801 -0.520795 -0.208248
0.402801 0.184756 -0.247481
0.377325 -0.222431 0.153544
0.377325 -0.53078 0.018214
0.402801 -0.273086 -0.091981
0.377325 -0.275292 0.249596
0.402801 0.274984 -0.076483
0.377325 0.22429 -0.142178
0.402801 0.019673 0.220342
0.402801 -0.548074 0.07301
0.402801 0.230672 -0.06442
0.402801 0.659391 0.008511
0.402801 0.294359 0.123514
0.377325 0.20318 0.266124
0.402801 0.00126 -0.164861
0.377325 -0.517891 -0.051318
0.402801 -0.135973 0.090016
0.377325 0.469241 0.297237
0.377325 -0.3949 -0.038246
0.377325 -0.109875 -0.071237
0.377325 0.557958 -0.023539
0.377325 0.466881 -0.247931
0.402801 0.655387 -0.128204
0.402801 -0.074064 0.027062
0.377325 0.234532 0.321165
0.402801 -0.18252 -0.270407
0.377325 0.553089 -0.317004
0.377325 0.446266 0.093118
0.402801 -0.584764 0.0539
0.402801 -0.554488 -0.156691
0.377325 -0.087017 0.172851
0.402801 -0.340274 0.361627
0.402801 0.158095 -0.319014
0.377325 -0.359185 0.329049
0.377325 -0.027334 -0.113443
0.377325 0.519219 -0.358149
0.377325 -0.313073 0.138924
0.377325 0.170891 -0.299646
0.377325 -0.401134 0.270664
0.402801 0.517685 -0.268559
0.377325 -0.584985 -0.204577
0.377325 -0.741737 0.159148
0.402801 -0.115334 -0.16166
0.377325 0.580678 0.004636
0.402801 -0.728864 -0.305417
0.402801 -0.546417 0.348321
0.377325 -0.016723 0.194885
0.377325 0.06069 0.02151
0.377325 -0.586741 0.260543
0.402801 0.242086 0.142553
0.377325 -0.050674 0.328061
0.377325 -0.450702 0.344771
0.402801 -0.486958 0.19008
0.402801 -0.023449 -0.093833
0.377325 -0.582031 0.217357
0.377325 0.201339 -0.190403
0.377325 0.14912 -0.200745
0.402801 0.042645 -0.370221
0.377325 0.090514 0.222801
0.402801 0.064536 -0.076318
0.377325 0.01918 0.349183
0.402801 0.022379 -0.21077
0.377325 0.494074 -0.306778
0.402801 0.116471 0.330286
0.402801 0.45561 -0.348804
0.402801 0.327128 0.091184
0.377325 0.100239 -0.122094
0.402801 0.36748 0.287748
0.377325 -0.572642 0.291798
0.402801 -0.233168 0.272137
0.402801 -0.64863 0.30868
0.402801 -0.331352 -0.360732
0.402801 -0.215192 -0.038416
0.377325 0.442602 -0.222771
0.402801 0.165694 -0.276024
0.402801 -0.273801 -0.153101
0.377325 0.324829 0.130213
0.377325 0.112888 0.186033
0.377325 -0.651108 -0.3105
0.402801 -0.491011 -0.365227
0.377325 -0.188483 -0.119303
0.402801 0.349631 -0.39108
0.402801 0.402714 -0.08341
0.402801 -0.385148 0.031262
0.402801 -0.636112 -0.266477
0.377325 -0.232538 0.084025
0.402801 -0.481738 -0.27226
0.402801 0.396184 -0.367086
0.402801 -0.189788 0.209724
0.402801 -0.527669 0.165894
0.377325 0.196049 0.131389
0.402801 -0.339284 0.043616
0.402801 -0.066177 -0.352911
0.377325 -0.196501 -0.412262
0.402801 0.422307 -0.058235
0.402801 -0.608133 0.344551
0.377325 0.615165 -0.158872
0.377325 -0.452979 -0.171085
0.402801 -0.41029 -0.341358
0.377325 0.118143 0.300334
0.402801 0.207365 -0.379115
0.402801 -0.267754 0.175121
0.377325 -0.241627 -0.415091
0.402801 -0.247889 -0.066498
0.402801 0.669551 -0.334341
0.402801 0.098162 -0.418271
0.402801 -0.834578 0.358736
0.402801 0.47458 -0.383185
0.377325 -0.004955 0.289489
0.377325 0.543379 0.119353
0.402801 -0.268888 0.264837
0.402801 -0.487849 -0.08641
0.402801 -0.801579 -0.127103
0.377325 -0.259703 0.026533
0.402801 -0.433893 0.141121
0.377325 0.550009 -0.15549
0.377325 0.207318 -0.104784
0.377325 0.682347 -0.36373
0.402801 -0.305477 0.078479
0.402801 -0.044739 -0.0721
0.402801 0.509084 0.318096
0.402801 0.371232 0.181005
0.377325 -0.689797 0.131776
0.377325 0.133723 0.347138
0.402801 -0.318749 0.240548
0.402801 -0.471427 0.278978
0.402801 0.278093 -0.011809
0.402801 -0.83321 -0.397944
0.402801 -0.020525 0.281689
0.377325 -0.452274 -0.234493
0.402801 0.052348 -0.218147
0.377325 0.367493 -0.097574
0.402801 -0.335008 -0.056768
0.402801 0.498216 0.025316
0.402801 -0.732658 -0.136737
0.402801 -0.615032 -0.22197
0.402801 -0.21112 -0.355211
0.402801 -0.46225 0.322264
0.402801 0.15478 -0.245588
0.402801 0.472958 0.16896
0.402801 0.040971 0.290518
0.377325 -0.401778 -0.183679
0.377325 -0.002667 -0.096258
0.377325 -0.456267 -0.34981
0.402801 -0.091475 0.353412
0.377325 -0.467928 -0.293295
0.402801 0.331688 0.310345
0.402801 0.531218 0.2223
0.402801 0.629182 -0.113979
0.402801 0.52651 0.287455
0.402801 -0.204271 0.044641
0.377325 -0.031415 -0.064381
0.402801 -0.027054 0.091679
0.402801 -0.181172 -0.31574
0.402801 0.071904 0.27108
0.377325 -0.588099 0.355934
0.402801 -0.60079 -0.317228
0.377325 -0.06419 -0.019917
0.402801 0.694017 0.06185
0.377325 -0.046818 0.115344
0.402801 0.107184 0.002083
0.402801 0.442632 -0.176144
0.402801 -0.064964 -0.106812
0.377325 -0.202496 0.059927
0.377325 -0.624449 0.058687
0.402801 0.145665 0.049844
0.392024 0.695711 -0.029334
0.377325 0.008021 -0.193161
0.402801 -0.109433 0.11402
0.402801 -0.626975 0.160782
0.402801 -0.396665 0.340352
0.377325 -0.618341 -0.150129
0.377325 -0.708708 0.220599
0.377325 -0.710795 0.06516
0.402801 -0.198239 0.111368
0.402801 -0.828207 0.186198
0.402801 -0.793092 0.013926
0.377325 -0.444386 -0.400172
0.402801 -0.073928 0.270966
0.402801 -0.348058 0.098101
0.377325 0.686679 0.234387
0.377325 0.04892 -0.067945
0.377325 -0.34565 -0.329575
0.377325 -0.041772 -0.147593
0.377325 0.071525 0.316605
0.377325 -0.587292 0.130293
0.402801 0.249053 0.32042
0.402801 0.470806 -0.316787
0.402801 0.04893 0.013062
0.402801 0.405409 0.293918
0.402801 -0.783059 -0.216234
0.402801 0.231246 -0.211411
0.38204 -0.844892 -0.28944
0.402801 -0.784529 -0.157702
0.377325 -0.127842 -0.325023
0.377325 -0.731716 -0.164814
0.377325 -0.676427 -0.084258
0.377325 -0.174228 0.160301
0.402801 0.356523 0.143161
0.377325 -0.090805 0.099933
0.402801 -0.534302 0.044227
0.377325 0.011364 0.140727
0.377325 -0.317571 -0.318518
0.402801 0.582577 -0.339167
0.377325 0.126854 -0.177717
0.399279 -0.263769 0.362641
0.402801 0.524114 -0.303471
0.402801 -0.404833 -0.21463
0.402801 -0.766516 0.273155
0.402801 0.149388 -0.126227
0.402801 -0.094921 0.052528
0.377325 0.166134 -0.135119
0.402801 -0.233269 -0.204661
0.377325 0.072681 0.165138
0.377325 0.451516 -0.001539
0.402801 -0.808054 -0.075772
0.377325 -0.657408 -0.01096
0.402801 0.616256 -0.253315
0.402801 0.455513 0.28053
0.377325 -0.428149 0.260354
0.402801 -0.528382 0.103261
0.377325 -0.501918 -0.312788
0.402801 0.59666 -0.405703
0.402801 -0.355441 -0.290611
0.402801 0.456896 -0.051144
0.402801 0.274401 -0.381958
0.377325 -0.037081 -0.204471
0.402801 0.426212 -0.350975
0.402801 0.349663 -0.100439
0.402801 -0.61238 -0.401422
0.396963 0.66727 -0.418627
0.377325 -0.453528 0.233521
0.398223 -0.844892 -0.259081
0.377325 -0.055705 -0.324572
0.402801 -0.148576 0.024599
0.377325 -0.155862 0.28134
0.377325 -0.127013 0.113137
0.402801 0.153073 -0.174928
0.377325 -0.416314 -0.262836
0.377325 -0.661288 -0.053836
0.377325 0.159589 -0.056503
0.393382 -0.844892 -0.09145
0.377325 0.657072 -0.350363
0.377325 0.435798 -0.398922
0.377325 0.294593 -0.411354
0.402801 -0.124258 0.272909
0.402801 0.294648 0.332109
0.377325 -0.726167 0.128767
0.402801 0.342961 0.170292
0.402801 0.452214 -0.087261
0.402801 -0.665239 0.233395
0.402801 0.433893 -0.277577
0.402801 0.109425 0.238029
0.377325 -0.159396 0.095601
0.377325 -0.083436 -0.361987
0.402801 -0.692965 -0.208901
0.377325 -0.448189 0.011316
0.377325 0.231438 -0.003299
0.377325 -0.601301 0.005465
0.377325 -0.6537 0.344036
0.402801 0.681543 0.130364
0.377325 -0.290074 -0.290858
0.377325 -0.771474 -0.160363
0.377325 -0.403869 0.073729
0.377325 -0.39597 0.159128
0.402801 -0.724459 0.019124
0.377325 -0.163601 -0.149411
0.402801 0.466635 -0.263477
0.402801 0.042622 -0.341931
0.377325 0.549934 0.052069
0.402801 -0.747821 -0.075647
0.402801 -0.819965 -0.203121
0.377325 0.012381 0.074441
0.377325 0.306005 -0.297128
0.377325 0.213181 0.343086
0.377325 0.59529 0.307681
0.402801 0.319616 -0.085782
0.402801 -0.775375 -0.262234
0.402801 0.603316 -0.064157
0.377325 -0.737738 0.264426
0.402801 -0.203138 -0.251287
0.378903 0.53938 -0.418627
0.377325 -0.324853 -0.161431
0.402801 -0.187329 -0.379009
0.377325 0.036876 -0.153456
0.377325 -0.190077 0.102734
0.397417 -0.844892 0.004326
0.377325 -0.162883 0.31171
0.402801 0.257561 -0.267511
0.402801 0.022499 -0.034922
0.402801 -0.285217 0.024229
0.377325 0.44134 0.294951
0.402801 -0.446031 0.097836
0.377325 -0.551905 -0.311669
0.402801 0.21986 0.172103
0.402801 0.08966 0.175712
0.402801 0.046944 0.15087
0.377325 -0.718619 -0.363501
0.402801 -0.649506 -0.192063
0.402801 -0.366614 -0.237374
0.377325 0.487019 -0.271554
0.377325 0.38313 0.054666
0.378954 0.695711 0.0185
0.402801 -0.525642 0.229227
0.402801 -0.368288 0.243182
0.402801 0.626016 0.334888
0.377325 0.60142 -0.346462
0.377325 -0.571759 -0.356066
0.377325 -0.732325 -0.390585
0.377325 0.082045 -0.256327
0.377325 -0.19894 -0.36448
0.402801 -0.712106 0.18534
0.402801 0.507242 0.24231
0.377325 -0.176202 -0.046318
0.402801 0.364431 -0.312321
0.402801 -0.4879 0.133531
0.402801 0.328056 -0.017545
0.377325 -0.367453 0.148598
0.402801 0.409296 0.241393
0.402801 -0.380429 -0.331612
0.402801 -0.416581 0.234763
0.402801 -0.181469 0.002659
0.402801 -0.210182 -0.285072
0.402801 -0.441868 0.06471
0.377325 -0.491126 0.20852
0.402801 0.578548 -0.27168
0.377325 -0.110629 -0.142423
0.377325 -0.561707 0.323799
0.402801 -0.564819 0.262611
0.402801 0.169241 -0.007365
0.402801 0.498349 -0.117427
0.377325 -0.439355 -0.029888
0.402801 -0.790991 -0.393631
0.402801 0.253291 -0.230536
0.377325 -0.051131 -0.2724
0.377325 -0.377237 0.06701
0.402801 -0.301272 -0.142515
0.377325 0.318875 -0.065624
0.377325 -0.592535 -0.232109
0.377325 -0.304063 0.113008
0.402801 -0.104456 0.153105
0.402801 0.450987 0.197356
0.377325 -0.060043 -0.183726
0.402801 -0.010287 -0.268391
0.402801 0.565584 -0.391726
0.402801 -0.659103 -0.326168
0.377325 0.56791 0.143678
0.377325 0.047423 0.218502
0.377325 -0.433276 0.202572
0.377325 -0.221889 -0.101995
0.402801 -0.476095 -0.172901
0.402801 -0.562373 -0.130519
0.402801 0.622559 -0.396415
0.377325 -0.299721 0.033278
0.402801 -0.810691 -0.279557
0.402801 0.518492 -0.080328
0.402801 0.316941 -0.134437
0.402801 -0.681818 0.126132
0.377325 -0.161306 -0.121682
0.377325 -0.667115 -0.191495
0.398213 0.695711 0.303658
0.377325 -0.42763 -0.075983
0.402801 -0.404364 -0.108189
0.402801 -0.800423 0.210142
0.402801 0.548718 -0.044662
0.377325 0.506384 0.107253
0.377325 0.543691 0.016784
0.402219 0.01237 -0.418627
0.402801 -0.39422 -0.383158
0.377325 -0.378099 0.214175
0.391477 -0.72223 0.362641
0.377325 0.650948 0.230493
0.377325 0.570799 0.354279
0.402801 0.075785 0.057883
0.402801 -0.558627 0.205761
0.402801 -0.033728 0.120339
0.402801 -0.563547 -0.393027
0.377325 -0.773587 0.046165
0.377325 -0.393763 0.006883
0.402801 -0.32341 0.338546
0.377325 -0.076102 -0.081963
0.402801 0.071031 -0.035982
0.377325 0.204139 -0.307222
0.402801 -0.659357 0.173019
0.377325 -0.441806 -0.286432
0.402801 -0.558442 -0.332128
0.377325 -0.511931 -0.126671
0.402801 0.533704 0.083388
0.377325 0.187624 0.296662
0.377325 0.134585 0.105421
0.377325 0.670066 0.092667
0.377325 0.157118 0.162549
0.377325 0.411971 0.107724
0.402801 0.619297 0.115733
0.402801 -0.20402 0.140811
0.377325 -0.590261 -0.284931
0.377325 0.48533 -0.093551
0.377325 0.33673 0.155265
0.402801 0.31964 -0.053733
0.377325 -0.813168 0.025055
0.402801 0.183856 0.139118
0.402801 0.293599 0.204885
0.377325 0.222285 0.288835
0.402801 -0.658774 0.00958
0.377325 -0.322374 -0.075901
0.402801 -0.266806 -0.211513
0.377325 -0.655457 -0.231053
0.402801 -0.03751 -0.395848
0.377325 0.582176 0.056768
0.377325 -0.235332 0.2953
0.402801 0.495668 -0.019701
0.402801 0.388291 -0.118337
0.402801 -0.083663 -0.16381
0.377325 0.187692 -0.339333
0.402801 -0.039562 0.300352
0.377325 0.028527 0.262016
0.402801 0.690026 -0.388572
0.377325 -0.34387 -0.191485
0.377325 0.676552 0.317894
0.377325 -0.525599 0.208095
0.402801 0.156945 -0.350447
0.377325 0.379099 0.015296
0.377325 -0.686528 0.006607
0.377325 -0.250699 0.064623
0.402801 -0.628661 0.275112
0.402801 0.662683 -0.276248
0.402801 0.181927 0.234088
0.377325 -0.491229 0.240272
0.402801 -0.099465 -0.035894
0.402801 0.016066 -0.06157
0.402801 0.631684 -0.016011
0.377325 -0.1577 0.337765
0.402801 0.550026 -0.116171
0.377325 0.059533 0.358966
0.377325 -0.346625 0.201353
0.377325 -0.70595 0.258552
0.402801 0.327748 -0.226436
0.377325 0.074824 -0.309152
0.377325 -0.146533 -0.067904
0.377325 -0.829211 -0.330565
0.402801 0.363439 0.028047
0.402801 -0.151239 0.136854
0.402801 0.139739 0.304664
0.402801 -0.770492 -0.295931
0.402801 -0.724695 0.317401
0.402801 -0.661598 -0.273472
0.402801 0.356179 -0.339142
0.402801 -0.500885 -0.044271
0.377325 0.390672 0.193604
0.402801 0.571777 -0.170521
0.377325 -0.277339 -0.050708
0.377325 -0.746699 -0.260304
0.402801 0.219931 -0.318399
0.377325 -0.74801 -0.35083
0.377325 0.460269 0.03128
0.377325 0.381782 -0.233492
0.377325 0.474522 -0.368552
0.402801 0.105314 -0.392905
0.377325 -0.7917 0.117227
0.402801 0.302379 -0.375789
0.377325 0.018872 0.189058
0.402801 -0.348635 0.282658
0.402801 -0.033161 -0.193968
0.377325 -0.781489 0.299827
0.402801 -0.676846 0.275289
0.402801 0.236379 -0.137332
0.377325 -0.072013 -0.152189
0.402801 0.651574 -0.398373
0.385912 -0.564191 0.362641
0.377325 0.583629 -0.047138
0.402801 -0.657078 0.35111
0.402801 0.072198 0.326772
0.402801 -0.510458 0.286265
0.402801 -0.378724 -0.129198
0.377325 0.343125 0.191083
0.377325 -0.204403 -0.227885
0.402801 0.160786 0.028433
0.402801 0.183868 -0.411844
0.377325 -0.360881 0.001679
0.377325 0.407564 -0.324103
0.377325 -0.258882 0.092418
0.377325 -0.127194 0.038649
0.402801 -0.662444 -0.106102
0.377325 0.126353 -0.236013
0.377325 0.207043 -0.017727
0.402801 0.116683 -0.358683
0.402801 -0.718725 0.100395
0.377325 0.224037 0.026541
0.402801 -0.758461 -0.106792
0.402801 0.376957 -0.036491
0.402801 0.529432 -0.33851
0.402801 -0.561507 -0.213926
0.402801 -0.765145 0.310746
0.402801 0.397822 0.320801
0.377325 0.640088 0.269387
0.402801 0.691056 -0.240586
0.377325 0.432925 0.157737
0.402801 0.671462 -0.217
0.402801 -0.781589 0.067613
0.402801 -0.416014 -0.156344
0.377325 -0.545999 0.120898
0.402801 0.11993 -0.316103
0.402801 -0.602859 0.218057
0.377325 -0.037137 -0.002651
0.402801 -0.162441 -0.183984
0.402801 0.192447 0.070657
0.377325 -0.772796 -0.083708
0.377325 -0.244636 -0.371285
0.377325 -0.2454 0.259956
0.377325 -0.704627 0.341424
0.402801 -0.522514 -0.150398
0.402801 -0.542519 -0.093443
0.377325 0.109101 -0.394834
0.377325 0.487428 0.06157
0.377325 -0.773071 0.247808
0.402801 -0.842958 -0.365202
0.377325 -0.658744 -0.127098
0.377325 0.674005 -0.191762
0.377325 -0.543945 -0.003945
0.402801 -0.09255 0.222582
0.377325 -0.255139 -0.180386
0.402801 0.057631 0.220635
0.402801 0.539703 0.119609
0.377325 -0.215494 0.186417
0.377325 0.246726 -0.059584
0.402801 0.51957 0.146972
0.377325 -0.55406 0.078197
0.377325 -0.171924 -0.363483
0.402801 0.15845 0.32225
0.402801 -0.345051 0.194916
0.377325 -0.495571 -0.398946
0.402801 -0.810163 0.155568
0.377325 0.181834 0.059272
0.377325 -0.276844 0.224006
0.377325 -0.214357 0.24213
0.377325 -0.765766 0.002781
0.395898 -0.844892 -0.173827
0.377325 0.21661 -0.169851
0.377325 -0.812037 -0.293028
0.402801 -0.507295 -0.273564
0.402801 -0.129645 0.158757
0.402801 -0.030994 -0.345647
0.402801 0.011538 -0.234231
0.377325 -0.650102 -0.396854
0.377325 0.485782 0.235715
0.377325 0.62396 -0.193145
0.377325 -0.39755 -0.315364
0.402801 0.670707 0.301977
0.377325 0.353841 -0.396998
0.377325 -0.122804 0.087718
0.402801 0.318489 -0.181936
0.402801 0.61047 -0.315379
0.402801 -0.317076 -0.177875
0.377325 -0.346087 -0.401553
0.377325 0.505167 -0.07694
0.402801 0.393926 -0.013749
0.402801 -0.713797 0.241257
0.377325 0.085291 -0.344573
0.402801 -0.160266 0.109948
0.377325 0.626015 -0.338089
0.377325 0.515647 0.010447
0.377325 0.157598 -0.255467
0.377325 -0.269602 -0.016949
0.402801 -0.16812 -0.0742
0.377325 -0.161954 -0.257175
0.402801 0.055276 0.10227
0.377325 0.390402 -0.396345
0.377325 -0.220976 -0.269847
0.377325 -0.502269 0.132056
0.402801 0.253656 0.095865
0.402801 0.513142 -0.243775
0.40248 0.695711 0.223476
0.377325 0.278651 0.030634
0.402801 -0.624038 0.249606
0.402801 -0.665981 -0.081027
0.402801 0.153682 0.134156
0.377325 0.16708 0.0969
0.402801 -0.243056 -0.160553
0.402801 0.415583 -0.29474
0.402801 -0.834793 0.328076
0.377325 0.46039 -0.03731
0.377325 0.642234 -0.370587
0.402801 -0.350037 -0.334537
0.402801 -0.713341 -0.085981
0.402801 -0.567415 -0.283134
0.402801 -0.281501 0.085745
0.377325 -0.376616 -0.02113
0.392843 -0.499262 -0.418627
0.377325 0.644893 0.315663
0.377325 -0.562625 -0.107071
0.402801 0.003716 0.287883
0.377325 -0.711204 -0.220238
0.402801 -0.099035 0.025617
0.377325 -0.016792 -0.409264
0.377325 -0.586892 0.330972
0.402801 -0.071701 -0.405726
0.377325 -0.187662 -0.209354
0.377325 -0.313819 0.077537
0.377325 0.353351 -0.245252
0.402801 0.131016 0.011601
0.377325 -0.665143 0.143139
0.402801 -0.08911 -0.218472
0.402801 0.300521 0.176458
0.402801 0.022008 -0.38417
0.377325 -0.727633 -0.006443
0.377325 -0.46393 0.167493
0.402801 0.561265 0.044996
0.377325 0.387667 -0.012844
0.377325 0.408983 0.294784
0.402801 0.044564 -0.017023
0.402801 0.060482 -0.413076
0.377325 -0.032248 0.157328
0.402801 -0.410118 0.174125
0.402801 -0.261397 -0.350763
0.377325 -0.789604 -0.338885
0.377325 0.298978 -0.320893
0.402801 -0.503974 0.340871
0.402801 -0.591652 -0.057947
0.377325 -0.477081 0.057917
0.402801 -0.618351 0.035325
0.402801 -0.698064 -0.392872
0.402801 -0.092083 -0.292766
0.402801 -0.142031 -0.135577
0.402801 -0.052697 0.159128
0.402801 -0.069674 -0.275525
0.402801 0.570304 -0.097286
0.389028 0.205562 -0.418627
0.402801 -0.225939 -0.241914
0.377325 0.307235 0.16142
0.402801 0.435382 0.251176
0.402801 0.669457 0.100673
0.377325 -0.265229 -0.245404
0.377325 0.029264 -0.098772
0.402801 0.529896 0.358193
0.402801 0.51088 0.267238
0.377325 0.326539 -0.283724
0.377325 0.63691 -0.147571
0.377325 -0.707886 0.151802
0.377325 0.164887 0.224796
0.377325 -0.330312 -0.219722
0.377325 0.101173 -0.193825
0.402801 0.37435 -0.263039
0.377325 -0.450912 0.284383
0.402801 -0.844245 -0.200804
0.377325 0.054973 0.047126
0.402801 -0.223834 -0.062543
0.402801 0.182494 -0.090822
0.377325 0.242401 -0.268219
0.402801 -0.305491 -0.036194
0.377325 -0.570939 0.242027
0.400185 -0.137036 -0.418627
0.402801 -0.745562 0.285506
0.377325 0.299129 0.189608
0.402801 -0.534726 -0.337408
0.377325 0.248127 0.29731
0.402801 -0.146916 -0.272857
0.377325 -0.311784 -0.099339
0.377325 -0.662693 -0.341656
0.402801 -0.362073 0.121508
0.402801 -0.327258 -0.107973
0.377325 -0.301693 0.235
0.402801 -0.834549 0.264751
0.402801 -0.231041 0.11954
0.402801 0.137255 0.155854
0.402801 4e-05 0.249751
0.402801 0.468969 0.301175
0.377325 0.530513 -0.396229
0.402801 0.39829 0.16895
0.377325 0.547035 0.161926
0.402801 -0.380346 0.322635
0.377325 0.364889 0.070395
0.402801 0.215909 0.039853
0.402801 -0.427003 -0.324026
0.402801 -0.499809 -0.177047
0.377325 0.448288 -0.378373
0.377325 -0.334164 0.03072
0.402801 -0.124079 0.221984
0.402801 0.343497 0.362299
0.377325 -0.504636 -0.006426
0.402801 0.096204 0.317392
0.402801 0.179924 0.28194
0.377325 -0.123172 0.352473
0.402801 -0.530166 0.133613
0.402801 -0.53603 -0.288465
0.402801 -0.531121 0.329867
0.402801 -0.493418 -0.126144
0.383236 0.487904 -0.418627
0.377325 0.40118 0.14176
0.377325 0.36823 -0.146627
0.402801 0.423997 0.325095
0.377325 -0.27974 -0.32236
0.377325 0.497999 0.212757
0.402801 0.318665 0.068829
0.402801 -0.10074 -0.363941
0.377325 0.417796 -0.094461
0.402801 0.61185 0.270595
0.402801 0.007488 0.033699
0.377325 0.124566 -0.32662
0.402801 0.205996 0.307515
0.377325 0.545821 -0.352734
0.402801 0.344916 -0.064509
0.387495 0.424488 -0.418627
0.377325 0.410612 0.228507
0.402801 0.450419 -0.11305
0.402801 -0.240652 -0.093388
0.377325 -0.437742 -0.364656
0.402801 -0.711501 -0.016423
0.402801 -0.301118 -0.258007
0.402801 -0.569535 0.320672
0.402801 -0.41452 0.211204
0.402801 -0.390612 0.065031
0.377325 -0.694836 -0.155545
0.402801 -0.474736 -0.315461
0.377325 0.483958 0.182423
0.402801 0.373483 -0.415971
0.377325 0.382537 0.25845
0.402801 -0.777445 -0.120749
0.402801 0.085789 0.011903
0.402801 -0.757905 0.041033
0.377325 0.079031 -0.111902
0.377325 -0.792027 0.350684
0.377325 0.344468 -0.317742
0.377325 -0.843288 0.123781
0.402801 -0.02208 -0.162326
0.402801 0.32953 0.042882
0.377325 -0.384461 -0.162886
-0.402431 -0.191199 -0.418627
-0.406846 0.677873 -0.418627
-0.412435 0.042203 0.161269
-0.412435 -0.446114 -0.045939
-0.386959 0.451801 -0.020091
-0.397403 -0.553848 -0.418627
-0.412435 0.087343 -0.194505
-0.412435 0.378359 -0.313895
-0.412435 -0.775427 0.039576
-0.412435 0.687632 0.161228
-0.412435 -0.163367 -0.034066
-0.386959 -0.362087 0.196267
-0.412435 0.219878 0.003808
-0.412435 -0.640528 -0.175745
-0.412435 -0.580824 0.153098
-0.386959 0.464298 0.199642
-0.412435 -0.298374 -0.208225
-0.412435 -0.816081 -0.40521
-0.412435 0.189583 -0.381709
-0.412435 -0.158561 0.162835
-0.412435 -0.094702 -0.253974
-0.386959 0.02339 -0.017342
-0.386959 -0.465364 -0.245653
-0.412435 0.194939 0.285121
-0.386959 -0.694576 0.273979
-0.412435 -0.615188 -0.007746
-0.412435 0.306272 0.162397
-0.386959 -0.065384 0.293651
-0.412435 0.519305 -0.390411
-0.412435 -0.837047 -0.12119
-0.412435 -0.307676 0.051615
-0.412435 0.611265 -0.261467
-0.412435 -0.039041 -0.410297
-0.386959 -0.674096 -0.316132
-0.412435 -0.482021 0.267024
-0.386959 -0.049634 -0.129239
-0.412435 -0.455574 0.10459
-0.412435 -0.252974 0.268086
-0.412435 -0.781013 -0.242566
-0.386959 0.178447 0.157024
-0.412435 -0.315142 -0.079217
-0.412435 -0.069953 0.06844
-0.412435 -0.29377 -0.341258
-0.412435 0.583007 0.240155
-0.412435 0.046829 -0.314367
-0.412435 0.217289 -0.181358
-0.412435 0.522546 0.091935
-0.412435 -0.707435 0.143754
-0.386959 -0.182935 -0.172169
-0.412435 0.305489 -0.414354
-0.412435 -0.529779 -0.128539
-0.386959 0.117207 0.05419
-0.412435 0.078013 0.281683
-0.386959 0.150523 -0.086428
-0.412435 0.442906 -0.174882
-0.412435 -0.7132 -0.067724
-0.412435 0.335811 -0.020261
-0.412435 -0.577492 -0.271855
-0.386959 0.429667 0.307679
-0.412435 -0.439505 -0.380018
-0.386959 -0.196013 -0.303925
-0.412435 0.694072 -0.10448
-0.386959 -0.39796 -0.16408
-0.386959 -0.057625 0.190853
-0.412435 -0.596078 0.288281
-0.386959 0.14177 -0.294755
-0.412435 -0.20078 0.05665
-0.401077 0.695711 -0.215229
-0.386959 -0.005688 -0.226875
-0.405396 -0.649887 -0.418627
-0.412435 -0.253771 0.171167
-0.412435 -0.793004 0.253696
-0.412435 -0.163545 0.298851
-0.386959 0.042577 -0.110968
-0.386959 -0.75335 -0.155515
-0.409291 0.695711 0.062825
-0.386959 -0.531766 0.026527
-0.412435 -0.070341 -0.026432
-0.412435 -0.345362 0.303843
-0.412435 -0.380394 -0.280842
-0.386959 -0.098824 -0.345807
-0.386959 -0.637637 0.076515
-0.410307 -0.844892 0.128525
-0.386959 0.015495 0.076414
-0.390563 -0.332449 -0.418627
-0.412435 0.394228 -0.409502
-0.412435 0.523407 -0.072041
-0.386959 -0.250542 -0.028458
-0.412435 -0.496464 0.182943
-0.386959 -0.641974 0.208381
-0.412435 0.222741 0.090278
-0.386959 -0.749053 -0.356987
-0.412435 -0.39687 0.045833
-0.412435 0.24851 -0.074104
-0.412435 -0.76382 0.331355
-0.412435 -0.60981 -0.099207
-0.412435 0.28209 0.318506
-0.412435 -0.508043 -0.315203
-0.412435 -0.001254 0.244329
-0.412435 -0.356178 0.119433
-0.386959 -0.690441 0.008747
-0.412435 0.05399 -0.415412
-0.386959 -0.12582 -0.108626
-0.386959 -0.537729 -0.20896
-0.412435 0.363753 0.25452
-0.412435 0.4275 -0.251469
-0.412435 0.113916 0.192376
-0.386959 0.556681 -0.318795
-0.412435 0.453542 0.127351
-0.386959 -0.032562 -0.299282
-0.412435 0.279823 0.234896
-0.412435 0.509868 0.263241
-0.412435 -0.266176 -0.138906
-0.412435 -0.587779 -0.347527
-0.412435 0.594789 -0.401454
-0.412435 -0.707638 -0.222075
-0.386959 -0.526403 -0.057095
-0.412435 0.131483 -0.017616
-0.412435 0.262332 -0.350975
-0.412435 0.370686 -0.199
-0.386959 0.446368 -0.330397
-0.386959 -0.775161 0.118403
-0.386959 -0.362935 -0.349448
-0.386959 -0.196962 0.227169
-0.386959 -0.134132 0.094402
-0.412435 0.421494 -0.104541
-0.40932 -0.668908 0.362641
-0.386959 -0.110985 -0.183706
-0.412435 0.580917 0.048544
-0.386959 -0.240847 -0.246989
-0.386959 -0.779551 -0.056856
-0.412435 -0.374872 -0.036294
-0.395398 0.695711 -0.017372
-0.412435 0.301175 -0.252629
-0.386959 0.099095 0.126379
-0.412435 -0.558213 0.228289
-0.386959 -0.770588 0.191487
-0.412435 0.19368 -0.254254
-0.386959 -0.466611 -0.110156
-0.412435 -0.533026 0.101377
-0.386959 -0.2143 -0.088747
-0.386959 0.467527 0.05629
-0.386959 -0.159263 -0.243415
-0.412435 0.355059 0.082971
-0.386959 -0.532473 0.328241
-0.412435 -0.015796 -0.069903
-0.386959 -0.399213 0.255214
-0.386959 -0.432274 0.164755
-0.386959 -0.442431 -0.315744
-0.386959 -0.675738 -0.119606
-0.412435 -0.462415 -0.181784
-0.412435 -0.230964 0.333094
-0.388048 -0.045486 0.362641
-0.412435 0.139726 -0.150546
-0.386959 -0.26568 -0.397942
-0.412435 0.636421 -0.342864
-0.412435 -0.023772 0.125928
-0.404843 -0.727291 -0.418627
-0.412435 0.655865 -0.161737
-0.412435 -0.105795 -0.418426
-0.386959 -0.294225 0.116621
-0.386959 -0.398764 -0.097288
-0.412435 0.283071 0.024456
-0.412435 -0.70472 0.213564
-0.386959 -0.417599 0.321336
-0.412435 -0.109435 0.251635
-0.412435 -0.734318 -0.289017
-0.412435 -0.140893 0.030712
-0.412435 0.559239 0.311492
-0.386959 0.453757 -0.406338
-0.412435 -0.639837 -0.254615
-0.412435 -0.29486 -0.272669
-0.412435 0.284683 -0.182263
-0.412435 0.073071 -0.060759
-0.401659 -0.844892 0.058135
-0.386959 -0.202123 0.123691
-0.412435 0.13231 -0.409673
-0.412435 0.57739 -0.207702
-0.412435 0.048055 -0.251021
-0.412435 -0.054248 -0.195109
-0.412435 0.14284 0.249585
-0.386959 -0.46894 0.031629
-0.412435 0.227115 0.187461
-0.386959 -0.637996 0.145804
-0.412435 0.065147 0.030519
-0.412435 -0.315982 -0.016334
-0.393925 -0.492091 -0.418627
-0.412435 0.478735 0.342155
-0.386959 0.056724 0.215385
-0.412435 0.537753 0.198615
-0.412435 0.029625 -0.173757
-0.412435 -0.331191 -0.156424
-0.386959 -0.698173 0.072046
-0.3948 -0.392792 -0.418627
-0.412435 0.387247 -0.054525
-0.386959 0.176572 0.04661
-0.386959 0.420846 0.240659
-0.412435 0.143343 -0.214673
-0.412435 0.132968 0.322485
-0.412435 0.631466 0.274257
-0.412435 -0.649816 -0.055758
-0.412435 -0.010276 -0.347667
-0.386959 -0.536422 -0.361294
-0.386959 0.188184 -0.041097
-0.412435 -0.24642 0.093754
-0.412435 -0.097851 0.13285
-0.386959 -0.60179 -0.211655
-0.412435 0.115847 -0.340628
-0.412435 -0.787211 -0.320816
-0.386959 -0.027056 0.011855
-0.412435 -0.444308 0.222631
-0.412435 -0.842608 -0.276366
-0.386959 0.193695 0.336819
-0.386959 -0.294594 0.312695
-0.386959 0.099751 -0.255632
-0.403788 -0.844892 0.230959
-0.386959 0.030044 0.299385
-0.412435 -0.347599 0.245172
-0.386959 -0.585197 -0.054755
-0.412435 -0.311638 0.191731
-0.412435 0.190668 -0.117251
-0.412435 -0.844317 -0.354299
-0.412435 -0.775169 -0.106568
-0.386959 0.481014 -0.219815
-0.412435 -0.151551 -0.325591
-0.412435 -0.820515 0.323031
-0.412435 0.484093 -0.126072
-0.386959 0.246411 0.270774
-0.386959 -0.711405 0.335404
-0.412435 0.500258 -0.014396
-0.412435 -0.589049 0.08086
-0.412435 0.146461 0.115737
-0.386959 -0.408951 -0.241623
-0.386959 0.664495 0.101473
-0.386959 0.582312 -0.046379
-0.391585 0.396793 0.362641
-0.412435 -0.256865 0.032284
-0.412435 -0.240219 -0.350228
-0.386959 -0.657394 0.313527
-0.412435 0.340736 -0.354669
-0.412435 -0.743348 0.28139
-0.412435 0.509408 -0.323807
-0.412435 0.497383 0.162974
-0.412435 0.634665 0.048113
-0.386959 0.659683 -0.269376
-0.412435 -0.163988 0.353125
-0.412435 0.25185 -0.224619
-0.412435 -0.762573 -0.012892
-0.386959 -0.081691 -0.078364
-0.386959 -0.097103 0.013756
-0.386959 0.214555 -0.323442
-0.386959 -0.532813 0.153289
-0.386959 0.347238 -0.279231
-0.412435 -0.215255 -0.208154
-0.386959 -0.185314 0.006925
-0.412435 -0.568888 -0.174572
-0.412435 0.418095 0.088798
-0.412435 -0.488214 -0.009627
-0.412435 -0.825785 -0.068376
-0.386959 -0.43019 -0.003481
-0.412435 0.32695 -0.071386
-0.412435 -0.800081 -0.157531
-0.386959 0.349273 -0.403837
-0.412435 0.418082 0.188496
-0.386959 -0.332432 -0.303884
-0.386959 -0.247481 -0.301438
-0.386959 -0.41412 0.087047
-0.386959 0.64119 -0.218976
-0.386959 -0.813141 0.017072
-0.412435 -0.100771 0.199035
-0.412435 0.524273 -0.189573
-0.412435 -0.667121 0.113186
-0.412435 -0.528345 -0.259977
-0.386959 -0.48232 -0.350353
-0.386959 -0.246019 0.215658
-0.386959 -0.234391 -0.169178
-0.386959 -0.497818 0.072794
-0.386959 -0.264367 -0.084189
-0.386959 -0.501652 0.22595
-0.412435 0.681745 -0.364264
-0.386959 -0.017163 -0.167292
-0.412435 0.186839 0.225853
-0.412435 0.519475 0.031706
-0.412435 0.341043 0.029384
-0.386959 -0.694234 -0.18138
-0.412435 0.371324 -0.142112
-0.412435 -0.107297 0.301974
-0.386959 -0.773137 -0.400306
-0.386959 0.070102 -0.349758
-0.386959 0.58627 -0.358677
-0.412435 0.457502 0.261753
-0.412435 -0.48247 0.323789
-0.412435 0.007716 -0.279439
-0.412435 0.413259 -0.359831
-0.386959 -0.629147 -0.340686
-0.412435 0.099672 -0.101966
-0.386959 -0.594114 0.028478
-0.412435 0.458565 -0.288945
-0.412435 -0.085805 -0.149194
-0.386959 0.185058 -0.214038
-0.412435 0.064074 0.10488
-0.412435 -0.290554 0.237688
-0.412435 -0.713885 -0.144459
-0.412435 -0.601277 0.203615
-0.412435 -0.056969 -0.335536
-0.412435 -0.402392 -0.324136
-0.412435 -0.025214 0.295484
-0.386959 -0.493323 0.126759
-0.386959 -0.514833 -0.167309
-0.412435 -0.156765 -0.134083
-0.412435 0.545192 0.359395
-0.386959 -0.064561 0.108086
-0.412435 -0.748593 -0.195049
-0.386959 -0.111665 -0.031167
-0.412435 0.44753 -0.065187
-0.412435 -0.057103 0.230544
-0.412435 -0.527582 0.279186
