0.236387 0.004524 -0.146368
0.236387 0.192514 0.044302
0.236387 -0.831722 -0.189293
0.251832 -0.203955 0.051573
0.251832 0.467081 0.18909
0.251832 0.783906 0.085942
0.251832 -0.341191 -0.124957
0.236387 -0.496015 0.056032
0.236387 -0.418306 -0.192797
0.251832 0.651978 -0.123242
0.251832 0.331904 -0.09485
0.251832 0.603903 -0.010324
0.236387 0.065758 0.009498
0.251832 0.776444 0.152326
0.239316 -0.952861 -0.175709
0.251832 0.275949 0.043237
0.251832 0.826111 0.131687
0.236387 0.507375 0.109763
0.251832 -0.436211 -0.099842
0.251832 0.788016 -0.019476
0.251832 0.001493 -0.200289
0.251832 0.681277 0.033956
0.251832 -0.729592 0.065287
0.251832 0.006519 -0.01438
0.251832 0.477073 -0.025255
0.236387 -0.794588 -0.126182
0.251832 -0.822292 0.119893
0.251832 -0.640668 -0.194298
0.251832 0.802069 0.205811
0.236387 0.158766 -0.042904
0.251832 -0.874929 0.137638
0.251832 -0.898372 -0.243713
0.251832 0.860789 -0.014118
0.251832 -0.6474 0.196457
0.251832 -0.036151 0.031533
0.250869 0.085392 -0.247317
0.236387 0.33698 0.058737
0.251832 0.893326 -0.089785
0.236387 -0.068611 -0.129517
0.236387 0.834425 -0.205371
0.236387 -0.692503 0.104818
0.246703 -0.349302 0.22632
0.251832 0.168159 -0.136013
0.251832 -0.861849 0.196503
0.251832 -0.314502 0.184194
0.251832 -0.648377 -0.088514
0.251832 0.446476 -0.202962
0.236387 -0.660811 0.014938
0.236387 -0.58187 -0.132116
0.251832 0.392124 -0.028242
0.251832 0.554453 -0.114068
0.236387 -0.037408 0.074768
0.251832 -0.251678 0.046638
0.251832 0.430099 0.149894
0.236387 0.053613 0.088312
0.251832 0.771793 -0.067022
0.251832 -0.00699 0.19491
0.251832 0.643451 0.072759
0.251832 0.420746 -0.0721
0.251832 0.84869 -0.095077
0.251832 -0.546125 0.117903
0.251832 0.860111 -0.162182
0.251832 -0.914022 -0.022872
0.236387 -0.444331 0.075704
0.251832 -0.759312 -0.01116
0.251832 -0.502734 -0.24624
0.251832 0.760485 -0.193562
0.236387 -0.611784 -0.164406
0.251832 -0.939865 0.150356
0.251832 -0.823515 0.039655
0.236387 -0.487257 -0.182325
0.236387 -0.180822 0.125532
0.251832 -0.257196 -0.205014
0.247568 0.303828 -0.247317
0.251832 0.232334 0.030622
0.251832 0.102766 0.099432
0.251832 -0.73767 0.172368
0.236387 -0.538833 -0.137616
0.251832 0.56694 0.142932
0.251832 0.196624 0.084661
0.251832 -0.362117 0.13127
0.251832 -0.377755 -0.212659
0.251832 -0.581714 0.142303
0.251832 0.093072 -0.131217
0.251832 -0.747084 -0.114656
0.251832 0.904444 0.015605
0.236387 0.13842 0.139632
0.236387 -0.223911 -0.019679
0.251832 -0.365168 -0.041958
0.251832 -0.491625 -0.034776
0.251832 0.74182 0.10791
0.251832 -0.897362 0.067285
0.251832 0.325624 0.138934
0.251832 0.804618 0.044428
0.251832 -0.572172 0.012955
0.251832 0.399177 0.044653
0.247489 0.416643 -0.247317
0.236387 -0.783288 0.122056
0.251832 -0.702593 0.217562
0.236387 -0.102018 0.071674
0.251832 0.455585 0.113752
0.236387 -0.400773 0.161454
0.251832 0.281277 -0.091943
0.251832 0.191821 0.207539
0.236387 0.863926 0.142259
0.236387 -0.145766 0.153164
0.244746 -0.788765 -0.247317
0.236387 0.037095 -0.188506
0.251832 -0.264599 0.117374
0.251832 -0.208143 -0.242996
0.251832 0.359158 0.178474
0.251832 0.482843 0.049049
0.251832 0.378673 0.084575
0.251832 -0.076987 0.140621
0.251832 0.71007 -0.112408
0.251832 0.475189 0.149827
0.251832 -0.601123 -0.20151
0.251832 0.360287 0.030127
0.251832 -0.134802 -0.054768
0.236387 0.153106 -0.19701
0.251832 0.641273 0.117887
0.236387 0.483267 -0.209376
0.236387 -0.558008 -0.062526
0.236387 0.603735 -0.051809
0.236387 0.038309 -0.097569
0.251832 0.358442 -0.137287
0.251832 0.135706 0.20049
0.236387 -0.534532 0.204503
0.236387 0.183438 0.143583
0.251832 -0.73067 -0.185885
0.251832 -0.492279 -0.087081
0.251832 0.507274 -0.158187
0.251832 0.21589 -0.189837
0.251832 -0.22918 0.198819
0.236387 0.002845 -0.078773
0.251832 0.405839 -0.204647
0.251832 -0.250469 -0.124031
0.24187 0.513637 -0.247317
0.247096 -0.952861 0.094494
0.236387 0.125656 0.053363
0.236387 -0.644399 0.07544
0.251832 0.227438 -0.096175
0.251832 0.515561 -0.107206
0.251832 -0.794499 -0.16414
0.251832 -0.846405 -0.07625
0.236387 -0.799708 0.194108
0.251832 -0.226056 -0.054568
0.251832 -0.028939 0.121835
0.251832 -0.919084 -0.073164
0.236387 -0.203531 0.090112
0.236387 -0.036081 -0.059395
0.251832 -0.393799 0.017036
0.251832 0.720809 -0.17075
0.236387 -0.719411 -0.036013
0.251832 -0.320945 -0.157021
0.251832 0.34051 -0.218786
0.236387 -0.299414 -0.11345
0.251832 -0.287854 0.079059
0.251832 -0.822479 -0.043298
0.251832 0.045556 -0.018595
0.251832 -0.288561 -0.22999
0.251832 -0.415852 -0.058264
0.236387 -0.492258 0.139893
0.251832 -0.179253 0.210055
0.251832 0.396101 -0.119695
0.251832 0.099232 -0.059791
0.236387 0.616713 -0.139979
0.251832 0.727638 -0.232492
0.236387 0.284955 -0.058273
0.245807 0.780273 -0.247317
0.251832 -0.869267 -0.220637
0.251832 0.475259 0.011815
0.236387 -0.542955 -0.246251
0.236387 0.075126 0.19274
0.236387 -0.85287 0.103482
0.251832 -0.412413 0.193344
0.236387 -0.917222 0.040061
0.236387 0.217268 -0.044926
0.236387 -0.154459 -0.179724
0.251832 -0.607249 -0.004287
0.251832 0.907435 -0.168891
0.236387 -0.10305 0.112629
0.236387 -0.66827 -0.114764
0.251832 0.765322 0.028919
0.251832 -0.093939 0.195521
0.251832 -0.126486 -0.132655
0.236387 0.057534 0.049245
0.236387 -0.3451 -0.210838
0.251832 0.802978 -0.214244
0.236387 0.573282 0.002305
0.251832 -0.712358 -0.15458
0.236387 0.235263 -0.217317
0.236387 -0.077213 -0.181053
0.236387 -0.086015 -0.022241
0.236387 -0.662343 -0.157801
0.251832 0.511432 -0.046228
0.251832 0.132847 -0.129356
0.236387 -0.301207 0.005851
0.251832 0.133518 -0.016217
0.251832 0.581307 0.079203
0.236387 -0.514889 -0.064081
0.236387 -0.668954 -0.032327
0.251832 -0.401455 -0.16441
0.251832 0.789189 -0.102748
0.236387 -0.548007 0.03816
0.251832 0.265692 0.079145
0.251832 -0.372547 -0.10845
0.236387 0.439139 -0.153791
0.251832 0.573345 -0.029906
0.236387 -0.040851 -0.195882
0.236387 0.604437 -0.179413
0.251832 -0.221376 -0.208808
0.251765 -0.952861 -0.142842
0.236387 0.163973 -0.007932
0.251832 -0.615742 0.133674
0.236387 -0.121674 -0.191935
0.251832 0.883071 0.186242
0.251832 0.592272 -0.117709
0.251832 0.476715 0.08336
0.236387 -0.272716 -0.045324
0.251832 -0.112017 -0.098639
0.251832 -0.328569 0.03229
0.236387 -0.659178 0.140535
0.251832 0.205534 0.1653
0.251832 -0.359226 0.090037
0.236387 0.157483 0.066888
0.236387 0.240743 0.151663
0.236387 -0.850112 0.014954
0.236387 0.633622 0.016548
0.236387 -0.8567 -0.165133
0.236387 0.068377 -0.047835
0.236387 -0.560224 -0.105609
0.251832 0.684655 -0.017966
0.236387 0.319296 -0.122593
0.251832 -0.88302 0.100341
0.251832 0.611383 -0.223213
0.251832 -0.173533 -0.118463
0.236387 -0.020246 -0.000277
0.251832 0.367593 -0.004758
0.236387 0.857873 -0.124396
0.236387 -0.677701 0.198904
0.236387 -0.339822 0.157318
0.251832 -0.576184 0.209287
0.236387 0.063197 0.161101
0.236387 -0.131424 0.017292
0.251832 0.050376 -0.234636
0.251832 -0.689392 0.134627
0.236387 -0.719476 0.148585
0.251832 -0.413597 0.134166
0.236387 0.272036 0.121571
0.251832 0.037337 0.018301
0.251832 0.810325 -0.142175
0.251832 0.113847 0.010888
0.236387 0.637536 -0.057409
0.251832 -0.761633 0.074534
0.236387 0.039561 0.123687
0.251832 0.736691 0.07499
0.251832 0.8635 0.050596
0.251832 0.232119 -0.137624
0.250236 -0.016971 -0.247317
0.251832 -0.825007 0.083873
0.251832 -0.272708 0.202121
0.251832 -0.278519 0.025345
0.251832 0.862259 -0.213722
0.236387 -0.715825 0.191372
0.251832 -0.176064 0.068751
0.251832 0.44519 0.074473
0.251832 0.869799 0.017266
0.251832 -0.582964 0.17489
0.251832 0.37436 -0.196163
0.251832 0.726738 -0.012917
0.251832 -0.593409 0.045996
0.251832 0.204716 0.013022
0.248963 -0.163406 -0.247317
0.251832 -0.425682 0.097115
0.251832 0.535098 0.041291
0.251832 -0.063158 -0.081565
0.251832 0.100177 -0.179039
0.251832 0.240629 -0.025456
0.236387 0.714297 0.172203
0.236387 -0.446104 -0.014502
0.251832 0.64305 -0.215914
0.236387 0.109682 -0.207992
0.251832 -0.793223 0.013502
0.236387 -0.19484 -0.17567
0.251832 -0.522538 -0.170181
0.236387 -0.253038 0.142848
0.236387 -0.763497 -0.049086
0.251832 -0.824429 -0.216447
0.236387 0.797651 0.011164
0.251832 0.686003 -0.180892
0.251832 -0.1747 -0.019105
0.236387 -0.613711 0.100814
0.236387 -0.394434 0.076607
0.236387 -0.015628 -0.171123
0.251832 0.281271 -0.20931
0.251832 0.498819 0.175654
0.236387 -0.210057 0.008695
0.251832 0.293458 -0.024857
0.251832 -0.765664 0.194323
0.236387 0.333682 -0.016193
0.251832 0.650501 0.040757
0.236387 -0.554731 0.147881
0.251832 0.307385 -0.074132
0.251832 0.424514 -0.007535
0.236387 0.709486 0.120549
0.251832 0.344491 -0.166679
0.236387 -0.588413 -0.054484
0.236387 0.082674 -0.156961
0.251832 -0.036309 0.183673
0.251832 -0.445568 -0.191081
0.251832 0.332772 0.108436
0.236387 -0.625031 -0.218339
0.236387 -0.144929 0.120178
0.251832 -0.00193 -0.117608
0.251832 0.55698 -0.165717
0.251832 -0.930628 0.01196
0.251832 -0.278071 -0.17467
0.236387 0.148422 -0.10734
0.236387 -0.895682 -0.059803
0.236387 -0.923784 -0.112022
0.251832 0.831098 0.026974
0.251832 -0.609694 -0.134546
0.251832 -0.319332 0.12009
0.236387 -0.289738 -0.074468
0.251832 -0.826385 -0.163229
0.251832 -0.477329 0.208474
0.236387 0.41497 0.066001
0.236387 -0.562893 0.084911
0.236387 0.325218 0.168082
0.251832 0.801071 0.111256
0.236387 0.598447 0.019628
0.236387 -0.155648 -0.070881
0.251832 0.028705 -0.122098
0.236387 -0.238031 -0.083268
0.236387 -0.916173 0.138992
0.251832 0.805828 -0.067551
0.251832 -0.751774 -0.224595
0.236387 0.624163 -0.02689
0.251832 -0.336542 -0.051906
0.251832 0.178873 -0.200984
0.236387 -0.830958 -0.013954
0.236387 -0.050391 0.141193
0.236387 0.445837 -0.050905
0.251832 -0.367844 -0.2424
0.251832 0.517121 0.085696
0.251832 -0.184084 -0.080358
0.251832 0.102232 0.139953
0.251832 -0.163184 0.181904
0.251832 0.821074 -0.107017
0.251832 -0.095535 -0.046157
0.244673 0.69214 -0.247317
0.251832 0.744914 0.176699
0.251832 -0.050195 0.003794
0.236387 0.178443 -0.163682
0.236387 -0.628179 0.010499
0.251832 -0.714667 0.091195
0.251832 0.021009 0.180123
0.242227 -0.926403 -0.247317
0.251832 -0.455301 0.100343
0.251832 0.351172 -0.034597
0.236387 -0.897674 -0.157146
0.236387 -0.654495 -0.06397
0.236387 -0.781281 -0.099715
0.251832 -0.100777 0.008858
0.251832 -0.223623 -0.152633
0.251832 -0.043548 -0.132587
0.251832 0.419084 -0.175252
0.251832 -0.736505 0.00764
0.236387 -0.821591 -0.103096
0.251832 -0.550417 -0.006992
0.236387 -0.475343 -0.245264
0.251832 -0.893984 0.000917
0.251832 -0.007221 -0.04048
0.251832 0.539336 -0.029084
0.251832 -0.505859 0.215386
0.236387 -0.233147 0.172608
0.251832 0.818056 0.168325
0.236387 -0.837875 0.206577
0.236387 -0.013543 0.046563
0.251832 -0.79983 0.140569
0.251832 0.389043 0.22103
0.251832 0.66397 -0.149852
0.251832 0.676419 -0.107298
0.236387 -0.338637 0.189713
0.251832 0.174219 -0.241776
0.251832 -0.933757 -0.202485
0.236387 0.894903 0.164672
0.251832 0.063061 -0.171776
0.251832 0.457412 -0.170218
0.236387 -0.41853 -0.082797
0.236387 -0.314054 0.208743
0.236387 -0.754414 0.154438
0.236387 -0.494707 -0.000949
0.251832 0.099004 0.198215
0.236387 -0.133086 -0.243438
0.236387 0.742274 -0.055657
0.236387 -0.850615 0.135267
0.236387 -0.281294 -0.017743
0.251832 0.146982 -0.169282
0.236387 -0.020695 0.098946
0.236387 -0.454694 0.036665
0.251832 -0.669522 -0.008053
0.251832 0.55083 -0.215801
0.236387 -0.52186 -0.013563
0.251832 0.883857 0.075638
0.251832 -0.573192 0.108369
0.239866 -0.952861 -0.065397
0.236387 -0.707174 -0.197445
0.236387 -0.056597 0.053497
0.251832 0.559832 0.060258
0.236387 0.258411 -0.084378
0.251832 -0.345623 -0.096759
0.251832 0.509401 0.133644
0.251832 -0.931587 0.190237
0.251832 -0.65894 0.046677
0.251832 -0.463507 0.061419
0.251832 0.40538 0.119472
0.251832 0.177859 0.119223
0.236387 -0.892434 -0.12255
0.251832 0.673823 0.087998
0.236387 -0.59796 0.193413
0.236387 0.723921 -0.093071
0.236387 -0.667554 -0.195746
0.236387 0.123047 0.111788
0.251832 -0.78714 0.060027
0.251832 -0.088665 -0.116867
0.251832 -0.105269 0.140348
0.236387 -0.365719 -0.013473
0.251832 -0.929043 0.060483
0.251832 0.762803 -0.146643
0.251832 -0.855309 -0.188745
0.251832 -0.003145 0.222845
0.251832 -0.122536 0.226175
0.236387 0.731834 -0.149929
0.236387 0.259957 0.025578
0.236387 0.591608 -0.24646
0.236387 0.216015 0.100644
0.236387 -0.301846 -0.049111
0.236387 0.002881 0.149312
0.236387 -0.334851 -0.175886
0.251832 -0.148237 -0.028425
0.251832 0.081953 -0.011888
0.251832 -0.865182 -0.129484
0.251832 0.580036 -0.092503
0.236387 -0.418866 0.006512
0.236387 -0.471214 -0.100181
0.236387 -0.063572 -0.038958
0.251832 0.484932 -0.175268
0.236387 0.754086 -0.171213
0.236387 0.61157 -0.104876
0.236387 0.707878 0.03478
0.251832 -0.098924 -0.205033
0.251832 0.178123 0.021074
0.251832 0.754004 0.203147
0.251832 0.671832 -0.059853
0.236387 -0.864531 -0.06219
0.251832 -0.005066 0.080365
0.251832 0.579412 -0.056883
0.236387 -0.22511 0.060421
0.236387 0.790468 -0.155681
0.251832 0.41754 -0.13709
0.251832 -0.10578 0.035974
0.251832 -0.787805 -0.032515
0.236387 -0.522477 0.145956
0.251832 -0.238188 0.007407
0.251832 0.198043 -0.134227
0.236387 0.827141 -0.243033
0.251832 -0.920467 -0.162337
0.236387 -0.424958 -0.156264
0.236387 0.080982 0.087008
0.251832 -0.671036 0.080072
0.251832 -0.209894 0.173999
0.251832 0.832761 -0.160942
0.251832 -0.468586 -0.012401
0.236387 -0.373369 0.153629
0.236387 -0.504385 0.084307
0.251832 0.679222 -0.207385
0.236387 -0.201378 0.217514
0.236387 0.329142 -0.068555
0.236387 0.097227 0.025993
0.236387 -0.742757 0.100966
0.251832 -0.852202 -0.242179
0.236387 0.165665 -0.069233
0.251832 -0.083704 0.220709
0.236387 -0.373346 -0.189275
0.251832 -0.13436 -0.169189
0.251832 -0.601795 -0.228642
0.251832 0.021287 -0.172762
0.236387 -0.34662 0.115228
0.251832 0.538684 0.133412
0.236387 -0.523111 0.054823
0.251832 -0.431604 -0.226847
0.251832 0.248964 -0.16659
0.245151 0.880055 -0.247317
0.251832 -0.391485 -0.035796
0.236387 -0.176138 0.096448
0.251832 -0.941045 -0.041078
0.251832 -0.091724 0.167906
0.236387 -0.343503 -0.146912
0.251832 -0.061754 -0.108548
0.251832 -0.707273 -0.235232
0.236387 -0.475914 -0.153608
0.236387 -0.233257 0.118845
0.251832 -0.850102 0.043584
0.251832 0.136874 0.082206
0.236387 0.866757 -0.035149
0.251832 -0.661291 0.173588
0.251832 -0.623201 -0.06957
0.251832 0.762641 0.068574
0.236387 0.26199 -0.044622
0.236387 -0.718736 0.119522
0.236387 -0.137632 -0.214243
0.236387 0.370474 0.147567
0.251832 -0.420474 -0.129332
0.251832 -0.44546 -0.048322
0.236387 -0.196907 -0.114214
0.251832 0.229866 -0.24684
0.251832 0.882742 -0.18358
0.251832 -0.02158 -0.213568
0.251832 -0.4727 0.165689
0.236387 0.889229 -0.111065
0.251832 0.30787 0.071619
0.251832 -0.672999 -0.075303
0.236387 -0.787223 -0.060976
0.236387 -0.589081 -0.183615
0.251832 -0.73135 -0.135947
0.251832 -0.129776 0.084072
0.251832 0.618825 -0.19522
0.236387 0.203147 -0.073622
0.251832 -0.288423 -0.199195
0.236387 -0.685221 0.024797
0.251832 0.508442 0.042946
0.236387 0.115478 0.077621
0.236387 0.171617 0.200832
0.236387 -0.393901 0.205856
0.236387 0.808213 0.143153
0.236387 0.260125 0.058649
0.251832 0.29637 -0.117732
0.251832 0.435679 -0.106633
0.236387 -0.896248 -0.222644
0.251832 -0.671593 0.108565
0.236387 -0.878727 0.057324
0.251832 -0.139686 -0.002153
0.236387 -0.293645 0.118445
0.236387 0.407062 -0.101658
0.251832 -0.779542 -0.187197
0.251832 0.075561 -0.111837
0.251832 -0.131248 0.137726
0.236387 0.504341 -0.124978
0.251832 0.043392 0.064763
0.236387 -0.170487 -0.097711
0.251832 -0.198456 -0.029784
0.251832 -0.526154 -0.120946
0.251832 0.787981 -0.128847
0.251832 0.844145 0.106468
0.251832 -0.38393 -0.144307
0.236387 0.747561 -0.026516
0.236387 0.829097 -0.030955
0.236387 -0.787737 0.217106
0.251832 0.898388 -0.213553
0.251832 0.69911 -0.156653
0.251832 -0.002717 0.010774
0.251832 0.1428 -0.05611
0.236387 0.327737 -0.188129
0.236387 0.631075 0.047857
0.236387 -0.173808 0.048221
0.236387 -0.4141 -0.037222
0.236387 0.585376 0.152141
0.251832 -0.36468 0.02557
0.251832 -0.893874 0.155509
0.251832 -0.69543 0.044343
0.251832 -0.776597 -0.14039
0.251832 -0.56506 0.049536
0.236387 0.899345 -0.069005
0.251832 -0.082309 0.066124
0.251832 -0.072519 -0.232074
0.251832 0.048104 0.174909
0.251832 0.475675 -0.112991
0.251832 -0.291217 0.157969
0.236387 0.303766 0.004445
0.236387 0.627369 -0.168167
0.251832 -0.688028 -0.044244
0.236387 0.686753 0.014368
0.236387 -0.613345 -0.096613
0.236387 0.210325 0.185042
0.236387 -0.246298 -0.055079
0.236387 -0.599326 0.121911
0.251832 0.751106 0.151202
0.251832 -0.081231 -0.145168
0.251832 -0.632164 0.16875
0.236387 0.215665 -0.124665
0.236387 0.134091 -0.037299
0.236387 0.637986 0.092028
0.236387 0.098838 -0.0944
0.236387 0.705502 -0.069575
0.251832 -0.528529 0.091087
0.236387 -0.812207 0.062872
0.236387 0.554927 0.038066
0.236387 0.186674 0.17147
0.236387 -0.269896 0.070728
0.236387 0.030601 -0.212728
0.236387 0.464916 0.02863
0.251832 -0.737971 -0.029307
0.251832 0.243641 -0.197635
0.251832 0.543701 -0.086965
0.251832 -0.304935 -0.086998
0.236387 0.220186 0.050915
0.251832 0.51634 -0.070674
0.251832 0.162067 0.138473
0.236387 0.424523 0.022343
0.236387 -0.519331 0.121294
0.236387 -0.045462 0.101022
0.251832 0.912368 -0.105683
0.236387 -0.91551 0.091209
0.251832 -0.196839 0.136859
0.236387 0.031303 0.09907
0.251832 -0.580375 -0.151415
0.251832 0.578658 -0.227008
0.236387 0.494584 0.075993
0.236387 -0.70845 -0.098751
0.236387 0.255445 -0.145798
0.251832 0.053389 -0.123229
0.251832 -0.678023 0.219245
0.251832 0.458531 -0.082966
0.236387 -0.748013 -0.177735
0.236387 0.732296 0.154419
0.236387 -0.11283 0.181665
0.251832 0.355584 0.076453
0.251832 -0.205895 -0.068369
0.251832 0.304317 -0.181051
0.236387 -0.511973 -0.035891
0.251832 0.775084 -0.224238
0.236387 0.349553 -0.088096
0.236387 -0.627072 -0.120447
0.236387 -0.839406 0.059698
0.251832 -0.458731 -0.114276
0.236387 -0.850241 -0.206871
0.251832 -0.383113 0.098313
0.236387 0.313213 -0.09681
0.236387 -0.303184 -0.137476
0.236387 -0.805925 -0.232265
0.251832 0.637045 -0.013298
0.236387 0.835349 -0.133671
0.251832 0.101251 -0.228979
0.251832 -0.413251 0.060025
0.251832 -0.150862 0.028101
0.251832 0.383013 -0.099311
0.251832 -0.004472 0.132163
0.251832 0.21974 -0.06511
0.251832 -0.764704 0.120496
0.236387 0.721595 0.087945
0.251832 -0.307127 0.063249
0.251832 0.532983 -0.236558
0.236387 -0.192017 -0.233731
0.236387 0.152317 0.162879
0.236387 0.201006 -0.244031
0.236387 0.66815 -0.168408
0.236387 0.647089 -0.142121
0.251832 -0.685336 -0.245322
0.251832 0.725232 -0.131177
0.236387 0.764873 0.220652
0.251832 0.362959 -0.113605
0.236387 0.774436 0.133939
0.236387 -0.872732 -0.194921
0.236387 0.346087 0.125226
0.251832 -0.896055 0.197286
0.251832 0.247464 0.168841
0.251832 0.348595 0.156862
0.251832 0.038241 -0.068887
0.236387 -0.297106 -0.182984
0.236387 0.825277 -0.177722
0.236387 0.288813 -0.226017
0.251832 -0.060152 0.181245
0.251832 -0.381838 0.191089
0.251832 -0.225203 0.079595
0.236387 0.402246 -0.078025
0.251832 0.687769 0.125754
0.251832 -0.304569 0.023819
0.236387 -0.556223 -0.154053
0.251832 -0.035274 0.207559
0.236387 -0.895892 -0.02495
0.251832 -0.694429 0.182265
0.236387 -0.201963 0.033469
0.251832 0.214948 0.068344
0.251832 -0.277022 0.137752
0.251832 -0.680639 -0.128629
0.24649 0.915092 0.177918
0.236387 0.608873 0.063584
0.251832 -0.881927 0.178083
0.236387 0.55723 -0.042268
0.251832 0.835417 -0.014075
0.236387 0.336272 0.019114
0.236387 -0.053873 0.021431
0.236387 -0.810066 0.172759
0.236387 0.723116 -0.192776
0.236387 0.887467 0.139518
0.236387 -0.571605 -0.081911
0.236387 0.439975 -0.177445
0.236387 -0.121103 -0.083188
0.236387 0.129819 0.001319
0.251832 0.752079 -0.080096
0.251832 0.122472 0.035741
0.251832 -0.885824 -0.140931
0.251832 0.288192 0.114009
0.251832 -0.871684 -0.006779
0.236387 -0.107153 -0.137287
0.251832 0.529926 -0.125839
0.251832 0.853315 -0.191962
0.236387 -0.158296 -0.043042
0.236387 -0.143152 0.063126
0.251832 0.069715 -0.067651
0.251832 0.381615 0.185332
0.236387 -0.874306 0.119969
0.251832 -0.905273 0.027146
0.236387 -0.38511 0.032333
0.236387 0.238696 0.110115
0.236387 -0.622055 -0.032299
0.251832 -0.435625 0.141753
0.251832 -0.408464 -0.224311
0.236387 0.488805 -0.059169
0.251832 0.293425 0.018444
0.251832 -0.423677 0.172994
0.251832 0.883069 -0.158529
0.236387 -0.07831 -0.095297
0.236387 0.799047 -0.197334
0.251832 0.335242 -0.13857
0.236387 -0.219004 -0.121394
0.251832 0.555629 -0.189
0.236387 -0.420831 -0.10785
0.236387 -0.342556 -0.012031
0.251832 -0.49828 -0.195664
0.251832 0.171719 0.223941
0.236387 -0.363167 0.191665
0.251832 -0.533137 0.029352
0.236387 0.463481 0.060628
0.236387 0.798701 0.172002
0.236387 -0.273804 -0.22107
0.251832 0.771296 -0.172234
0.236387 -0.675212 -0.092686
0.236387 0.48325 0.123019
0.236387 -0.758794 -0.080273
0.251832 -0.799403 0.040418
0.251832 -0.80252 -0.142453
0.251832 -0.019117 -0.062267
0.251832 0.40746 0.142495
0.236387 -0.378468 0.126094
0.251832 -0.805572 -0.113013
0.238319 -0.609341 -0.247317
0.251832 -0.229547 -0.234399
0.236387 0.310973 -0.020191
0.236387 -0.364897 -0.067316
0.236387 0.238597 0.011355
0.251832 -0.370163 0.218055
0.251832 0.154815 -0.215433
0.236387 -0.209693 -0.085105
0.251832 0.170545 -0.030644
0.236387 -0.525624 0.18059
0.251832 0.699473 -0.092062
0.236387 0.661624 0.057226
0.236387 0.114767 0.151355
0.251832 -0.17661 -0.194455
0.236387 -0.647347 -0.010587
0.236387 0.656544 -0.106978
0.251832 -0.817594 0.157591
0.251832 -0.340751 0.139435
0.251832 -0.734425 0.194958
0.236387 -0.598255 -0.116257
0.251832 0.121951 0.223961
0.236387 0.881796 -0.215905
0.236387 0.059259 -0.199641
0.236387 -0.946924 0.049582
0.251832 -0.757823 0.047556
0.251832 0.054755 0.116768
0.236387 -0.362289 -0.226684
0.236387 0.373938 0.020581
0.251832 -0.624574 -0.17506
0.236387 0.9048 -0.152477
0.236387 -0.867391 0.086051
0.236387 0.822989 0.198181
0.236387 0.02294 -0.01682
0.236387 0.179525 -0.12395
0.251832 -0.494552 -0.222597
0.236387 -0.762078 0.212112
0.236387 0.537373 0.02302
0.250207 -0.653235 -0.247317
0.236387 -0.324774 -0.123248
0.236387 0.372464 0.059838
0.236387 0.189363 0.069912
0.236387 0.781372 0.03239
0.236387 0.805008 -0.048205
0.251832 0.492183 0.103593
0.236387 -0.869778 -0.145219
0.251832 -0.255422 0.07834
0.251832 0.520885 0.171364
0.236387 0.443787 -0.228378
0.236387 -0.134081 -0.118235
0.251832 0.321741 0.053029
0.236387 0.531263 -0.173652
0.251832 0.913375 -0.018893
0.236387 -0.74638 0.068962
0.251832 0.757922 0.007784
0.251832 0.099395 0.075565
0.236387 -0.554132 0.00876
0.236387 -0.776668 0.100687
0.236387 -0.787685 0.029284
0.251832 -0.931287 0.082711
0.251832 0.247108 0.128471
0.236387 -0.453953 0.169837
0.236387 -0.810274 -0.208815
0.251832 0.874888 -0.118234
0.251832 -0.242629 -0.175578
0.236387 -0.268555 -0.245433
0.248617 -0.765646 -0.247317
0.236387 -0.25836 -0.137932
0.251832 0.018427 -0.047986
0.251832 -0.66799 -0.219945
0.251832 -0.631271 -0.045713
0.236387 -0.320619 -0.004828
0.236387 -0.521734 -0.239901
0.251832 0.573078 0.107837
0.251832 -0.17979 0.158621
0.251832 -0.080354 -0.062263
0.236387 -0.207627 -0.05262
0.251832 0.612781 -0.162093
0.251832 -0.49052 0.075208
0.236387 -0.936934 -0.089273
0.236387 -0.577539 0.157524
0.236387 0.81472 0.120802
0.236387 0.070677 0.10662
0.251832 0.319888 -0.007232
0.236387 0.193449 0.117148
0.251832 -0.34685 0.044604
0.236387 0.376757 -0.043307
0.236387 -0.05127 -0.15136
0.251832 -0.770414 0.019268
0.236387 0.092089 0.178743
0.251832 0.617748 -0.058771
0.236387 0.037302 -0.243227
0.236387 0.837061 0.087382
0.236387 0.008575 0.189556
0.251832 -0.357765 -0.189556
0.236387 0.679667 -0.032718
0.236387 0.492214 0.147116
0.236387 -0.36891 -0.148118
0.236387 -0.833045 -0.054629
0.236387 0.769592 -0.051696
0.251832 0.717456 -0.213142
0.251832 0.403405 -0.046948
0.251832 -0.507264 0.148511
0.251832 -0.601577 0.151353
0.236962 -0.537627 0.22632
0.236387 0.345952 0.186415
0.251832 0.268582 -0.064919
0.251832 0.248708 -0.224836
0.251832 0.102258 -0.109404
0.251832 -0.170298 0.136756
0.251832 -0.645871 -0.112421
0.251832 0.90639 -0.193349
0.236387 0.220835 0.14296
0.238222 -0.871209 -0.247317
0.236387 -0.291895 0.216518
0.251832 -0.255134 0.020987
0.236387 -0.060653 -0.06651
0.251832 -0.474142 -0.075154
0.251832 -0.48809 -0.167095
0.236387 -0.391036 0.055199
0.236387 0.010225 0.024328
0.236387 0.060942 0.223461
0.251832 -0.577434 -0.2076
0.251832 0.745215 0.129245
0.251832 -0.010173 -0.142919
0.246051 0.275703 -0.247317
0.236387 0.467293 -0.004838
0.251832 -0.645135 0.135083
0.251832 -0.713144 0.134967
0.236387 -0.453956 -0.231149
0.236387 -0.73048 -0.200885
0.236387 0.472009 -0.156798
0.236387 0.353774 0.09131
0.236387 -0.0017 -0.054376
0.236387 -0.167367 0.196221
0.236387 -0.816904 0.026296
0.236387 -0.386979 -0.16087
0.236387 -0.635174 0.123123
0.236387 0.587428 0.06285
0.236387 0.480489 0.18264
0.251832 -0.343166 0.174522
0.236387 -0.751193 0.005597
0.236387 -0.770744 -0.161209
0.236387 0.733068 -0.114608
0.236387 0.0801 -0.214607
0.251832 0.319698 0.089967
0.251832 0.12935 0.153794
0.251832 0.765412 0.096671
0.251832 0.298362 0.048359
0.251832 0.394603 -0.222813
0.251832 -0.279252 0.003999
0.236387 -0.554806 0.063319
0.251832 0.500463 0.005184
0.251832 0.456534 -0.019508
0.251832 -0.387929 -0.090226
0.236387 -0.283242 -0.129429
0.236387 -0.924709 -0.215128
0.251832 0.335039 0.033713
0.236387 0.258185 0.138051
0.236387 0.405896 0.161695
0.236387 -0.071697 0.085106
0.236387 -0.021793 0.201948
0.236387 0.86135 -0.147685
0.251832 0.253714 -0.098133
0.251832 0.387965 0.131552
0.251832 -0.825184 -0.077396
0.236387 -0.010697 -0.223133
0.236387 0.354185 0.000692
0.251832 -0.716906 0.168262
0.236387 -0.185898 -0.010009
0.242316 -0.040674 -0.247317
0.236387 0.746358 -0.201765
0.236387 0.112951 0.201819
0.251832 -0.946854 0.175653
0.236387 -0.022209 -0.043483
0.251832 -0.535998 -0.218889
0.236387 -0.357737 -0.104517
0.236387 0.156884 0.011941
0.236387 -0.657928 0.104179
0.236387 0.317728 0.126968
0.236387 -0.753354 0.129375
0.251832 -0.11279 0.096505
0.236387 -0.331962 -0.227848
0.236387 -0.057846 0.121532
0.236387 0.091596 -0.19701
0.251832 -0.155089 -0.211883
0.251832 -0.864899 -0.098407
0.251832 0.153522 0.211618
0.236387 0.437205 0.110451
0.249708 -0.811994 -0.247317
0.236387 0.171249 -0.089442
0.236387 -0.646801 0.05399
0.236387 0.062281 -0.106946
0.251832 0.18934 -0.172658
0.251832 0.420728 0.168587
0.251832 0.228065 -0.165982
0.236387 -0.321534 -0.20837
0.251832 -0.723925 -0.116428
0.236387 0.069468 0.066371
0.251832 -0.716707 -0.207713
0.236387 0.900055 0.119577
0.236387 -0.005329 -0.104032
0.236387 -0.809054 0.11536
0.236387 -0.457332 -0.200833
0.236387 -0.754264 -0.126639
0.236387 -0.045307 -0.118748
0.251832 -0.425914 -0.206829
0.251832 -0.327464 0.067607
0.236387 -0.783291 0.181364
0.251832 -0.38519 -0.177344
0.251832 -0.259372 -0.049191
0.236387 0.51956 -0.093904
0.236387 0.151112 -0.08404
0.251832 0.130991 -0.182519
0.251832 -0.852109 -0.152058
0.251832 -0.084774 0.11619
0.251832 0.895602 -0.13982
0.251832 0.417398 0.03474
0.236387 -0.137031 0.10102
0.251832 -0.291126 -0.057799
0.251832 -0.159087 0.158818
0.236387 -0.399681 0.182115
0.236387 0.405744 -0.129458
0.251832 -0.57375 -0.012438
0.251832 -0.336023 0.203155
0.251832 -0.393319 -0.110146
0.236387 -0.839772 0.032806
0.251832 -0.175184 0.113131
0.244023 -0.573428 -0.247317
0.251832 -0.395511 -0.061395
0.251832 -0.805538 0.09164
0.251832 -0.492747 -0.066378
0.251832 -0.087696 -0.172419
0.251832 -0.319299 -0.066438
0.251832 0.698677 0.169654
0.236387 -0.206828 -0.219535
0.236387 0.83878 0.136297
0.236387 0.70374 -0.232586
0.236387 -0.882815 0.19481
0.236387 -0.848552 -0.114421
0.236387 -0.834952 -0.086664
0.236387 0.490346 -0.023063
0.236387 -0.278194 0.105013
0.251832 -0.562553 0.173453
0.251832 -0.326651 0.15474
0.236387 -0.428889 0.024345
0.236387 0.345525 -0.231441
0.236387 0.073923 -0.179642
0.236387 -0.35295 0.078185
0.251832 0.19468 0.136274
0.251832 -0.772876 -0.216894
0.236387 0.829341 0.175486
0.251832 0.588887 0.010287
0.236387 -0.531918 -0.16067
0.251832 -0.509922 -0.022699
0.251832 -0.214173 -0.170721
0.236387 -0.647625 -0.182927
0.251832 0.356708 -0.244809
0.236387 0.569263 -0.10033
0.251832 -0.693794 0.064664
0.251832 -0.234345 -0.097041
0.236387 0.390795 0.144502
0.251832 -0.800065 -0.083351
0.236387 0.476632 -0.12883
0.236387 0.894821 0.006504
0.251832 -0.438925 0.063619
0.236387 0.061589 -0.24164
0.236387 0.105936 -0.134162
0.251832 0.086969 0.112201
0.239376 0.915092 0.003637
0.251832 -0.628633 0.188744
0.251832 -0.518316 -0.142261
0.251832 0.578179 -0.170959
0.236387 0.214354 -0.095164
0.236387 0.813013 0.024352
0.251832 0.35512 -0.204774
0.236387 0.776927 0.174686
0.236387 0.66985 -0.193703
0.251832 0.70024 0.024173
0.251832 -0.748439 -0.046605
0.236387 0.411084 -0.009909
0.236387 -0.560117 -0.22114
0.236387 0.844752 -0.06246
0.236387 0.102884 0.054949
0.251832 -0.40506 -0.07962
0.236387 -0.138268 -0.036645
0.236387 -0.016027 0.121458
0.236387 0.239122 0.044079
0.251832 -0.058602 0.040742
0.236387 0.143191 0.10216
0.251832 -0.641214 0.0265
0.236387 0.069419 0.03301
0.251832 0.744811 -0.137655
0.251832 0.458616 -0.218989
0.251832 0.550179 0.024299
0.237175 0.16163 -0.247317
0.251832 -0.334605 0.107028
0.251832 0.552984 -0.140261
0.236387 -0.270641 0.170262
0.236387 -0.80235 0.154242
0.236387 0.679486 -0.234187
0.236387 0.741903 0.210232
0.236387 0.809534 -0.112405
0.236387 0.235178 -0.067022
0.236387 0.366864 -0.12776
0.251832 0.12017 -0.240789
0.236387 -0.255721 -0.0926
0.251832 -0.818283 -0.014787
0.236387 -0.024388 -0.075615
0.236387 -0.253015 0.033501
0.236387 -0.1815 -0.029812
0.251832 -0.693828 0.015517
0.236387 0.102076 0.112065
0.251832 -0.736636 0.083967
0.236387 -0.935567 0.202237
0.251832 0.884243 0.041256
0.251832 0.173425 0.156762
0.236387 0.695769 0.103189
0.251832 -0.027418 0.013632
0.251832 -0.233254 -0.134022
0.236387 -0.381807 0.222745
0.251832 -0.107655 0.212962
0.251832 -0.586361 -0.042107
0.251832 -0.24127 0.161935
0.236387 0.568487 -0.160811
0.251832 -0.656802 -0.035275
0.236387 0.621999 -0.207299
0.236387 -0.013042 0.018229
0.251832 0.230282 -0.048284
0.236387 0.528741 -0.111501
0.236387 -0.653408 -0.099917
0.251832 -0.85353 0.147375
0.251832 -0.008337 0.060804
0.236387 -0.239923 -0.00799
0.251832 -0.196867 0.117045
0.248918 0.915092 0.032049
0.251832 -0.438042 -0.080124
0.251832 -0.671068 -0.166584
0.236387 -0.791285 -0.183349
0.251832 0.146713 0.060832
0.236387 -0.099403 0.046554
0.251832 -0.487787 0.009223
0.236387 -0.15064 0.082815
0.236387 0.040937 -0.121185
0.251832 0.538982 -0.199573
0.251832 -0.013928 -0.183263
0.236387 0.135539 0.026569
0.251832 0.385241 0.058585
0.251832 0.278396 0.132024
0.251832 0.030027 0.116036
0.251832 -0.120372 -0.20408
0.236387 -0.836447 -0.22519
0.236387 -0.205065 0.070483
0.251832 -0.570121 -0.061016
0.251832 -0.603967 -0.173767
0.236387 0.209128 0.082215
0.236387 0.418926 -0.055874
0.251832 -0.851852 0.091353
0.236387 0.757284 -0.218956
0.236387 -0.579535 -0.110309
0.236387 -0.869545 0.148478
0.251832 0.152828 -0.012887
0.251832 0.664699 0.023535
0.251832 0.734155 -0.099395
0.251832 -0.032575 0.097134
0.236387 -0.141699 -0.086254
0.236387 0.598774 -0.160684
0.251832 0.060013 -0.005431
0.251832 -0.688713 -0.22026
0.251832 0.604026 0.088195
0.251832 0.61563 0.005314
0.251832 -0.604321 -0.104465
0.251832 0.131257 0.102791
0.251832 -0.114641 -0.004869
0.251832 0.641886 -0.068502
0.251832 -0.526768 0.219892
0.236387 0.877105 0.172637
0.236387 0.020112 -0.229161
0.236387 -0.447792 -0.102496
0.251832 -0.53972 0.049971
0.251832 -0.669489 0.134666
0.251832 0.377898 -0.138121
0.236387 0.751472 0.064627
0.251832 0.501308 -0.202366
0.236387 0.784908 -0.217655
0.251832 0.307223 -0.133871
0.236387 0.529125 -0.035039
0.251832 -0.152034 0.130073
0.236387 -0.632221 -0.166086
0.236387 0.669121 0.00622
0.236387 -0.875227 -0.170901
0.251832 -0.306359 -0.004697
0.251832 -0.047222 -0.095704
0.251832 0.39268 -0.176185
0.251832 -0.169096 -0.066138
0.236387 -0.564544 0.21066
0.236387 -0.258846 0.106221
0.236387 0.843018 -0.153973
0.236387 -0.193789 0.199684
0.248766 0.442252 -0.247317
0.236387 0.396555 0.111818
0.236387 0.020765 -0.086107
0.236387 0.202382 -0.032569
0.236387 -0.33389 0.081633
0.236387 0.795124 0.088941
0.251832 -0.54277 -0.200797
0.251832 -0.350874 -0.233195
0.251832 -0.129749 0.207113
0.236387 -0.542971 -0.096965
0.251832 0.049081 0.149349
0.251832 -0.933616 0.032485
0.251832 0.897655 0.104367
0.251832 0.489018 0.030794
0.236387 0.808348 0.055332
0.236387 -0.581858 0.088327
0.251832 -0.776496 0.214617
0.251832 0.717746 0.112528
0.251832 -0.463377 -0.18375
0.251832 -0.288431 -0.110066
0.236387 0.196061 0.02058
0.236387 0.251444 -0.206068
0.251832 -0.338561 -0.078853
0.251832 -0.442176 0.117569
0.251832 -0.018536 0.176323
0.236387 -0.192173 0.153985
0.236387 0.435952 -0.207454
0.251832 -0.652162 -0.16315
0.251832 -0.202491 -0.124178
0.236387 0.44818 -0.031852
0.236387 -0.443962 0.099271
0.236387 0.56695 0.157493
0.236387 0.048409 0.020924
0.251832 0.159632 -0.109269
0.236387 -0.950368 0.012345
0.251832 -0.22724 -0.008819
0.251832 0.163585 0.033562
0.251832 -0.182335 0.009634
0.251832 -0.266916 0.059794
0.251832 -0.296897 -0.158034
0.236387 -0.55587 -0.177574
0.236387 -0.491497 0.106084
0.236387 0.269079 -0.105525
0.236387 -0.406805 -0.15023
0.251832 -0.305908 -0.17592
0.236387 -0.332231 -0.096344
0.236387 0.442224 0.085316
0.236387 -0.60446 -0.071787
0.236387 0.366368 0.193325
0.236387 -0.267353 0.192276
0.236387 0.021147 0.042107
0.251832 0.17508 -0.01212
0.236387 0.690165 -0.170529
0.236387 0.521346 -0.052437
0.236387 0.580878 -0.038134
0.251832 -0.242494 0.112601
0.236387 0.349923 -0.064798
0.236387 0.485362 -0.107516
0.236387 -0.858065 0.055935
0.251832 -0.044091 0.16631
0.236387 -0.547361 -0.017668
0.251832 -0.563703 0.154414
0.251832 -0.706924 -0.042091
0.236387 0.740382 -0.083551
0.251832 -0.739565 -0.210025
0.236387 -0.124091 -0.051935
0.236387 -0.815699 0.204367
0.251832 0.864396 0.085881
0.236387 0.263684 -0.162915
0.251832 -0.0194 -0.025914
0.236387 -0.16237 0.031571
0.251832 0.180537 -0.150397
0.236387 -0.477174 -0.1229
0.236387 0.527773 0.111752
0.251832 -0.582716 -0.121143
0.251832 -0.784172 0.078754
0.236387 -0.474352 0.14611
0.236387 -0.004451 -0.013862
0.236387 0.140539 0.210349
0.236387 -0.153288 -0.106062
0.236387 0.603819 -0.070745
0.236387 0.597825 -0.141246
0.251832 0.770738 -0.098539
0.251832 -0.915701 -0.091763
0.251832 -0.733046 -0.228413
0.251832 -0.104557 0.061105
0.236387 0.322981 0.100312
0.236387 0.043899 -0.034798
0.251832 0.299285 -0.097534
0.251832 0.274007 0.061978
0.251832 0.787128 0.171245
0.251832 -0.212231 0.030261
0.236387 -0.830656 0.113144
0.236387 0.730939 0.104275
0.236387 -0.117462 -0.159074
0.236387 -0.117636 0.082148
0.236387 -0.667299 0.219506
0.236387 -0.092914 0.088489
0.236387 0.713802 0.007222
0.236387 0.83057 -0.10209
0.251832 0.426209 -0.090064
0.251832 -0.11984 -0.18109
0.251832 0.219456 -0.208268
0.236387 -0.520452 -0.091739
0.251832 0.472311 0.105252
0.236387 -0.645652 -0.124124
0.251832 -0.566335 -0.192493
0.236387 -0.090612 0.212639
0.236387 0.014299 -0.13038
0.251832 -0.73765 0.15365
0.236387 0.908982 -0.120817
0.251832 -0.006517 0.106367
0.236387 -0.32045 -0.144686
0.239546 -0.74549 -0.247317
0.236387 -0.28385 0.150429
0.236387 0.652058 0.078808
0.251832 -0.632993 0.055497
0.236387 -0.363999 -0.205452
0.236387 0.13591 -0.204278
0.251832 0.58186 0.162013
0.251832 0.162198 -0.153825
0.236387 -0.53221 0.001955
0.236387 0.09058 0.137352
0.236387 -0.012988 0.18552
0.251832 0.278096 -0.110773
0.251832 -0.763417 -0.177851
0.236387 -0.889915 -0.080028
0.251832 0.078413 -0.050661
0.236387 0.593402 -0.203682
0.236387 0.349612 -0.112176
0.251832 0.360682 0.142697
0.251832 -0.886882 -0.113785
0.236387 -0.736924 -0.082326
0.236387 0.649806 -0.165374
0.251832 0.638111 -0.047079
0.236387 -0.040339 0.044482
0.236387 -0.338018 0.213305
0.251832 -0.296768 -0.129427
0.251832 0.860124 0.132693
0.251832 -0.09492 -0.008727
0.236387 -0.695994 0.195926
0.251832 -0.495124 0.045852
0.251832 -0.146135 0.226029
0.236387 -0.812222 -0.139272
0.251832 -0.884409 -0.231287
0.236387 0.235273 0.180773
0.236387 0.028685 0.141507
0.251832 0.793271 0.189529
0.251832 -0.164219 0.220837
0.251832 0.160065 -0.079278
0.251832 -0.359175 -0.151012
0.236387 -0.667463 0.181587
0.251832 -0.144048 0.110131
0.236387 0.876316 0.111882
0.236387 0.776041 -0.089989
0.251832 -0.63498 -0.216997
0.236387 0.288929 0.128887
0.236387 0.448858 -0.138165
0.251832 -0.237707 0.181504
0.251832 0.836307 -0.239057
0.236387 -0.910628 -0.125226
0.251832 -0.506572 0.194494
0.251832 -0.412261 -0.179272
0.251832 -0.656753 0.091632
0.251832 0.367987 -0.027189
0.236387 0.740491 0.044077
0.236387 0.722279 -0.062096
-0.242398 0.159426 -0.245972
-0.242398 -0.453814 -0.046552
-0.227871 0.731871 -0.247317
-0.242398 -0.825284 -0.126626
-0.242398 -0.140872 -0.006661
-0.226953 0.165823 0.040689
-0.242398 0.702622 0.028675
-0.234475 -0.612031 -0.247317
-0.233535 -0.333563 -0.247317
-0.242398 0.361838 -0.069494
-0.242398 -0.063196 -0.215097
-0.242398 -0.775478 0.14482
-0.242398 -0.657453 -0.018548
-0.242398 0.542427 -0.174289
-0.226953 -0.303878 0.058174
-0.242398 -3.9e-05 0.100653
-0.240783 0.902483 -0.247317
-0.226953 0.044447 -0.084307
-0.242398 -0.52875 0.122752
-0.226953 -0.158164 0.168004
-0.242398 0.371957 -0.242193
-0.242398 0.515521 -0.010736
-0.226953 -0.280118 -0.099201
-0.226953 0.773709 -0.102281
-0.242398 -0.471775 -0.198701
-0.242398 0.208393 -0.111272
-0.226953 -0.832385 0.013763
-0.242398 0.309671 0.0587
-0.242398 0.105996 0.195587
-0.230776 -0.884631 -0.247317
-0.240028 0.915092 0.093427
-0.242398 -0.946147 0.097661
-0.226953 -0.697857 -0.147369
-0.226953 -0.571873 -0.113275
-0.226953 0.646317 -0.103768
-0.242398 -0.654291 0.115136
-0.242398 -0.946818 -0.035162
-0.226953 -0.404625 0.135422
-0.230855 -0.759724 -0.247317
-0.242398 0.20863 0.140228
-0.226953 0.412537 0.033026
-0.242398 -0.032285 -0.001116
-0.236472 0.619929 -0.247317
-0.226953 -0.556273 0.010621
-0.242398 -0.941843 -0.16089
-0.242398 -0.378335 -0.125023
-0.226953 0.318969 0.159163
-0.242398 -0.256579 0.152174
-0.242398 -0.758958 -0.052487
-0.226953 -0.398672 0.033699
-0.226953 0.270328 -0.038078
-0.227152 0.480815 -0.247317
-0.226953 0.61001 -0.000704
-0.226953 0.101927 -0.161056
-0.238316 -0.678869 0.22632
-0.242398 -0.194295 0.080383
-0.242398 -0.879581 0.171282
-0.242398 -0.187978 -0.091434
-0.242398 0.817198 -0.210158
-0.242398 0.074521 0.039798
-0.242398 -0.248231 -0.014515
-0.226953 -0.067174 0.193052
-0.242398 0.129762 -0.062029
-0.242398 0.560804 -0.086742
-0.242398 -0.257861 -0.187948
-0.242398 -0.548724 0.213036
-0.241424 0.246401 -0.247317
-0.226953 -3.7e-05 -0.157167
-0.226953 -0.332748 -0.021668
-0.242398 0.849353 0.156771
-0.226953 0.356719 -0.151863
-0.242398 -0.142071 -0.196393
-0.226953 0.012861 0.180435
-0.226953 -0.858264 0.095609
-0.242398 -0.0428 -0.079464
-0.226953 0.127888 0.109809
-0.242398 0.286212 -0.1162
-0.226953 -0.812599 0.221885
-0.242398 -0.898406 -0.09908
-0.242398 -0.337104 0.164468
-0.226953 -0.904913 0.027568
-0.242398 0.627539 -0.17419
-0.242398 -0.587846 0.075343
-0.242195 -0.202054 0.22632
-0.242398 -0.688033 -0.236669
-0.242398 0.007934 -0.240814
-0.242398 -0.62356 -0.162005
-0.226953 0.177357 -0.1775
-0.242398 -0.611031 0.171968
-0.226953 -0.639721 -0.091192
-0.242398 -0.773941 0.052424
-0.226953 -0.485806 0.176806
-0.226953 0.643339 0.066357
-0.242398 0.894451 -0.105763
-0.242398 -0.536117 -0.054597
-0.242398 0.245819 0.025555
-0.242398 0.819626 0.093206
-0.242398 -0.461401 0.099271
-0.242398 0.312273 -0.204798
-0.242398 0.17284 0.216587
-0.226953 -0.339236 -0.179652
-0.226953 -0.660862 0.047791
-0.242398 -0.830372 -0.20781
-0.242398 -0.562962 -0.199791
-0.226953 -0.764035 -0.160771
-0.242398 0.38418 0.167322
-0.242398 0.189734 -0.020333
-0.242398 0.351544 0.006124
-0.242398 0.033004 -0.016892
-0.242398 -0.948213 -0.230471
-0.226953 0.262006 0.103537
-0.242398 0.243466 -0.181237
-0.242398 -0.947547 0.174127
-0.226953 -0.854828 -0.047869
-0.242398 -0.406772 -0.19043
-0.242398 0.572128 0.049775
-0.226953 0.662382 -0.039373
-0.242398 0.452439 0.089611
-0.226953 -0.719959 0.102404
-0.242398 -0.361956 0.084357
-0.242398 0.775026 -0.015386
-0.242398 -0.444954 -0.125165
-0.242398 0.708977 -0.096059
-0.242398 -0.458682 0.025807
-0.242398 -0.508192 -0.119055
-0.242398 0.254462 0.181998
-0.242398 -0.513842 0.053449
-0.226953 0.062338 0.143578
-0.242398 0.066865 -0.209229
-0.226953 -0.882449 -0.165513
-0.242398 -0.393267 -0.035733
-0.242398 0.459633 -0.110628
-0.242398 -0.059274 -0.154365
-0.226953 -0.054026 0.133775
-0.226953 0.47889 0.194215
-0.242398 0.871026 0.052219
-0.226953 0.907046 -0.188863
-0.23679 -0.26287 -0.247317
-0.226953 0.113273 -0.002328
-0.242398 0.402759 -0.190206
-0.242398 -0.179584 -0.246654
-0.226953 0.152478 -0.121203
-0.226953 -0.23038 -0.129533
-0.242398 0.206953 0.077976
-0.226953 -0.334308 -0.079233
-0.226953 -0.703849 -0.049661
-0.242398 -0.0445 0.054548
-0.241054 -0.531644 -0.247317
-0.242398 -0.253603 0.095487
-0.242398 0.838017 -0.121442
-0.226953 -0.42857 0.194187
-0.226953 -0.194585 -0.023425
-0.242398 0.458183 -0.018565
-0.226953 0.608033 -0.0566
-0.226953 -0.146468 0.053715
-0.226953 0.510497 -0.06942
-0.242398 -0.172017 -0.144393
-0.226953 0.873287 -0.000681
-0.226953 0.770199 -0.187638
-0.226953 -0.827729 0.140373
-0.242398 -0.592904 -0.0261
-0.242398 -0.721495 -0.194234
-0.242398 -0.736342 -0.112944
-0.242398 -0.197282 -0.195802
-0.242398 -0.807363 -0.075452
-0.226953 -0.668342 0.17534
-0.242081 -0.105583 -0.247317
-0.242398 -0.209514 0.025243
-0.242398 0.425426 -0.238326
-0.226953 0.010983 0.028587
-0.242398 0.223341 -0.060813
-0.226953 -0.784326 -0.007487
-0.226953 -0.293063 0.190764
-0.226953 0.092975 -0.103172
-0.226953 -0.234228 -0.073241
-0.232863 -0.952861 0.046994
-0.226953 -0.210573 0.133594
-0.233396 -0.385608 -0.247317
-0.242398 -0.808253 0.090845
-0.242398 -0.119453 -0.150299
-0.226953 0.077348 -0.038682
-0.226953 -0.256708 0.037015
-0.226953 -0.528983 -0.162951
-0.242398 0.104017 -0.244001
-0.226953 -0.609129 0.019546
-0.240329 -0.457149 -0.247317
-0.242398 -0.110352 0.13537
-0.240343 0.539924 -0.247317
-0.242398 -0.137589 -0.092086
-0.242398 0.04771 -0.152666
-0.242398 0.162309 0.159824
-0.226953 -0.911116 0.135326
-0.242398 0.674285 -0.15632
-0.242398 0.408397 0.123618
-0.242398 0.560212 -0.033024
-0.242398 -0.080179 -0.014295
-0.226953 -0.418817 0.079055
-0.226953 -0.21935 0.182323
-0.242398 0.206099 -0.218737
-0.226953 -0.549911 0.16616
-0.242398 0.805279 -0.067894
-0.226953 -0.401425 -0.084579
-0.242398 0.742456 -0.136805
-0.242398 -0.891089 -0.01685
-0.242398 0.345254 0.113565
-0.242398 -0.653544 -0.20055
-0.226953 -0.000287 -0.061122
-0.226953 -0.377766 0.193239
-0.242398 0.493155 -0.145867
-0.226953 0.324337 -0.043728
-0.242398 -0.314823 0.122045
-0.242398 0.459127 -0.190228
-0.232433 0.915092 0.021562
-0.226953 0.304599 -0.160707
-0.242398 0.594505 -0.207894
-0.242398 -0.294828 0.001777
-0.242398 -0.151775 0.100226
-0.242398 0.859331 -0.074692
-0.242398 -0.5928 -0.074411
-0.242398 -0.909494 -0.199947
-0.242398 0.738116 0.118764
-0.242398 0.655255 0.024355
-0.242398 0.728916 -0.009322
-0.226953 -0.765925 0.10059
-0.22748 -0.812265 -0.247317
-0.242398 0.389914 0.076211
-0.226953 -0.115635 0.193701
-0.226953 0.063158 0.193554
-0.226953 0.059076 0.079659
-0.226953 -0.907301 0.079894
-0.242398 -0.16381 -0.053248
-0.242398 0.122648 0.067725
-0.226953 -0.276473 -0.149896
-0.242398 0.402077 -0.145192
-0.242398 -0.271426 -0.053143
-0.226953 -0.35454 0.040213
-0.242398 -0.766301 0.199932
-0.242398 0.833357 -0.0125
-0.242398 0.756886 0.040562
-0.242398 -0.872149 0.056467
-0.226953 0.230984 -0.01669
-0.242398 0.168624 0.103749
-0.226953 -0.295111 -0.219218
-0.226953 -0.613468 0.118673
-0.242398 -0.020319 -0.192589
-0.226953 0.215072 0.192673
-0.226953 -0.547523 0.081231
-0.242398 0.718966 0.069938
-0.226953 0.118682 0.157171
-0.242398 0.876556 -0.145161
-0.242398 -0.804354 0.177028
-0.242398 0.443168 0.166535
-0.242398 0.526729 0.050055
-0.229216 0.051712 -0.247317
-0.242398 -0.700806 0.051609
-0.232526 0.83639 -0.247317
-0.242398 0.88111 0.124076
-0.242398 0.430507 -0.06614
-0.242398 -0.363677 -0.211704
-0.231298 -0.588904 0.22632
-0.242398 0.298651 -0.07421
-0.242398 0.778371 0.104359
-0.226953 -0.008453 -0.115318
-0.242398 0.773306 -0.227105
-0.242398 -0.08576 -0.074146
-0.226953 0.516886 -0.212209
-0.242398 0.267246 0.064472
-0.226953 0.183979 -0.06112
-0.242398 -0.675644 -0.107264
-0.242398 -0.855794 -0.097433
-0.226953 -0.322376 -0.141012
-0.226953 -0.602808 -0.195253
-0.242398 -0.630158 0.072117
-0.226953 -0.002248 0.139752
-0.242398 0.587011 -0.16296
-0.242398 -0.523651 -0.01062
-0.226953 0.290904 0.197665
-0.242398 -0.03347 -0.246295
-0.242398 0.798217 -0.134021
-0.242398 -0.064223 0.094191
-0.242398 0.545978 -0.126201
-0.226953 -0.445069 0.144808
-0.226953 -0.774516 -0.117341
-0.226953 -0.068751 -0.108561
-0.242398 0.284087 0.143244
-0.242398 0.684496 -0.206223
-0.242398 0.413176 -0.02528
-0.226953 -0.760183 -0.201796
-0.226953 -0.49558 0.015052
-0.242398 -0.681522 0.014701
-0.242398 -0.838747 -0.167642
-0.242398 0.50733 0.162936
-0.242398 0.764676 -0.05498
-0.242398 -0.377998 0.002137
-0.226953 -0.027998 0.182113
-0.242398 -0.666141 -0.064435
-0.226953 -0.174374 0.012015
-0.242398 0.205948 0.018258
-0.242398 0.46467 0.131881
-0.242398 0.730202 -0.179275
-0.242398 -0.106184 0.022083
-0.242398 0.140818 -0.1724
-0.242398 0.513814 0.205663
-0.242398 0.507214 -0.105955
-0.226953 0.273687 -0.201983
-0.226953 -0.899065 -0.062471
-0.242398 -0.913603 0.21979
-0.242398 0.487953 0.058608
-0.226953 0.062789 0.005204
-0.226953 -0.505107 0.088764
-0.226953 -0.584264 0.14523
-0.226953 -0.80125 -0.173581
-0.231735 -0.952861 0.134793
-0.226953 -0.932179 -0.000389
-0.226953 0.030128 -0.21272
-0.242398 0.546971 0.012261
-0.226953 -0.005085 0.064018
-0.242398 -0.829651 -0.022549
-0.226953 0.207975 -0.153665
-0.242398 -0.587221 -0.148539
-0.242398 0.146275 -0.015488
-0.242398 0.623428 -0.130917
-0.242398 0.028825 -0.119087
-0.242398 0.348307 0.181058
-0.242398 -0.740337 0.070675
-0.226953 0.617979 0.037769
-0.242398 -0.663153 -0.143883
-0.226953 0.145107 0.190166
-0.226953 -0.684526 0.088579
-0.226953 0.255596 -0.145531
-0.226953 -0.425749 -0.230682
-0.242398 0.156834 -0.208121
-0.226953 -0.460296 0.064641
-0.242398 0.402291 -0.096619
-0.226953 -0.838866 0.176843
-0.242398 0.694879 0.099015
-0.242398 -0.229272 0.066223
-0.226953 -0.423469 -0.019538
-0.226953 -0.464762 -0.097385
-0.226953 0.609138 -0.099877
-0.242398 -0.466922 0.205062
-0.226953 0.583918 -0.247099
-0.242398 -0.326173 0.021979
-0.242398 -0.867327 -0.204662
-0.242398 0.095853 0.132354
-0.226953 -0.183216 0.19534
-0.242398 0.841327 0.030127
-0.242398 -0.419651 -0.1521
-0.242398 0.352361 -0.105212
-0.242398 -0.875243 -0.128846
-0.242398 0.786485 0.141843
-0.242398 -0.360416 -0.052403
-0.242398 -0.911995 -0.139316
-0.242398 0.908327 0.198432
-0.242398 0.379351 0.035147
-0.242398 0.412715 0.190234
-0.226953 -0.008319 -0.02398
-0.226953 0.114933 -0.209474
-0.226953 -0.465787 -0.006534
-0.242398 0.887117 0.162631
-0.242398 -0.325493 0.08425
-0.226953 -0.800318 -0.043193
-0.242398 0.807664 0.17989
-0.226953 -0.368536 0.154707
-0.226953 -0.645488 0.014863
-0.242398 0.457581 -0.15319
-0.226953 -0.06282 -0.042198
-0.242398 -0.254679 0.192992
-0.226953 -0.076923 0.059639
-0.242398 -0.193727 0.161736
-0.226953 -0.289362 0.15252
-0.242398 -0.226067 -0.170719
-0.226953 -0.304114 -0.053018
-0.226953 -0.875371 0.130067
-0.226953 -0.570132 0.043927
-0.226953 0.344646 -0.185852
-0.226953 -0.871828 0.206732
-0.242398 0.371698 -0.023764
-0.226953 0.559917 -0.201707
-0.242398 -0.332914 0.208688
-0.242398 0.706553 -0.140538
-0.242398 -0.740444 -0.021708
-0.226953 0.238522 -0.089468
-0.239792 0.915092 -0.155457
-0.242398 0.436481 0.054693
-0.242398 0.676354 -0.068431
-0.227199 -0.849064 -0.247317
-0.242398 0.59582 0.077766
-0.242398 0.353446 0.064615
-0.226953 -0.743481 0.143898
-0.226953 -0.753705 -0.083937
-0.242398 -0.146704 0.200669
-0.242398 -0.605773 -0.107284
-0.242398 0.304204 0.093606
-0.226953 -0.284052 0.114121
