0.074972 -0.351979 0.826614979184529
-0.098784 -0.286069 0.779947979184529
0.556366 -0.360997 0.836259979184529
-0.29765 -0.408142 0.779947979184529
-0.41738 -0.073204 0.8372699791845291
0.418932 -0.463811 0.8126889791845291
-0.026261 -0.149756 0.779947979184529
0.203085 -0.130886 0.8126889791845291
-0.326245 -0.488237 0.8126889791845291
-0.509298 -0.17543 0.836263979184529
-0.197801 -0.236057 0.8126889791845291
-0.374987 -0.306918 0.779947979184529
-0.381428 -0.490952 0.779971979184529
0.350492 -0.414466 0.779947979184529
0.20289 -0.36968 0.779947979184529
-0.116994 -0.228119 0.8126889791845291
0.019089 -0.426137 0.826614979184529
-0.421646 -0.502931 0.837558979184529
0.434501 -0.173194 0.779947979184529
-0.118622 -0.128992 0.836716979184529
0.294847 -0.256514 0.779947979184529
-0.05613 -0.403512 0.826614979184529
-0.092237 -0.381281 0.8144109791845291
0.394203 -0.40974 0.779947979184529
-0.347425 -0.261094 0.779947979184529
0.608717 -0.323876 0.826126979184529
-0.416644 -0.450909 0.779947979184529
0.221655 -0.226367 0.779947979184529
-0.107011 -0.455763 0.779947979184529
0.242808 -0.307166 0.8126889791845291
-0.227213 -0.132051 0.837117979184529
0.300944 -0.349299 0.8144109791845291
-0.297086 -0.457928 0.826614979184529
0.028297 -0.158104 0.779947979184529
-0.430262 -0.141714 0.791528979184529
-0.152706 -0.300146 0.826614979184529
0.008907 -0.35062 0.826614979184529
-0.193432 -0.392629 0.8144109791845291
0.432299 -0.436787 0.779947979184529
-0.363006 -0.436384 0.826614979184529
-0.031817 -0.299888 0.8126889791845291
0.446084 -0.076549 0.837296979184529
-0.135065 -0.341084 0.779947979184529
-0.071124 -0.32983 0.826614979184529
0.004751 -0.463339 0.8126889791845291
0.417108 -0.307684 0.8126889791845291
0.445007 -0.12581 0.836460979184529
-0.235102 -0.168112 0.8126889791845291
0.332853 -0.351213 0.779947979184529
0.213858 -0.168423 0.8363359791845291
0.257308 -0.353684 0.779947979184529
0.099326 -0.466128 0.8144109791845291
-0.240095 -0.490952 0.789288979184529
-0.348357 -0.130016 0.836832979184529
-0.385569 -0.346646 0.826614979184529
-0.084545 -0.431739 0.8144109791845291
0.090799 -0.281884 0.779947979184529
-0.262414 -0.31766 0.779947979184529
0.176792 -0.099612 0.836271979184529
0.591445 -0.285754 0.8362789791845291
0.138121 -0.468452 0.826614979184529
-0.152065 -0.45817 0.8144109791845291
0.135226 -0.166734 0.843432979184529
0.443765 -0.391343 0.826614979184529
-0.347458 -0.20602 0.8144109791845291
0.007619 -0.206666 0.826614979184529
-0.475976 -0.122175 0.8126889791845291
-0.1308 -0.370503 0.826614979184529
0.021109 -0.245098 0.8126889791845291
0.164361 -0.364855 0.826614979184529
-0.262094 -0.53125 0.8126889791845291
-0.324449 -0.219672 0.779947979184529
0.03396 -0.2139 0.779947979184529
-0.131404 -0.193305 0.826614979184529
-0.520003 -0.434895 0.8362699791845289
0.308382 -0.307441 0.826614979184529
0.252897 -0.490952 0.7850289791845291
0.375048 -0.36866 0.826614979184529
0.501079 -0.127389 0.8126889791845291
0.37213 -0.166939 0.8126889791845291
-0.509119 -0.345906 0.836263979184529
-0.168589 -0.180723 0.779947979184529
-0.116097 -0.509522 0.836685979184529
-0.427106 -0.539327 0.8126889791845291
0.24341 -0.186204 0.8144109791845291
-0.497541 -0.249926 0.836541979184529
0.482379 -0.150044 0.779947979184529
-0.088422 -0.111601 0.8126889791845291
0.340053 -0.231561 0.8144109791845291
0.56291 -0.47036 0.8126889791845291
0.439851 -0.490766 0.840347979184529
-0.546334 -0.567342 0.834382979184529
-0.077464 -0.201714 0.8126889791845291
0.213977 -0.503812 0.8126889791845291
0.007131 -0.306094 0.8126889791845291
0.480794 -0.160671 0.845214979184529
-0.279115 -0.39432 0.826614979184529
-0.15201 -0.440478 0.779947979184529
-0.065963 -0.446137 0.779947979184529
-0.287349 -0.240926 0.826614979184529
0.122993 -0.250841 0.779947979184529
0.266465 -0.538964 0.8126889791845291
-0.506735 -0.393717 0.8362629791845291
-0.234327 -0.252526 0.8126889791845291
0.375633 -0.32575 0.8144109791845291
-0.397985 -0.380665 0.8144109791845291
0.214438 -0.342487 0.8144109791845291
0.309523 -0.262911 0.8144109791845291
-0.032001 -0.472924 0.8126889791845291
0.356946 -0.511807 0.836501979184529
0.464485 -0.25857 0.826614979184529
-0.047935 -0.250861 0.8144109791845291
-0.416824 -0.255025 0.8126889791845291
-0.394055 -0.197773 0.779947979184529
-0.135308 -0.386211 0.779947979184529
0.282611 -0.141887 0.779947979184529
0.595679 -0.516251 0.8126889791845291
0.353862 -0.164287 0.779947979184529
0.347009 -0.548035 0.836277979184529
0.087063 -0.421494 0.826614979184529
0.071532 -0.119832 0.8362619791845289
0.108476 -0.147399 0.8126889791845291
0.288113 -0.382185 0.826614979184529
-0.488206 -0.458469 0.837730979184529
-0.071841 -0.144553 0.779947979184529
0.357815 -0.088627 0.8126889791845291
-0.307051 -0.290339 0.8144109791845291
0.088916 -0.228506 0.8126889791845291
0.306953 -0.129088 0.836724979184529
0.132509 -0.405371 0.779947979184529
-0.367582 -0.154025 0.8126889791845291
0.230975 -0.125854 0.836463979184529
-0.18207 -0.555258 0.8126889791845291
-0.246246 -0.312395 0.8126889791845291
-0.268541 -0.356673 0.8144109791845291
0.379247 -0.23938 0.8126889791845291
-0.229844 -0.357809 0.779947979184529
0.234402 -0.473239 0.8447829791845289
0.073841 -0.180992 0.8126889791845291
0.173351 -0.333186 0.779947979184529
-0.190931 -0.127392 0.836587979184529
0.049632 -0.398326 0.779947979184529
0.166638 -0.404759 0.826614979184529
0.429165 -0.183865 0.8144109791845291
-0.464889 -0.208189 0.8126889791845291
0.467014 -0.194486 0.8144109791845291
-0.438094 -0.166334 0.843831979184529
0.509803 -0.418246 0.8144109791845291
0.147628 -0.294747 0.826614979184529
-0.391172 -0.118502 0.8126889791845291
-0.24359 -0.191709 0.779947979184529
0.083667 -0.290525 0.8144109791845291
0.274741 -0.229735 0.8144109791845291
0.15251 -0.225286 0.779947979184529
-0.277709 -0.490952 0.807259979184529
0.209938 -0.459404 0.8126889791845291
0.205055 -0.435408 0.779947979184529
0.2857 -0.186595 0.8126889791845291
0.043394 -0.161758 0.8126889791845291
0.34753 -0.485677 0.8126889791845291
0.386601 -0.151237 0.8416099791845291
0.444993 -0.256022 0.779947979184529
0.007968 -0.508225 0.8126889791845291
-0.206055 -0.199654 0.8144109791845291
-0.470635 -0.264794 0.8126889791845291
0.549714 -0.212061 0.836798979184529
0.58838 -0.47829 0.836276979184529
0.421584 -0.56703 0.814469979184529
0.235536 -0.273761 0.826614979184529
0.299436 -0.213714 0.779947979184529
0.275287 -0.321261 0.8144109791845291
-0.372559 -0.479144 0.8126889791845291
-0.05053 -0.413569 0.779947979184529
-0.358789 -0.289133 0.826614979184529
-0.17961 -0.243218 0.779947979184529
0.332819 -0.128284 0.8126889791845291
0.180968 -0.172277 0.8126889791845291
-0.535704 -0.349971 0.8126889791845291
0.221128 -0.410032 0.8144109791845291
0.376393 -0.420595 0.8144109791845291
-0.391281 -0.415695 0.826614979184529
-0.324733 -0.472144 0.844186979184529
0.420846 -0.239736 0.8144109791845291
0.379028 -0.46846 0.8126889791845291
0.155334 -0.14891 0.8126889791845291
0.316925 -0.447572 0.8126889791845291
-0.295916 -0.347154 0.779947979184529
-0.544207 -0.521889 0.836187979184529
-0.166389 -0.370748 0.779947979184529
-0.098921 -0.463197 0.8126889791845291
-0.411323 -0.387242 0.779947979184529
-0.127246 -0.281603 0.8126889791845291
0.605047 -0.251207 0.837296979184529
0.260715 -0.464278 0.8144109791845291
0.328547 -0.192703 0.8126889791845291
-0.55359 -0.457469 0.820435979184529
-0.519631 -0.26436 0.8126889791845291
0.438709 -0.472339 0.779947979184529
-0.185027 -0.155574 0.8126889791845291
0.558144 -0.284185 0.8126889791845291
-0.147079 -0.145441 0.779947979184529
-0.328907 -0.321899 0.779947979184529
0.134362 -0.348724 0.826614979184529
-0.314895 -0.196206 0.8126889791845291
-0.313058 -0.333192 0.8126889791845291
0.250292 -0.378689 0.8126889791845291
0.056932 -0.508934 0.836732979184529
-0.030972 -0.349681 0.779947979184529
0.30065 -0.156316 0.8126889791845291
-0.12672 -0.181984 0.779947979184529
-0.174708 -0.425312 0.826614979184529
0.351437 -0.300909 0.8144109791845291
-0.452698 -0.086905 0.8362789791845291
0.027029 -0.25453 0.779947979184529
-0.40662 -0.158803 0.8126889791845291
0.303327 -0.446679 0.779947979184529
-0.54599 -0.206087 0.8126889791845291
0.484877 -0.472329 0.8126889791845291
-0.426902 -0.250465 0.779947979184529
0.471198 -0.545965 0.8126889791845291
0.516429 -0.182374 0.8126889791845291
-0.417888 -0.098617 0.8126889791845291
-0.231063 -0.402251 0.8144109791845291
-0.37921 -0.501098 0.837905979184529
-0.185614 -0.32935 0.8126889791845291
0.279095 -0.294092 0.779947979184529
-0.279182 -0.172026 0.779947979184529
0.420296 -0.148636 0.8126889791845291
-0.160271 -0.392965 0.8144109791845291
0.137404 -0.178901 0.8126889791845291
0.437785 -0.272374 0.8126889791845291
-0.209194 -0.323051 0.779947979184529
-0.054541 -0.44639 0.8126889791845291
0.155291 -0.439274 0.826614979184529
0.046884 -0.287001 0.779947979184529
0.121922 -0.23016 0.8126889791845291
0.559396 -0.545802 0.836275979184529
0.538423 -0.405963 0.8387219791845291
0.121423 -0.33719 0.779947979184529
0.511855 -0.208178 0.842159979184529
0.070286 -0.141714 0.803269979184529
-0.235333 -0.459642 0.8144109791845291
0.467545 -0.124874 0.8126889791845291
0.515421 -0.299336 0.845151979184529
0.049311 -0.432062 0.8144109791845291
0.5986 -0.418448 0.834160979184529
-0.063078 -0.290624 0.8126889791845291
0.55725 -0.448628 0.836260979184529
0.240433 -0.105741 0.8126889791845291
0.387839 -0.293527 0.8126889791845291
-0.014001 -0.382076 0.826614979184529
-0.06375 -0.360034 0.8144109791845291
-0.286281 -0.154349 0.842693979184529
0.289624 -0.356357 0.779947979184529
-0.146859 -0.307402 0.779947979184529
-0.185725 -0.533383 0.8362699791845289
-0.04764 -0.183407 0.826614979184529
-0.527477 -0.552799 0.8126889791845291
-0.095877 -0.318063 0.779947979184529
-0.086742 -0.496956 0.8387409791845291
0.072481 -0.552479 0.8126889791845291
-0.455942 -0.327089 0.8379499791845291
0.53701 -0.247365 0.8126889791845291
-0.32903 -0.403313 0.779947979184529
0.12518 -0.490952 0.798953979184529
-0.510192 -0.457179 0.8126889791845291
0.192908 -0.492599 0.839863979184529
-0.017305 -0.23536 0.826614979184529
-0.331523 -0.384557 0.8144109791845291
-0.129596 -0.084676 0.8360659791845291
0.449415 -0.287145 0.779947979184529
0.20996 -0.254563 0.8126889791845291
0.514336 -0.510395 0.836614979184529
0.267025 -0.138617 0.838226979184529
-0.348991 -0.44996 0.779947979184529
-0.045649 -0.150783 0.841460979184529
0.584147 -0.213155 0.836274979184529
0.051299 -0.233079 0.8144109791845291
0.04691 -0.285085 0.8126889791845291
-0.481443 -0.519453 0.8362619791845289
-0.153191 -0.489221 0.8126889791845291
0.417633 -0.211309 0.826614979184529
0.038729 -0.342009 0.826614979184529
0.336608 -0.486808 0.841634979184529
-0.120945 -0.397189 0.8144109791845291
0.181168 -0.213598 0.779947979184529
-0.04501 -0.279593 0.779947979184529
0.18043 -0.526587 0.836265979184529
-0.345502 -0.357061 0.8144109791845291
-0.074905 -0.232337 0.8126889791845291
0.142241 -0.392415 0.8126889791845291
-0.267142 -0.142193 0.8126889791845291
0.505667 -0.143999 0.839461979184529
-0.10706 -0.18137 0.8126889791845291
0.250104 -0.216604 0.826614979184529
-0.069483 -0.108237 0.836267979184529
-0.2233 -0.291543 0.8126889791845291
-0.160292 -0.226593 0.8144109791845291
-0.103483 -0.490952 0.8007859791845291
0.290504 -0.526357 0.836265979184529
0.017925 -0.141714 0.803211979184529
0.438359 -0.331822 0.8144109791845291
-0.352948 -0.502446 0.8126889791845291
0.192779 -0.202318 0.826614979184529
0.552417 -0.309773 0.836562979184529
0.263307 -0.168423 0.832779979184529
-0.299936 -0.567348 0.8248349791845291
0.413427 -0.490952 0.800673979184529
0.354802 -0.197645 0.826614979184529
0.411483 -0.313463 0.779947979184529
0.373074 -0.137045 0.8126889791845291
0.071722 -0.4697 0.839040979184529
0.138432 -0.255022 0.8126889791845291
-0.136752 -0.242116 0.779947979184529
0.249023 -0.454678 0.779947979184529
-0.024547 -0.449132 0.779947979184529
-0.113374 -0.209983 0.779947979184529
-0.110046 -0.366801 0.779947979184529
0.018205 -0.37645 0.8144109791845291
0.325103 -0.186114 0.779947979184529
-0.455942 -0.176984 0.813197979184529
-0.490555 -0.567348 0.833128979184529
0.090108 -0.311406 0.779947979184529
0.185961 -0.566256 0.836797979184529
-0.140334 -0.332565 0.8126889791845291
-0.148007 -0.130492 0.8368989791845289
-0.004046 -0.490952 0.792135979184529
0.266176 -0.119934 0.8126889791845291
-0.257754 -0.461433 0.779947979184529
0.426097 -0.368005 0.8144109791845291
-0.14224 -0.495279 0.839156979184529
0.589049 -0.302919 0.8126889791845291
-0.211413 -0.32329 0.826614979184529
-0.044177 -0.507738 0.8126889791845291
-0.368467 -0.31867 0.8144109791845291
-0.307633 -0.380725 0.779947979184529
-0.211715 -0.118394 0.8126889791845291
-0.344326 -0.263838 0.826614979184529
-0.44925 -0.382015 0.826614979184529
0.510673 -0.447218 0.8144109791845291
0.077881 -0.492176 0.8126889791845291
0.196346 -0.251772 0.779947979184529
0.254012 -0.25028 0.779947979184529
-0.55359 -0.252106 0.825486979184529
-0.074942 -0.269768 0.779947979184529
0.246276 -0.25086 0.8126889791845291
0.266735 -0.407733 0.8144109791845291
-0.506323 -0.317248 0.8362629791845291
-0.510029 -0.277641 0.836264979184529
-0.427039 -0.219556 0.826614979184529
-0.199588 -0.421782 0.8126889791845291
0.283098 -0.451292 0.826614979184529
-0.294802 -0.440155 0.779947979184529
-0.455988 -0.484271 0.8126889791845291
0.056234 -0.490952 0.783226979184529
0.221317 -0.20448 0.8126889791845291
0.222152 -0.154985 0.8126889791845291
-0.331152 -0.499692 0.838188979184529
0.072493 -0.324076 0.8126889791845291
-0.371887 -0.189688 0.8144109791845291
0.213303 -0.528608 0.836266979184529
0.342361 -0.164992 0.8126889791845291
-0.383146 -0.388574 0.779947979184529
0.100173 -0.348643 0.8144109791845291
-0.193462 -0.263859 0.8144109791845291
0.065464 -0.402931 0.826614979184529
-0.167038 -0.565997 0.8369429791845291
-0.128347 -0.473152 0.8126889791845291
-0.231136 -0.264177 0.779947979184529
0.468668 -0.238226 0.779947979184529
0.122487 -0.376872 0.779947979184529
-0.309794 -0.512925 0.8126889791845291
0.469824 -0.335886 0.779947979184529
-0.295963 -0.425155 0.8126889791845291
-0.027042 -0.403524 0.8144109791845291
0.177559 -0.4697 0.835809979184529
-0.540619 -0.331842 0.833230979184529
-0.346208 -0.454917 0.8144109791845291
-0.220603 -0.483187 0.8126889791845291
-0.266481 -0.197259 0.8126889791845291
-0.411968 -0.495188 0.8126889791845291
-0.227853 -0.373566 0.8144109791845291
0.310553 -0.474593 0.8126889791845291
0.256414 -0.381427 0.779947979184529
0.538291 -0.309996 0.8126889791845291
-0.199569 -0.482212 0.8433129791845291
0.339599 -0.137254 0.837951979184529
-0.439119 -0.265071 0.826614979184529
-0.157614 -0.180808 0.8144109791845291
-0.246865 -0.344872 0.826614979184529
0.526136 -0.554124 0.833988979184529
-0.092787 -0.312941 0.826614979184529
-0.010084 -0.488645 0.841031979184529
0.564951 -0.416876 0.836264979184529
0.457864 -0.470075 0.841357979184529
0.023275 -0.285119 0.826614979184529
-0.245339 -0.164353 0.779947979184529
-0.019739 -0.186477 0.8126889791845291
0.126119 -0.283001 0.8144109791845291
0.153098 -0.524019 0.8126889791845291
-0.548589 -0.535219 0.8126889791845291
0.588211 -0.337853 0.8126889791845291
-0.288648 -0.159098 0.8126889791845291
0.305729 -0.488766 0.779947979184529
0.408783 -0.524027 0.836264979184529
0.488238 -0.17743 0.8126889791845291
0.295981 -0.242638 0.826614979184529
-0.06558 -0.126464 0.8126889791845291
0.433871 -0.141714 0.790130979184529
0.457802 -0.517291 0.836260979184529
0.314578 -0.378867 0.779947979184529
-0.436857 -0.079245 0.8126889791845291
-0.348177 -0.4225 0.779947979184529
-0.422152 -0.30811 0.8144109791845291
0.148001 -0.096999 0.8126889791845291
0.046432 -0.485318 0.8126889791845291
-0.449598 -0.356762 0.8144109791845291
0.374918 -0.395618 0.826614979184529
0.264079 -0.490952 0.810975979184529
0.321703 -0.366355 0.8144109791845291
-0.190535 -0.181523 0.826614979184529
-0.111125 -0.259564 0.8126889791845291
0.414055 -0.113706 0.836264979184529
-0.258812 -0.519049 0.8362619791845289
-0.018455 -0.311212 0.779947979184529
0.499042 -0.54599 0.836275979184529
-0.496016 -0.423156 0.8366649791845291
0.343808 -0.382927 0.779947979184529
-0.348391 -0.40525 0.8144109791845291
0.083707 -0.486487 0.779947979184529
0.008094 -0.409561 0.779947979184529
-0.12851 -0.139683 0.8126889791845291
0.35044 -0.411706 0.8126889791845291
0.11414 -0.15066 0.8414199791845289
0.468176 -0.407342 0.826614979184529
0.406781 -0.166139 0.779947979184529
-0.470718 -0.111186 0.836265979184529
0.333355 -0.098826 0.8126889791845291
-0.3851 -0.103595 0.8362699791845289
0.200117 -0.320343 0.8126889791845291
-0.06977 -0.483757 0.8126889791845291
0.083561 -0.523985 0.836264979184529
0.338111 -0.325412 0.779947979184529
-0.242501 -0.40714 0.779947979184529
0.002235 -0.468499 0.779947979184529
0.595497 -0.217743 0.8126889791845291
0.483266 -0.361196 0.826614979184529
0.459289 -0.16252 0.779947979184529
-0.109171 -0.422867 0.8126889791845291
0.147588 -0.339036 0.779947979184529
0.126273 -0.554583 0.833230979184529
0.184764 -0.353864 0.8144109791845291
-0.156617 -0.125499 0.8126889791845291
0.282177 -0.495089 0.839206979184529
-0.480038 -0.375027 0.8126889791845291
-0.363408 -0.556367 0.8126889791845291
0.117873 -0.401671 0.8144109791845291
-0.039755 -0.377637 0.8126889791845291
-0.322554 -0.187722 0.779947979184529
0.201458 -0.395651 0.779947979184529
0.553478 -0.242841 0.836476979184529
0.023522 -0.490952 0.801044979184529
-0.127524 -0.307598 0.8126889791845291
-0.226107 -0.424615 0.826614979184529
-0.025305 -0.325003 0.8126889791845291
0.262262 -0.438443 0.8126889791845291
-0.191619 -0.467957 0.8126889791845291
-0.271677 -0.218492 0.826614979184529
-0.530504 -0.436981 0.8126889791845291
0.400819 -0.451636 0.826614979184529
0.592074 -0.275165 0.8126889791845291
0.100148 -0.179783 0.8144109791845291
0.608717 -0.465571 0.826638979184529
-0.409098 -0.114575 0.836264979184529
0.288619 -0.417167 0.779947979184529
0.135666 -0.317239 0.8126889791845291
0.237458 -0.092932 0.836275979184529
-0.336635 -0.131005 0.8126889791845291
0.275233 -0.349231 0.8126889791845291
-0.03971 -0.120885 0.8126889791845291
0.040839 -0.410447 0.826614979184529
0.481159 -0.218021 0.8144109791845291
0.006148 -0.399179 0.8144109791845291
0.214662 -0.293346 0.779947979184529
-0.022281 -0.203097 0.779947979184529
-0.151011 -0.104055 0.8362699791845289
-0.399095 -0.236664 0.8144109791845291
-0.362351 -0.222839 0.826614979184529
-0.236741 -0.534309 0.8126889791845291
-0.175387 -0.096298 0.8126889791845291
0.556389 -0.477538 0.836259979184529
0.443724 -0.204765 0.779947979184529
0.079447 -0.201511 0.826614979184529
0.11915 -0.107156 0.836268979184529
-0.213738 -0.150307 0.8126889791845291
-0.414365 -0.431674 0.8144109791845291
-0.197873 -0.225666 0.779947979184529
-0.005991 -0.522836 0.836263979184529
0.521408 -0.144229 0.32484497918452904
0.488667 -0.272178 0.585707979184529
0.521408 -0.327298 0.755037979184529
0.488667 -0.313025 0.325761979184529
0.488667 -0.151436 0.494301979184529
0.488667 -0.385427 0.48670097918452904
0.488667 -0.213278 0.694562979184529
0.488667 -0.376113 0.638569979184529
0.488667 -0.229175 0.404285979184529
0.512115 -0.141714 0.609418979184529
0.510279 -0.285045 0.20152297918452902
0.488667 -0.443485 0.346481979184529
0.521408 -0.470911 0.635744979184529
0.488667 -0.29018 0.477854979184529
0.488667 -0.478804 0.49338197918452903
0.521408 -0.372108 0.40110897918452904
0.521408 -0.445695 0.7509179791845291
0.521408 -0.217984 0.26423297918452904
0.521408 -0.421304 0.564384979184529
0.521408 -0.415438 0.20849297918452903
0.507349 -0.141714 0.724521979184529
0.488667 -0.391333 0.28610497918452904
0.521408 -0.320893 0.539976979184529
0.521408 -0.196141 0.772799979184529
0.521408 -0.246312 0.340325979184529
0.521408 -0.289665 0.692170979184529
0.488667 -0.398659 0.7090089791845291
0.521408 -0.232655 0.505829979184529
0.521408 -0.205816 0.6342069791845291
0.521408 -0.304493 0.40838697918452904
0.521408 -0.387607 0.788430979184529
0.488667 -0.274575 0.267392979184529
0.521408 -0.348493 0.210279979184529
0.521408 -0.197382 0.452557979184529
0.521408 -0.368981 0.339669979184529
0.521408 -0.442402 0.276470979184529
0.521408 -0.417012 0.441961979184529
0.488667 -0.15344 0.663520979184529
0.488667 -0.330724 0.596444979184529
0.490092 -0.141714 0.274652979184529
0.521408 -0.177552 0.20490997918452902
0.521408 -0.348486 0.675563979184529
0.500325 -0.466412 0.20152297918452902
0.521408 -0.474856 0.378358979184529
0.488667 -0.217874 0.308981979184529
0.488667 -0.45749 0.675840979184529
0.521408 -0.240057 0.727269979184529
0.521408 -0.250314 0.454379979184529
0.521408 -0.411747 0.617159979184529
0.521408 -0.311734 0.637622979184529
0.488667 -0.343634 0.372121979184529
0.521408 -0.371199 0.526110979184529
0.504946 -0.490952 0.247667979184529
0.521408 -0.482144 0.809538979184529
0.521408 -0.346569 0.478599979184529
0.521408 -0.323367 0.287445979184529
0.521408 -0.1641 0.531181979184529
0.521408 -0.259897 0.549387979184529
0.488667 -0.456553 0.537731979184529
0.521408 -0.367014 0.590604979184529
0.488667 -0.292448 0.7383779791845291
0.488667 -0.184709 0.739055979184529
0.488667 -0.280917 0.653703979184529
0.488667 -0.322633 0.44286997918452903
0.521408 -0.398884 0.6744689791845291
0.488667 -0.432233 0.488187979184529
0.488667 -0.396674 0.356888979184529
0.488667 -0.261495 0.36914097918452904
0.488667 -0.487167 0.604166979184529
0.488667 -0.413641 0.754355979184529
0.488667 -0.355744 0.785523979184529
0.521408 -0.146055 0.463309979184529
0.488667 -0.273674 0.433482979184529
0.521408 -0.301455 0.242221979184529
0.521408 -0.480566 0.440303979184529
0.488667 -0.404336 0.401289979184529
0.521408 -0.476907 0.560963979184529
0.489686 -0.490952 0.314954979184529
0.488667 -0.400149 0.542188979184529
0.521036 -0.490952 0.7427829791845291
0.488667 -0.353983 0.705260979184529
0.521408 -0.251469 0.670445979184529
0.521408 -0.171083 0.686704979184529
0.488667 -0.22069 0.609545979184529
0.521408 -0.299259 0.594493979184529
0.521408 -0.199583 0.583162979184529
0.521408 -0.376201 0.746723979184529
0.521408 -0.185074 0.292171979184529
0.488667 -0.176487 0.598849979184529
0.521408 -0.37713 0.242190979184529
0.488667 -0.441249 0.795740979184529
0.488667 -0.176001 0.357489979184529
0.488667 -0.295482 0.5316039791845291
0.521408 -0.155446 0.783277979184529
0.521408 -0.213796 0.382944979184529
0.521408 -0.34809 0.435486979184529
0.521408 -0.322651 0.356850979184529
0.488667 -0.27127 0.327016979184529
0.488667 -0.172904 0.44417497918452903
0.521408 -0.437472 0.710076979184529
0.488667 -0.346194 0.523492979184529
0.521408 -0.291233 0.45161897918452903
0.508257 -0.141714 0.219854979184529
0.507776 -0.227196 0.20152297918452902
0.488667 -0.421518 0.5887569791845291
0.521408 -0.428639 0.40027897918452904
0.521408 -0.474036 0.516497979184529
0.521408 -0.408535 0.481360979184529
0.488667 -0.230341 0.5358629791845291
0.488667 -0.241289 0.47559497918452903
0.521408 -0.146517 0.5670509791845291
0.488667 -0.432404 0.296387979184529
0.488667 -0.45601 0.258956979184529
0.521408 -0.284238 0.292188979184529
0.521408 -0.257953 0.602412979184529
0.488667 -0.449043 0.6350759791845291
0.521408 -0.478034 0.705844979184529
0.488667 -0.36739 0.318784979184529
0.521408 -0.44848 0.591746979184529
0.521408 -0.270958 0.502956979184529
0.488667 -0.372991 0.571554979184529
0.521408 -0.281179 0.759459979184529
0.488667 -0.450091 0.7305049791845291
0.497383 -0.490952 0.402804979184529
0.521408 -0.445123 0.467261979184529
0.488667 -0.420337 0.670673979184529
0.521408 -0.4067 0.341892979184529
0.488667 -0.214046 0.6502529791845291
0.521408 -0.244901 0.413043979184529
0.521408 -0.410502 0.527743979184529
0.488667 -0.272905 0.230395979184529
0.488667 -0.306921 0.566754979184529
0.521408 -0.287854 0.344381979184529
0.521408 -0.481657 0.29847497918452903
0.488667 -0.312521 0.7692139791845289
0.488667 -0.367249 0.25545397918452906
0.521408 -0.390094 0.30234397918452904
0.521408 -0.342554 0.721927979184529
0.50392 -0.379103 0.20152297918452902
0.488667 -0.17593 0.5210249791845291
0.488667 -0.490478 0.696540979184529
0.488667 -0.244476 0.712578979184529
0.488667 -0.183022 0.317670979184529
0.488667 -0.321119 0.647571979184529
0.521408 -0.268682 0.793037979184529
0.488667 -0.317915 0.396016979184529
0.521408 -0.173596 0.733603979184529
0.521408 -0.177517 0.33555897918452904
0.521408 -0.26776 0.257567979184529
0.488667 -0.483169 0.652539979184529
0.521408 -0.212394 0.705943979184529
0.521408 -0.270431 0.375334979184529
0.488667 -0.338921 0.747502979184529
0.488667 -0.163416 0.630302979184529
0.488667 -0.185982 0.202009979184529
0.521408 -0.405024 0.719515979184529
0.521408 -0.185171 0.48362397918452904
0.488667 -0.219716 0.261428979184529
0.488667 -0.420217 0.265600979184529
0.488667 -0.429295 0.431760979184529
0.517244 -0.364368 0.8126889791845291
0.521408 -0.459653 0.349528979184529
0.488667 -0.318385 0.506502979184529
0.488667 -0.244806 0.761502979184529
0.521408 -0.202374 0.517740979184529
0.488667 -0.210463 0.465563979184529
0.491709 -0.141714 0.584509979184529
0.488667 -0.300464 0.296288979184529
0.521408 -0.441573 0.520288979184529
0.488667 -0.408854 0.5099559791845291
0.488667 -0.150536 0.6952779791845289
0.494149 -0.325874 0.8126889791845291
0.521408 -0.430165 0.305877979184529
0.488667 -0.428007 0.380359979184529
0.490584 -0.141714 0.31845897918452903
0.488667 -0.342952 0.466902979184529
0.521408 -0.479973 0.220490979184529
0.488667 -0.27155 0.503170979184529
0.521408 -0.477988 0.771304979184529
0.489469 -0.276338 0.8126889791845291
0.488667 -0.373578 0.40707597918452904
0.502712 -0.141714 0.7577359791845291
0.521408 -0.385828 0.440494979184529
0.521408 -0.271005 0.729213979184529
0.521408 -0.236739 0.633169979184529
0.521408 -0.180295 0.42677397918452903
0.521408 -0.432901 0.789804979184529
0.518999 -0.490952 0.48279397918452904
0.521408 -0.374732 0.7147449791845291
0.521408 -0.14548 0.669965979184529
0.521408 -0.3318 0.394875979184529
0.488667 -0.220179 0.507180979184529
0.488667 -0.398645 0.315619979184529
0.497696 -0.490952 0.351168979184529
0.521408 -0.340193 0.330050979184529
0.521408 -0.318587 0.21545197918452902
0.521408 -0.382621 0.625474979184529
0.518173 -0.255835 0.20152297918452902
0.521408 -0.247164 0.27954897918452903
0.495185 -0.490952 0.5565299791845291
0.488667 -0.191699 0.289044979184529
0.488667 -0.403053 0.782312979184529
0.521408 -0.28793 0.5596879791845291
0.488667 -0.278911 0.556544979184529
0.488667 -0.239033 0.288167979184529
0.488667 -0.243638 0.578029979184529
0.521408 -0.300759 0.781542979184529
0.488667 -0.342814 0.302454979184529
0.521408 -0.170522 0.585505979184529
0.521408 -0.214082 0.294982979184529
0.497968 -0.490952 0.27595497918452905
0.521408 -0.344488 0.608973979184529
0.521408 -0.318705 0.692781979184529
0.521408 -0.415886 0.23752497918452903
0.521408 -0.471118 0.677822979184529
0.521408 -0.202764 0.678997979184529
0.521408 -0.395436 0.590583979184529
0.488667 -0.471129 0.22885497918452902
0.505934 -0.141714 0.538880979184529
0.488667 -0.436891 0.565186979184529
0.488667 -0.459873 0.290692979184529
0.488667 -0.442235 0.228118979184529
0.521408 -0.213909 0.355068979184529
0.521408 -0.421207 0.643371979184529
0.492474 -0.490952 0.44851497918452904
0.521408 -0.226038 0.575189979184529
0.488667 -0.427492 0.461182979184529
0.521408 -0.21855 0.43515997918452903
0.488667 -0.220823 0.22261197918452902
0.521408 -0.271048 0.421077979184529
0.521408 -0.314082 0.43677597918452904
0.488667 -0.480545 0.768107979184529
0.488667 -0.145535 0.467899979184529
0.488667 -0.162559 0.291747979184529
0.521408 -0.369157 0.49264297918452904
0.521408 -0.295502 0.512823979184529
0.521408 -0.344518 0.528373979184529
0.521408 -0.261929 0.306148979184529
0.521408 -0.160431 0.625378979184529
0.488667 -0.460407 0.366471979184529
0.521408 -0.21886 0.611587979184529
0.521408 -0.367684 0.657897979184529
0.488667 -0.256204 0.606213979184529
0.488667 -0.226626 0.333409979184529
0.521408 -0.164081 0.30740597918452905
0.521408 -0.241418 0.38735297918452904
0.521408 -0.464512 0.492459979184529
0.499148 -0.404377 0.20152297918452902
0.521408 -0.265959 0.649456979184529
0.521408 -0.238368 0.692275979184529
0.488667 -0.341754 0.404863979184529
0.488667 -0.230327 0.669573979184529
-0.46628 -0.264413 0.532049979184529
-0.433539 -0.364819 0.357994979184529
-0.433539 -0.14437 0.653467979184529
-0.433539 -0.347052 0.658099979184529
-0.433539 -0.40329 0.501144979184529
-0.442567 -0.141714 0.21034797918452902
-0.442606 -0.490952 0.692299979184529
-0.433539 -0.250412 0.745825979184529
-0.436976 -0.141714 0.514398979184529
-0.46628 -0.252185 0.238148979184529
-0.46628 -0.473932 0.320687979184529
-0.46628 -0.428255 0.6011699791845291
-0.433539 -0.240599 0.628799979184529
-0.46628 -0.432565 0.20174997918452903
-0.433539 -0.310941 0.45428297918452903
-0.433539 -0.278341 0.322085979184529
-0.46628 -0.346404 0.751009979184529
-0.46628 -0.155704 0.302817979184529
-0.46628 -0.434565 0.40785397918452904
-0.46628 -0.369287 0.27387397918452905
-0.46628 -0.485702 0.5166969791845291
-0.433539 -0.339672 0.561771979184529
-0.46628 -0.217843 0.461594979184529
-0.433845 -0.490952 0.7751639791845291
-0.46628 -0.14382 0.726850979184529
-0.433539 -0.407596 0.706962979184529
-0.46616 -0.141714 0.424465979184529
-0.46628 -0.270209 0.685533979184529
-0.433539 -0.20936 0.563007979184529
-0.46628 -0.293768 0.396652979184529
-0.433539 -0.202318 0.689355979184529
-0.46628 -0.364554 0.435680979184529
-0.46628 -0.179793 0.780772979184529
-0.46628 -0.337945 0.506611979184529
-0.46628 -0.316274 0.236949979184529
-0.456083 -0.141714 0.5936829791845291
-0.45147 -0.141714 0.362892979184529
-0.46628 -0.441223 0.662392979184529
-0.46628 -0.185732 0.246970979184529
-0.46628 -0.212194 0.327776979184529
-0.46628 -0.474801 0.246967979184529
-0.433539 -0.450611 0.553833979184529
-0.46628 -0.436307 0.748675979184529
-0.46628 -0.390164 0.548488979184529
-0.433539 -0.419102 0.296341979184529
-0.433539 -0.306769 0.615842979184529
-0.437762 -0.208689 0.20152297918452902
-0.433539 -0.172163 0.463115979184529
-0.46628 -0.424433 0.461881979184529
-0.433539 -0.428554 0.364747979184529
-0.433539 -0.223236 0.270265979184529
-0.46628 -0.198272 0.604449979184529
-0.433539 -0.380526 0.595884979184529
-0.46628 -0.380116 0.20851497918452902
-0.46628 -0.332678 0.312036979184529
-0.433539 -0.233542 0.504813979184529
-0.46628 -0.489668 0.392882979184529
-0.46628 -0.2687 0.470094979184529
-0.46628 -0.406045 0.33286397918452904
-0.433539 -0.31446 0.357455979184529
-0.433539 -0.347959 0.707860979184529
-0.46628 -0.382303 0.646228979184529
-0.46628 -0.233969 0.405720979184529
-0.433539 -0.195138 0.7477049791845289
-0.46628 -0.30666 0.579618979184529
-0.46628 -0.201602 0.527714979184529
-0.46628 -0.392999 0.38034497918452903
-0.433539 -0.399912 0.41645597918452903
-0.433539 -0.30487 0.5285189791845291
-0.46628 -0.341677 0.39297797918452904
-0.433539 -0.190972 0.641851979184529
-0.433539 -0.363573 0.47059697918452903
-0.433539 -0.468329 0.282522979184529
-0.46628 -0.230033 0.783188979184529
-0.46628 -0.283812 0.745871979184529
-0.46628 -0.283023 0.639078979184529
-0.460209 -0.286861 0.20152297918452902
-0.433539 -0.381257 0.745038979184529
-0.433539 -0.456218 0.457881979184529
-0.433539 -0.37129 0.305595979184529
-0.46628 -0.472672 0.591990979184529
-0.46628 -0.166243 0.687519979184529
-0.433539 -0.306515 0.26642197918452903
-0.46628 -0.238067 0.716451979184529
-0.433539 -0.351247 0.24963997918452902
-0.433539 -0.365198 0.7944219791845291
-0.46628 -0.477583 0.7308449791845291
-0.46628 -0.485429 0.473222979184529
-0.433539 -0.185826 0.504680979184529
-0.433539 -0.33067 0.41601797918452904
-0.433539 -0.180352 0.27174597918452903
-0.433539 -0.286682 0.664051979184529
-0.433539 -0.160158 0.564452979184529
-0.433539 -0.413906 0.666357979184529
-0.433539 -0.223421 0.349765979184529
-0.433539 -0.146087 0.325491979184529
-0.449865 -0.328468 0.20152297918452902
-0.433539 -0.479117 0.654385979184529
-0.433539 -0.239312 0.310685979184529
-0.46628 -0.146829 0.257767979184529
-0.433539 -0.278233 0.558844979184529
-0.46628 -0.383838 0.482443979184529
-0.46628 -0.334705 0.638404979184529
-0.433539 -0.285061 0.703952979184529
-0.46628 -0.262279 0.276690979184529
-0.433539 -0.162676 0.7149199791845291
-0.46628 -0.245564 0.654550979184529
-0.433539 -0.239942 0.463951979184529
-0.46628 -0.396521 0.7292899791845291
-0.46628 -0.164766 0.483263979184529
-0.46628 -0.36685 0.336677979184529
-0.433539 -0.395003 0.265887979184529
-0.433539 -0.269832 0.603268979184529
-0.433539 -0.45207 0.593664979184529
-0.46628 -0.316306 0.724964979184529
-0.433539 -0.375351 0.534676979184529
-0.433539 -0.157323 0.411277979184529
-0.433539 -0.486846 0.577081979184529
-0.46628 -0.33128 0.806201979184529
-0.46628 -0.446317 0.36246197918452905
-0.46628 -0.298274 0.286137979184529
-0.433539 -0.331715 0.489722979184529
-0.454894 -0.455687 0.8126889791845291
-0.465811 -0.246624 0.20152297918452902
-0.433539 -0.420408 0.7552879791845291
-0.434961 -0.490952 0.614529979184529
-0.462438 -0.141714 0.763361979184529
-0.46628 -0.327976 0.549673979184529
-0.46628 -0.210965 0.280953979184529
-0.433539 -0.323379 0.299052979184529
-0.448085 -0.300475 0.8126889791845291
-0.46167 -0.141714 0.541045979184529
-0.46628 -0.174566 0.631565979184529
-0.46628 -0.310838 0.439467979184529
-0.433539 -0.383025 0.232036979184529
-0.433539 -0.449183 0.407760979184529
-0.433539 -0.239623 0.381633979184529
-0.433539 -0.421702 0.240392979184529
-0.450106 -0.467505 0.20152297918452902
-0.46628 -0.374005 0.7838739791845291
-0.449411 -0.490952 0.433259979184529
-0.46628 -0.38432 0.583165979184529
-0.46628 -0.206689 0.742456979184529
-0.433539 -0.219261 0.789628979184529
-0.433539 -0.143911 0.7440989791845289
-0.46628 -0.399591 0.513185979184529
-0.433539 -0.272923 0.454435979184529
-0.455766 -0.490952 0.348480979184529
-0.433539 -0.332483 0.7383769791845289
-0.46628 -0.472263 0.676340979184529
-0.46628 -0.457627 0.559352979184529
-0.433539 -0.297819 0.388855979184529
-0.433539 -0.444814 0.700135979184529
-0.46628 -0.218665 0.633964979184529
-0.46628 -0.329002 0.671500979184529
-0.43517 -0.419945 0.20152297918452902
-0.46628 -0.296329 0.778702979184529
-0.46628 -0.449087 0.713319979184529
-0.46628 -0.218951 0.245357979184529
-0.433539 -0.43116 0.331726979184529
-0.46628 -0.399818 0.804627979184529
-0.46628 -0.456606 0.45317097918452903
-0.46628 -0.23938 0.553491979184529
-0.465132 -0.490952 0.557195979184529
-0.46628 -0.45546 0.7754149791845291
-0.433539 -0.400238 0.383633979184529
-0.433539 -0.428939 0.616776979184529
-0.433539 -0.204443 0.468087979184529
-0.433539 -0.243933 0.20194197918452902
-0.433539 -0.146703 0.250573979184529
-0.433539 -0.17309 0.784646979184529
-0.439252 -0.141714 0.472144979184529
-0.433539 -0.215991 0.723333979184529
-0.46628 -0.346893 0.24631997918452903
-0.46628 -0.18298 0.5764599791845291
-0.46628 -0.393143 0.45217897918452904
-0.46628 -0.152876 0.453823979184529
-0.46628 -0.418591 0.571580979184529
-0.433539 -0.31916 0.644597979184529
-0.46628 -0.146007 0.795451979184529
-0.46628 -0.30926 0.518147979184529
-0.433539 -0.479526 0.369102979184529
-0.462415 -0.141714 0.663811979184529
-0.46628 -0.362562 0.561596979184529
-0.433539 -0.383983 0.660253979184529
-0.46628 -0.257844 0.621822979184529
-0.46628 -0.209727 0.432195979184529
-0.433539 -0.456677 0.34842697918452903
-0.46628 -0.388522 0.616395979184529
-0.46628 -0.482051 0.291372979184529
-0.433539 -0.431226 0.513124979184529
-0.46628 -0.29541 0.483931979184529
-0.46628 -0.257953 0.761217979184529
-0.46628 -0.449617 0.303272979184529
-0.433539 -0.355684 0.399845979184529
-0.46628 -0.191952 0.305940979184529
-0.46628 -0.281031 0.564684979184529
-0.46628 -0.158608 0.21495097918452902
-0.437844 -0.141714 0.624470979184529
-0.433539 -0.160159 0.594441979184529
-0.433539 -0.428209 0.786211979184529
-0.46628 -0.453574 0.636204979184529
-0.45886 -0.490952 0.7606019791845291
-0.46628 -0.229191 0.488220979184529
-0.433539 -0.469338 0.531869979184529
-0.433539 -0.322243 0.22541697918452902
-0.46628 -0.374314 0.673647979184529
-0.46628 -0.402092 0.7013679791845291
-0.433539 -0.220497 0.536810979184529
-0.46628 -0.3258 0.600515979184529
-0.433539 -0.373622 0.496896979184529
-0.436929 -0.271751 0.20152297918452902
-0.46628 -0.433461 0.332021979184529
-0.433539 -0.384801 0.622936979184529
-0.46628 -0.461861 0.503227979184529
-0.449677 -0.490952 0.261168979184529
-0.46628 -0.338939 0.574995979184529
-0.46628 -0.271809 0.412415979184529
-0.433539 -0.248896 0.7188529791845291
-0.46628 -0.173864 0.271179979184529
-0.462771 -0.141714 0.325518979184529
-0.433539 -0.270573 0.798563979184529
-0.46628 -0.147904 0.617700979184529
-0.46628 -0.320387 0.7571849791845291
-0.453596 -0.357778 0.20152297918452902
-0.457309 -0.490952 0.655776979184529
-0.46628 -0.332915 0.704353979184529
-0.446239 -0.490952 0.719998979184529
-0.46628 -0.221439 0.6959889791845291
-0.433539 -0.336133 0.446712979184529
-0.46628 -0.190497 0.48741897918452903
-0.46628 -0.287946 0.451824979184529
-0.433539 -0.454517 0.620996979184529
-0.433539 -0.449875 0.21329597918452903
-0.433539 -0.265468 0.635787979184529
-0.447181 -0.141714 0.708522979184529
-0.433539 -0.227687 0.7652799791845291
-0.433539 -0.432771 0.468471979184529
-0.46628 -0.40825 0.20984497918452902
-0.46628 -0.37102 0.727249979184529
-0.433539 -0.197134 0.776070979184529
-0.433539 -0.271354 0.258798979184529
-0.433539 -0.371949 0.446706979184529
-0.098999 -0.22071 0.23426397918452901
-0.33578 -0.237256 0.20152297918452902
0.395048 -0.288682 0.20152297918452902
0.155297 -0.338447 0.23426397918452901
0.129244 -0.145789 0.23426397918452901
-0.374058 -0.490952 0.23372197918452903
0.453137 -0.467379 0.23426397918452901
-0.073372 -0.393079 0.23426397918452901
0.313882 -0.141714 0.216716979184529
-0.227187 -0.36736 0.20152297918452902
-0.220193 -0.141714 0.21664497918452902
-0.414208 -0.348539 0.20152297918452902
0.294804 -0.378694 0.23426397918452901
0.032998 -0.240798 0.23426397918452901
0.250487 -0.257996 0.20152297918452902
0.466832 -0.157953 0.20152297918452902
0.041297 -0.386343 0.20152297918452902
-0.212042 -0.261258 0.23426397918452901
-0.012793 -0.141714 0.231846979184529
-0.322695 -0.387239 0.23426397918452901
0.44982 -0.372431 0.20152297918452902
-0.043007 -0.296421 0.20152297918452902
-0.042242 -0.485424 0.20152297918452902
0.143261 -0.245762 0.20152297918452902
-0.152563 -0.447637 0.20152297918452902
-0.312091 -0.144666 0.23426397918452901
0.214411 -0.161591 0.20152297918452902
-0.136774 -0.336489 0.20152297918452902
0.203991 -0.404579 0.20152297918452902
0.374821 -0.202254 0.20152297918452902
-0.100877 -0.141714 0.20372197918452903
-0.296023 -0.302197 0.23426397918452901
0.375598 -0.382245 0.23426397918452901
0.320982 -0.27439 0.23426397918452901
0.1178 -0.402165 0.20152297918452902
0.08227 -0.300062 0.23426397918452901
-0.26442 -0.208288 0.20152297918452902
-0.389958 -0.191864 0.23426397918452901
-0.376101 -0.289544 0.23426397918452901
0.07199 -0.174665 0.20152297918452902
-0.400252 -0.410392 0.23426397918452901
0.466849 -0.229264 0.20152297918452902
-0.010397 -0.349797 0.23426397918452901
-0.31893 -0.449598 0.20152297918452902
-0.024859 -0.219637 0.20152297918452902
-0.151018 -0.25301 0.20152297918452902
0.212899 -0.323351 0.20152297918452902
0.09194 -0.468845 0.20152297918452902
0.397132 -0.141714 0.21759097918452902
-0.17886 -0.190399 0.20152297918452902
0.20051 -0.461142 0.23426397918452901
0.000374 -0.422053 0.23426397918452901
-0.107616 -0.29088 0.23426397918452901
0.197288 -0.244377 0.23426397918452901
-0.140969 -0.395275 0.23426397918452901
-0.193109 -0.311771 0.20152297918452902
-0.088241 -0.442583 0.20152297918452902
0.376479 -0.436007 0.20152297918452902
0.314797 -0.332029 0.20152297918452902
0.263656 -0.32699 0.23426397918452901
-0.37216 -0.141714 0.206525979184529
-0.3325 -0.337962 0.20152297918452902
0.421781 -0.331682 0.23426397918452901
0.088984 -0.222164 0.23426397918452901
0.2952 -0.426999 0.20152297918452902
-0.414497 -0.467368 0.20152297918452902
0.013809 -0.282135 0.20152297918452902
0.41931 -0.212041 0.23426397918452901
0.13407 -0.190695 0.20152297918452902
0.086073 -0.354498 0.20152297918452902
0.258111 -0.141714 0.227654979184529
0.433075 -0.267661 0.23426397918452901
0.016357 -0.184477 0.20152297918452902
0.422429 -0.422851 0.23426397918452901
-0.235086 -0.320628 0.23426397918452901
-0.15867 -0.141714 0.21081797918452902
0.0671 -0.434673 0.23426397918452901
-0.279906 -0.263186 0.20152297918452902
-0.064546 -0.166009 0.23426397918452901
-0.084156 -0.338443 0.23426397918452901
-0.069901 -0.249618 0.20152297918452902
0.335699 -0.224217 0.23426397918452901
0.354046 -0.321968 0.23426397918452901
-0.276386 -0.351895 0.23426397918452901
0.255075 -0.206571 0.20152297918452902
-0.214003 -0.411613 0.23426397918452901
0.478649 -0.3328 0.23426397918452901
0.35501 -0.167187 0.23426397918452901
-0.399056 -0.257216 0.20152297918452902
0.164499 -0.401254 0.23426397918452901
0.066217 -0.262039 0.20152297918452902
-0.127744 -0.189678 0.20152297918452902
-0.173813 -0.374456 0.20152297918452902
0.172586 -0.29418 0.20152297918452902
0.255716 -0.396778 0.20152297918452902
-0.343305 -0.188228 0.20152297918452902
0.330363 -0.412809 0.23426397918452901
0.368514 -0.261453 0.23426397918452901
-0.213686 -0.201134 0.23426397918452901
-0.274372 -0.400716 0.23426397918452901
0.050998 -0.145112 0.23426397918452901
0.479934 -0.416421 0.23426397918452901
-0.369367 -0.448721 0.20152297918452902
0.168399 -0.179255 0.23426397918452901
-0.295643 -0.226491 0.23426397918452901
-0.048484 -0.34464 0.20152297918452902
0.294119 -0.486476 0.20152297918452902
0.182946 -0.361439 0.20152297918452902
-0.379618 -0.346856 0.23426397918452901
0.23492 -0.462427 0.20152297918452902
0.166407 -0.465869 0.20152297918452902
-0.266977 -0.141714 0.21002097918452903
-0.118083 -0.477198 0.23426397918452901
0.401496 -0.361773 0.20152297918452902
0.417821 -0.456862 0.20152297918452902
0.478729 -0.188375 0.23426397918452901
-0.151206 -0.307733 0.23426397918452901
-0.069773 -0.204052 0.20152297918452902
-0.155606 -0.211706 0.23426397918452901
-0.002155 -0.453075 0.20152297918452902
0.436681 -0.165394 0.23426397918452901
-0.427719 -0.274758 0.23426397918452901
0.046178 -0.326462 0.23426397918452901
-0.015195 -0.248183 0.23426397918452901
0.032546 -0.481221 0.20152297918452902
0.376259 -0.480406 0.20152297918452902
0.23018 -0.428197 0.23426397918452901
-0.005804 -0.487853 0.23426397918452901
0.277646 -0.300981 0.20152297918452902
0.131411 -0.309925 0.20152297918452902
-0.053652 -0.447049 0.23426397918452901
-0.405601 -0.147988 0.23426397918452901
-0.323004 -0.290968 0.20152297918452902
0.466723 -0.28701 0.20152297918452902
-0.2064 -0.228835 0.20152297918452902
-0.12081 -0.433814 0.23426397918452901
-0.174218 -0.490952 0.20698597918452902
-0.372142 -0.317737 0.20152297918452902
-0.261781 -0.180213 0.23426397918452901
-0.262316 -0.316934 0.20152297918452902
0.230844 -0.194366 0.23426397918452901
0.41588 -0.246837 0.20152297918452902
0.26166 -0.232577 0.23426397918452901
-0.30177 -0.37064 0.20152297918452902
-0.062091 -0.277846 0.23426397918452901
-0.09965 -0.396678 0.20152297918452902
0.253022 -0.36774 0.23426397918452901
-0.325251 -0.261037 0.23426397918452901
0.109768 -0.37757 0.23426397918452901
-0.036622 -0.156742 0.20152297918452902
0.414573 -0.177631 0.20152297918452902
0.096697 -0.179326 0.23426397918452901
0.313296 -0.235014 0.20152297918452902
-0.264073 -0.470299 0.20152297918452902
-0.305125 -0.484097 0.23426397918452901
0.355322 -0.297972 0.20152297918452902
-0.386899 -0.215513 0.20152297918452902
-0.231386 -0.490952 0.22150597918452902
0.120433 -0.286871 0.23426397918452901
0.032829 -0.34693 0.20152297918452902
0.064392 -0.39064 0.23426397918452901
-0.050812 -0.393605 0.20152297918452902
-0.083477 -0.482014 0.20152297918452902
-0.008875 -0.371907 0.20152297918452902
-0.376133 -0.368701 0.20152297918452902
0.034448 -0.425255 0.20152297918452902
-0.098153 -0.310772 0.20152297918452902
-0.00881 -0.315994 0.20152297918452902
0.226671 -0.370183 0.20152297918452902
0.192829 -0.30191 0.23426397918452901
-0.120473 -0.169818 0.23426397918452901
0.150941 -0.214005 0.23426397918452901
0.139134 -0.490952 0.21320297918452902
0.355281 -0.377917 0.20152297918452902
-0.419478 -0.490952 0.231841979184529
-0.015475 -0.201215 0.23426397918452901
0.280173 -0.159316 0.20152297918452902
-0.195878 -0.165673 0.23426397918452901
0.209559 -0.142167 0.23426397918452901
0.124024 -0.360193 0.20152297918452902
-0.396224 -0.173124 0.20152297918452902
-0.165445 -0.272255 0.23426397918452901
0.025031 -0.222853 0.20152297918452902
-0.351232 -0.22516 0.23426397918452901
-0.350698 -0.318023 0.23426397918452901
-0.289181 -0.171502 0.20152297918452902
-0.340426 -0.418134 0.20152297918452902
0.031471 -0.290377 0.23426397918452901
-0.242687 -0.225766 0.23426397918452901
0.247181 -0.276682 0.23426397918452901
0.070758 -0.217011 0.20152297918452902
-0.203662 -0.375241 0.23426397918452901
-0.021021 -0.285537 0.23426397918452901
-0.359246 -0.266896 0.20152297918452902
-0.230132 -0.17483 0.20152297918452902
-0.322231 -0.489189 0.20152297918452902
-0.139937 -0.288612 0.20152297918452902
-0.304415 -0.210962 0.20152297918452902
0.026882 -0.376086 0.23426397918452901
0.380146 -0.325656 0.20152297918452902
0.181347 -0.236911 0.20152297918452902
0.100214 -0.277005 0.20152297918452902
-0.427195 -0.229523 0.23426397918452901
-0.205497 -0.466706 0.20152297918452902
-0.264094 -0.387791 0.20152297918452902
0.155336 -0.442673 0.23426397918452901
-0.308942 -0.437567 0.23426397918452901
-0.178671 -0.404598 0.23426397918452901
0.386817 -0.417895 0.23426397918452901
0.221542 -0.393297 0.23426397918452901
0.255236 -0.490952 0.20938397918452903
0.156294 -0.385255 0.20152297918452902
0.344086 -0.450696 0.20152297918452902
0.115815 -0.342533 0.23426397918452901
0.169627 -0.430516 0.20152297918452902
0.242424 -0.297324 0.20152297918452902
-0.135106 -0.254162 0.23426397918452901
0.127069 -0.411483 0.23426397918452901
0.105283 -0.223546 0.20152297918452902
0.069908 -0.296939 0.20152297918452902
0.178012 -0.490952 0.22314097918452902
0.477531 -0.490952 0.21186797918452902
-0.296683 -0.183332 0.23426397918452901
-0.389046 -0.249771 0.23426397918452901
-0.201373 -0.267297 0.20152297918452902
0.27848 -0.236622 0.20152297918452902
-0.424727 -0.191238 0.23426397918452901
-0.365261 -0.161398 0.23426397918452901
0.172386 -0.168769 0.20152297918452902
0.41571 -0.490952 0.22986297918452903
0.344283 -0.147635 0.20152297918452902
0.290012 -0.436383 0.23426397918452901
0.344309 -0.490952 0.20795897918452902
0.304799 -0.331031 0.23426397918452901
0.291248 -0.38804 0.20152297918452902
0.478909 -0.42602 0.20152297918452902
-0.169516 -0.408257 0.20152297918452902
-0.098552 -0.267833 0.20152297918452902
-0.011348 -0.255206 0.20152297918452902
0.218891 -0.328266 0.23426397918452901
-0.046481 -0.444349 0.20152297918452902
0.079007 -0.352134 0.23426397918452901
0.313687 -0.481211 0.23426397918452901
0.046987 -0.1524 0.20152297918452902
-0.085155 -0.488537 0.23426397918452901
-0.239716 -0.437498 0.23426397918452901
-0.36511 -0.453395 0.23426397918452901
-0.367118 -0.413626 0.23426397918452901
0.080443 -0.267017 0.23426397918452901
0.341794 -0.201274 0.20152297918452902
-0.42101 -0.312389 0.20152297918452902
0.46712 -0.233061 0.23426397918452901
0.419344 -0.424071 0.20152297918452902
0.356937 -0.265224 0.20152297918452902
-0.096494 -0.260196 0.23426397918452901
-0.419833 -0.380416 0.20152297918452902
-0.082143 -0.19304 0.23426397918452901
-0.052593 -0.343664 0.23426397918452901
-0.32999 -0.171085 0.23426397918452901
-0.182262 -0.343963 0.20152297918452902
0.382181 -0.307536 0.23426397918452901
0.313253 -0.266627 0.20152297918452902
0.480704 -0.258668 0.20152297918452902
-0.301208 -0.334203 0.20152297918452902
-0.293835 -0.263498 0.23426397918452901
0.125287 -0.160468 0.20152297918452902
0.433471 -0.272809 0.20152297918452902
0.231977 -0.249316 0.23426397918452901
0.420609 -0.296221 0.23426397918452901
-0.13717 -0.141714 0.23327597918452903
