0.1763 -0.325696 -0.346388
-0.280757 0.179376 -0.346388
-0.311973 0.424697 -0.346388
-0.41056 -0.347871 -0.331909
0.353197 0.277748 -0.346388
-0.316222 0.005261 -0.331909
-0.011746 -0.207968 -0.346388
-0.274235 -0.066943 -0.346388
-0.519862 0.465549 -0.331909
-0.67667 -0.358743 -0.331909
-0.436857 0.535801 -0.346388
0.660089 -0.391571 -0.346388
-0.148937 0.226584 -0.331909
-0.67786 -0.21579 -0.346388
0.126722 0.482088 -0.331909
-0.49551 -0.304013 -0.331909
-0.592593 0.336494 -0.346388
0.538125 0.40732 -0.331909
0.658526 0.030752 -0.331909
-0.326844 0.294161 -0.331909
0.578873 0.355156 -0.331909
0.197422 0.252721 -0.346388
-0.682086 -0.305248 -0.331909
0.074803 0.152206 -0.331909
0.625791 0.474231 -0.331909
0.220651 0.069113 -0.331909
0.704838 0.032417 -0.346388
-0.042256 0.397666 -0.331909
0.031291 -0.417557 -0.346388
-0.618678 -0.327535 -0.331909
-0.584599 0.197054 -0.331909
0.402756 0.404943 -0.331909
-0.708865 -0.441307 -0.346388
-0.033194 -0.058869 -0.331909
0.376661 0.093089 -0.331909
-0.46637 0.516663 -0.331909
0.557325 -0.370348 -0.331909
0.502736 -0.252805 -0.331909
-0.271699 0.060381 -0.346388
-0.387563 -0.107845 -0.346388
-0.253386 -0.020412 -0.331909
-0.302595 0.213488 -0.346388
-0.016476 0.265264 -0.331909
0.521524 -0.08149 -0.331909
-0.419794 -0.382942 -0.346388
0.186009 0.210364 -0.331909
-0.573707 0.126589 -0.331909
-0.280794 -0.454087 -0.331909
-0.039566 -0.296106 -0.331909
0.183152 0.421991 -0.346388
0.086829 -0.054293 -0.331909
-0.389641 -0.274766 -0.331909
0.535677 0.025189 -0.346388
-0.536697 -0.33696 -0.331909
0.459722 0.187836 -0.331909
-0.678316 0.078174 -0.346388
-0.575669 0.52484 -0.346388
0.416284 0.151376 -0.346388
-0.454973 -0.155309 -0.346388
0.588157 0.05683 -0.346388
-0.714047 0.140829 -0.346388
0.549524 0.145826 -0.331909
0.584983 -0.01176 -0.331909
-0.471613 -0.233011 -0.346388
0.096491 -0.400645 -0.331909
-0.477612 -0.44319 -0.346388
0.168184 0.283239 -0.331909
-0.434387 0.044415 -0.346388
0.471883 0.10739 -0.346388
-0.115067 0.177676 -0.331909
-0.317522 -0.109513 -0.346388
0.206285 -0.105074 -0.331909
0.083927 0.310849 -0.331909
0.251336 -0.02627 -0.346388
-0.442539 0.350015 -0.346388
-0.53706 0.169091 -0.331909
-0.725864 -0.36778 -0.346388
0.621169 0.095791 -0.331909
0.56314 -0.215472 -0.331909
0.624698 0.567082 -0.346388
-0.061673 -0.250527 -0.346388
0.668151 0.480225 -0.331909
0.059032 0.425967 -0.346388
-0.384325 0.417844 -0.331909
-0.329501 -0.305459 -0.346388
0.541521 -0.431488 -0.331909
0.311064 -0.333251 -0.346388
-0.64997 -0.260349 -0.331909
0.297265 -0.406 -0.346388
0.449028 0.59694 -0.346388
0.088901 0.610661 -0.343201
0.428106 0.519924 -0.346388
0.466384 0.252222 -0.346388
0.035281 0.562416 -0.331909
0.213108 -0.402073 -0.346388
-0.422151 -0.102238 -0.331909
-0.404835 0.307225 -0.346388
0.462234 -0.076461 -0.346388
-0.289408 0.487109 -0.346388
-0.24786 0.438832 -0.331909
-0.451799 -0.077852 -0.346388
0.32402 -0.155926 -0.331909
0.697925 0.327233 -0.331909
-0.122958 -0.456802 -0.331909
-0.522293 -0.123419 -0.346388
-0.378487 0.528847 -0.331909
-0.00018 -0.136294 -0.331909
-0.235938 0.369778 -0.346388
0.616153 0.006414 -0.331909
-0.657084 -0.389025 -0.331909
-0.042303 0.610661 -0.335809
0.684189 -0.073347 -0.346388
0.696113 -0.391233 -0.346388
0.032515 -0.014767 -0.346388
-0.090821 -0.090424 -0.331909
-0.205791 -0.247157 -0.346388
-0.72106 0.195175 -0.331909
-0.085458 -0.158555 -0.331909
0.232833 0.537029 -0.331909
-0.135884 -0.143049 -0.331909
0.416446 -0.418 -0.346388
-0.502606 0.576312 -0.346388
-0.115605 -0.243701 -0.346388
-0.357568 0.449148 -0.346388
0.28389 0.309527 -0.331909
0.243123 0.300106 -0.331909
-0.633207 -0.150341 -0.331909
0.0486 0.290798 -0.346388
-0.429011 0.192944 -0.331909
-0.588733 -0.389742 -0.346388
0.116856 -0.1856 -0.346388
-0.039513 0.035506 -0.331909
-0.347263 0.268669 -0.346388
0.649477 0.593926 -0.346388
0.275935 -0.085679 -0.346388
-0.673995 0.351856 -0.346388
-0.720277 0.377102 -0.346388
0.320354 0.396443 -0.346388
0.372341 0.035895 -0.331909
-0.276607 -0.119227 -0.346388
0.128786 0.369253 -0.346388
-0.621002 0.263651 -0.331909
0.111577 0.562882 -0.331909
-0.664698 0.208402 -0.346388
0.290534 0.578006 -0.346388
-0.050748 -0.358063 -0.331909
0.293465 -0.271388 -0.331909
0.101824 -0.250003 -0.331909
-0.041511 0.150633 -0.346388
0.638679 -0.172261 -0.331909
0.541524 0.489249 -0.331909
0.412736 0.278671 -0.331909
0.48504 -0.01842 -0.346388
-0.701252 0.2861 -0.331909
-0.508911 -0.252013 -0.346388
0.146573 0.321916 -0.331909
-0.429588 -0.443937 -0.331909
0.384373 0.177455 -0.346388
-0.424074 -0.045467 -0.331909
-0.065144 0.008378 -0.331909
0.304136 0.264335 -0.346388
-0.263016 -0.288394 -0.331909
-0.210567 -0.140467 -0.346388
0.43217 0.082096 -0.331909
0.578006 0.583999 -0.346388
-0.334049 0.570095 -0.346388
-0.143621 -0.179921 -0.331909
-0.506171 -0.395169 -0.346388
0.450212 -0.134656 -0.331909
-0.185554 -0.382451 -0.331909
0.015683 -0.334686 -0.346388
0.691632 -0.466238 -0.346388
0.461825 -0.195958 -0.346388
-0.388125 -0.14802 -0.346388
-0.015272 -0.084646 -0.346388
-0.337361 -0.249045 -0.331909
0.70333 -0.005049 -0.331909
-0.569558 -0.304089 -0.346388
-0.574045 0.275185 -0.346388
0.063325 -0.182898 -0.346388
0.23254 -0.372963 -0.331909
0.229341 -0.231489 -0.346388
0.114723 0.000472 -0.331909
0.704687 0.156671 -0.331909
-0.318237 0.151108 -0.346388
-0.588465 0.374911 -0.331909
-0.186355 0.42901 -0.331909
-0.653501 0.324365 -0.346388
0.330202 -0.114137 -0.331909
-0.528479 0.352058 -0.346388
0.232915 0.421356 -0.331909
-0.168957 -0.322539 -0.346388
0.354534 0.071503 -0.346388
0.209905 0.186006 -0.331909
-0.113477 -0.334847 -0.346388
0.163538 -0.25953 -0.346388
0.056863 0.493723 -0.346388
-0.243795 -0.106466 -0.331909
-0.141807 -0.275693 -0.331909
-0.598435 -0.059966 -0.331909
-0.132778 0.610661 -0.341708
0.044426 -0.108846 -0.346388
0.385981 -0.029006 -0.331909
-0.300423 -0.216013 -0.331909
0.075419 0.356072 -0.331909
0.089775 -0.296737 -0.331909
-0.441441 0.464184 -0.331909
0.303762 0.336447 -0.346388
0.061376 0.546506 -0.346388
-0.181518 -0.016186 -0.331909
-0.003638 0.466741 -0.346388
0.219955 0.099599 -0.346388
0.167704 -0.197255 -0.331909
0.560478 0.112686 -0.346388
-0.378673 0.229456 -0.331909
0.027034 -0.184167 -0.346388
0.556898 -0.307694 -0.331909
-0.250603 0.303312 -0.331909
0.089467 -0.11351 -0.331909
-0.726092 0.520545 -0.331909
-0.366534 -0.306525 -0.346388
0.265608 0.142366 -0.346388
0.587671 0.20626 -0.346388
0.272917 -0.00067 -0.346388
-0.589607 -0.236397 -0.346388
0.072972 0.464358 -0.346388
0.561081 -0.155919 -0.346388
-0.580218 0.484747 -0.346388
-0.074508 -0.409019 -0.346388
0.497446 -0.175844 -0.331909
0.412006 0.570124 -0.331909
-0.628106 -0.458075 -0.346388
-0.475167 0.309794 -0.331909
0.391417 -0.137515 -0.346388
-0.585935 -0.431617 -0.346388
0.005979 -0.241585 -0.346388
-0.64932 0.182901 -0.331909
0.174111 -0.147244 -0.346388
-0.299618 -0.331643 -0.346388
0.593468 0.161477 -0.331909
-0.200803 0.255203 -0.346388
-0.216942 0.301437 -0.346388
-0.077014 -0.19052 -0.331909
-0.196977 0.556936 -0.346388
0.606245 -0.088739 -0.346388
0.217873 0.579027 -0.331909
0.466878 0.56976 -0.331909
-0.709533 0.049493 -0.331909
0.051958 -0.30367 -0.346388
0.192397 0.325744 -0.331909
0.173072 0.031075 -0.331909
-0.59521 -0.120045 -0.331909
-0.336425 -0.437316 -0.346388
0.675031 0.356495 -0.346388
0.006123 -0.399136 -0.331909
-0.253696 -0.184736 -0.331909
0.550712 0.565821 -0.346388
-0.677417 0.421369 -0.331909
-0.141122 0.026436 -0.346388
-0.222298 0.104521 -0.346388
-0.561594 0.226587 -0.331909
-0.203012 0.177759 -0.331909
0.038086 0.360517 -0.346388
0.282734 -0.372728 -0.331909
-0.029907 0.086416 -0.331909
0.159008 0.590819 -0.331909
0.156108 -0.469533 -0.346388
0.552046 -0.273105 -0.331909
0.604645 -0.340175 -0.331909
-0.646426 0.516743 -0.331909
0.337032 -0.233192 -0.331909
-0.196525 -0.464626 -0.346388
0.369264 -0.218779 -0.331909
0.510563 0.242245 -0.346388
-0.61126 0.167748 -0.346388
-0.002149 0.19934 -0.331909
0.642747 0.177387 -0.331909
-0.707417 0.600062 -0.346388
0.448221 -0.254456 -0.346388
0.355318 -0.06281 -0.331909
0.054397 -0.355052 -0.331909
-0.541913 0.438957 -0.331909
-0.572874 -0.004948 -0.346388
-0.163493 0.129837 -0.346388
-0.257991 -0.377471 -0.331909
-0.231476 0.073143 -0.331909
0.557588 0.431923 -0.346388
0.646051 0.247658 -0.346388
0.680404 0.19024 -0.346388
-0.685858 -0.423207 -0.331909
-0.040074 -0.432011 -0.331909
-0.151947 0.362129 -0.346388
0.017272 0.260845 -0.331909
-0.489982 0.225705 -0.331909
0.593162 0.494476 -0.346388
-0.217421 -0.439027 -0.346388
-0.134472 0.576204 -0.346388
-0.344294 0.028614 -0.346388
-0.040154 0.428434 -0.346388
0.318617 0.134801 -0.346388
-0.246515 0.202615 -0.331909
0.301126 -0.442071 -0.331909
-0.616046 0.437326 -0.331909
0.712904 -0.140876 -0.331909
-0.565791 0.590189 -0.331909
-0.560463 -0.374945 -0.346388
0.59848 -0.413393 -0.346388
-0.170045 -0.080746 -0.346388
0.672718 -0.238681 -0.346388
0.512169 0.380827 -0.331909
-0.705333 0.113176 -0.331909
0.361639 0.593041 -0.331909
0.406928 0.094809 -0.346388
0.652358 -0.06021 -0.331909
0.68275 0.08408 -0.331909
0.183131 0.124097 -0.346388
0.522071 0.29693 -0.346388
0.66157 0.414748 -0.346388
-0.41369 -0.241856 -0.331909
-0.440822 0.081118 -0.331909
0.33914 0.044077 -0.346388
-0.004034 0.610661 -0.345063
0.567284 0.395568 -0.331909
0.395928 -0.104023 -0.346388
0.324043 -0.047392 -0.331909
-0.185445 0.523277 -0.346388
-0.128587 0.410535 -0.331909
-0.728004 0.341769 -0.346388
0.542673 0.521413 -0.346388
0.478932 0.04166 -0.346388
0.279162 0.181365 -0.331909
0.018681 0.387448 -0.346388
0.374291 0.418078 -0.331909
0.245053 -0.081352 -0.331909
-0.518894 -0.172748 -0.346388
0.425479 -0.055521 -0.346388
0.081357 0.085992 -0.331909
-0.509309 -0.017786 -0.331909
-0.727144 0.472784 -0.346388
-0.223941 0.494897 -0.331909
-0.050739 0.244682 -0.346388
-0.672752 -0.143106 -0.331909
-0.402088 0.511846 -0.346388
0.280245 -0.148968 -0.346388
-0.649236 -0.300562 -0.331909
0.142432 -0.111785 -0.331909
-0.433561 -0.329923 -0.346388
-0.073606 -0.122114 -0.331909
0.099753 -0.323843 -0.346388
-0.41321 0.556178 -0.346388
-0.526155 0.390031 -0.346388
-0.506091 0.095753 -0.346388
-0.523783 0.495811 -0.346388
0.379393 0.519225 -0.346388
0.272547 -0.465509 -0.346388
-0.730395 -0.010027 -0.346388
0.644442 0.497211 -0.346388
-0.114799 0.336075 -0.346388
-0.244065 0.465899 -0.346388
-0.381364 -0.401558 -0.346388
-0.145062 -0.435205 -0.331909
0.128069 0.111735 -0.331909
0.59782 -0.201339 -0.346388
-0.572784 -0.098686 -0.331909
0.464928 0.351586 -0.331909
-0.250232 0.392973 -0.331909
0.18728 -0.080789 -0.331909
-0.429716 0.231858 -0.331909
-0.576823 0.553318 -0.331909
-0.342752 0.123179 -0.346388
-0.099432 0.067225 -0.331909
-0.625672 0.471631 -0.331909
-0.625471 -0.106103 -0.346388
-0.322274 -0.16879 -0.331909
0.47815 0.395068 -0.346388
0.090906 -0.468254 -0.346388
0.656079 0.386467 -0.331909
0.261125 0.356557 -0.331909
-0.638485 0.015471 -0.346388
-0.512431 0.610661 -0.332226
-0.213461 0.610508 -0.346388
0.266905 0.408714 -0.346388
0.005884 0.435608 -0.331909
-0.183832 0.2856 -0.331909
-0.464441 0.243655 -0.331909
0.195109 -0.283679 -0.346388
0.667685 0.120811 -0.331909
0.117688 0.312251 -0.331909
-0.677245 0.311322 -0.331909
-0.316752 0.54968 -0.331909
-0.636624 -0.406262 -0.346388
0.437734 -0.329525 -0.346388
-0.062563 0.570383 -0.331909
0.426279 -0.215738 -0.331909
0.403085 -0.460036 -0.346388
0.56609 0.540871 -0.331909
-0.708086 -0.192304 -0.331909
-0.093134 -0.017306 -0.331909
0.004189 0.095835 -0.346388
0.403152 -0.28075 -0.346388
0.702715 0.457545 -0.346388
-0.359206 -0.333508 -0.331909
0.499711 -0.299577 -0.331909
0.460619 -0.386993 -0.346388
-0.563468 -0.210395 -0.331909
0.577048 -0.089341 -0.331909
0.070662 -0.133146 -0.346388
-0.123318 0.489477 -0.346388
0.508247 0.587135 -0.331909
0.030163 0.045774 -0.331909
0.387886 -0.254776 -0.331909
-0.637598 -0.030741 -0.331909
0.264662 -0.328324 -0.331909
0.644107 0.108954 -0.346388
-0.29541 0.078901 -0.346388
0.635067 0.341314 -0.346388
-0.31215 0.389129 -0.331909
-0.390561 -0.324566 -0.346388
0.266039 0.094074 -0.346388
0.454956 0.429376 -0.346388
-0.303609 -0.264794 -0.331909
-0.032337 -0.191636 -0.331909
0.302353 -0.30423 -0.346388
-0.227375 0.56475 -0.346388
0.129096 0.222516 -0.331909
-0.465271 0.175263 -0.331909
0.133079 -0.385519 -0.331909
-0.640362 0.415207 -0.331909
0.382432 -0.358281 -0.346388
-0.640867 0.575793 -0.331909
-0.383809 0.003269 -0.331909
-0.662186 -0.084353 -0.346388
0.198558 -0.339388 -0.331909
0.214515 -0.467124 -0.346388
-0.229166 -0.044177 -0.331909
0.531727 -0.05745 -0.346388
0.42683 -0.019855 -0.331909
0.408667 0.225704 -0.331909
-0.236766 0.005221 -0.331909
-0.382322 0.122739 -0.331909
-0.047012 0.336186 -0.331909
0.65651 0.532744 -0.346388
-0.508861 0.246442 -0.346388
0.683929 -0.275311 -0.346388
-0.216099 0.43693 -0.331909
-0.505391 0.021087 -0.331909
-0.418455 0.329316 -0.331909
0.008876 -0.044042 -0.331909
0.582551 0.093124 -0.331909
0.22408 0.156842 -0.331909
-0.683932 -0.030484 -0.346388
-0.08848 0.04373 -0.346388
0.159693 -0.43166 -0.346388
-0.550005 0.136972 -0.346388
0.594271 -0.049326 -0.346388
0.244947 -0.194142 -0.346388
0.530811 0.190008 -0.346388
0.269134 -0.122863 -0.331909
-0.039838 -0.006908 -0.331909
-0.184795 0.481108 -0.346388
-0.020755 0.368427 -0.331909
-0.643165 0.108549 -0.346388
-0.287583 0.243496 -0.346388
-0.249108 0.524806 -0.346388
-0.672496 0.470633 -0.331909
-0.499555 0.449881 -0.346388
-0.454523 0.404547 -0.346388
0.121861 -0.302949 -0.346388
-0.100791 -0.216647 -0.346388
0.275357 0.02978 -0.331909
-0.093621 0.382536 -0.346388
-0.292176 0.104876 -0.331909
0.429162 -0.082872 -0.331909
-0.086784 0.207056 -0.331909
-0.279314 -0.040315 -0.331909
-0.402946 0.237279 -0.346388
-0.170091 0.32058 -0.331909
-0.203307 0.01191 -0.346388
-0.088619 0.251541 -0.331909
-0.101186 -0.390005 -0.331909
0.709052 -0.078759 -0.331909
0.426421 -0.186526 -0.346388
-0.281729 0.589266 -0.346388
-0.436363 -0.418926 -0.346388
-0.140233 -0.063978 -0.331909
0.492977 -0.142168 -0.331909
0.604461 0.460534 -0.346388
-0.619994 0.377172 -0.346388
0.310546 0.368959 -0.346388
-0.615261 -0.173327 -0.331909
-0.603252 0.610661 -0.340821
0.02801 0.326692 -0.331909
0.251182 0.388898 -0.331909
0.248868 0.232817 -0.346388
-0.211708 0.377002 -0.331909
0.14595 0.172835 -0.331909
0.303666 0.228392 -0.346388
-0.10584 -0.30031 -0.346388
-0.351127 0.509122 -0.331909
0.074232 -0.239585 -0.331909
0.360955 0.137273 -0.331909
-0.070125 0.496521 -0.331909
-0.158433 -0.212509 -0.331909
-0.045419 0.294738 -0.346388
0.688928 0.547034 -0.346388
0.492921 0.340148 -0.331909
0.70725 0.089198 -0.346388
0.451778 0.21558 -0.331909
-0.56959 -0.166965 -0.346388
0.349016 0.437728 -0.346388
-0.358799 0.552749 -0.331909
0.055999 0.104938 -0.346388
0.456964 -0.102459 -0.331909
0.491706 0.481791 -0.346388
-0.091011 -0.239514 -0.331909
-0.639995 -0.354395 -0.346388
-0.103346 0.525254 -0.346388
0.432475 0.456437 -0.331909
0.347706 0.206411 -0.346388
-0.283386 0.421947 -0.346388
-0.49993 0.487315 -0.331909
0.684912 0.219508 -0.346388
0.635441 -0.349188 -0.346388
-0.134123 -0.348511 -0.331909
-0.607432 -0.353898 -0.331909
-0.0726 -0.067942 -0.346388
-0.156329 -0.157721 -0.346388
0.041877 -0.245934 -0.331909
-0.018582 0.112711 -0.331909
-0.228783 -0.23765 -0.331909
-0.544448 0.515598 -0.346388
-0.451988 -0.247943 -0.331909
0.246446 0.274049 -0.346388
0.328693 0.280346 -0.331909
-0.48907 -0.469361 -0.346388
-0.675896 0.011419 -0.331909
0.646866 -0.036222 -0.346388
0.297945 -0.10381 -0.346388
0.566012 0.485787 -0.346388
-0.550463 0.461962 -0.346388
-0.538162 -0.440072 -0.346388
-0.185891 -0.223768 -0.331909
-0.727675 -0.297385 -0.331909
0.143519 0.535876 -0.331909
0.152262 -0.083385 -0.346388
0.320502 0.105744 -0.331909
-0.596907 0.140026 -0.346388
-0.173504 0.229742 -0.346388
0.581191 -0.438428 -0.346388
-0.327578 0.061201 -0.346388
-0.420446 0.592838 -0.346388
0.277454 0.240978 -0.331909
-0.510877 -0.070463 -0.346388
-0.386363 0.059252 -0.331909
0.322971 0.520019 -0.346388
-0.475768 -0.337691 -0.331909
-0.432564 -0.172528 -0.346388
-0.072306 0.427849 -0.346388
-0.351507 -0.371778 -0.346388
0.614359 -0.291557 -0.346388
-0.50905 0.278495 -0.331909
0.136498 0.0868 -0.346388
-0.333597 -0.077899 -0.346388
0.167981 0.443679 -0.331909
0.014493 -0.361594 -0.331909
0.451016 0.307268 -0.331909
-0.118393 -0.084782 -0.331909
-0.34513 0.080055 -0.331909
-0.474863 -0.368604 -0.331909
0.225491 0.253318 -0.346388
0.633647 0.207443 -0.346388
0.447032 0.383091 -0.346388
-0.348251 -0.117509 -0.346388
-0.016225 -0.232418 -0.331909
0.27331 -0.4076 -0.331909
-0.033384 -0.10907 -0.346388
0.056547 0.009176 -0.331909
-0.613069 0.527791 -0.346388
-0.172384 0.161252 -0.331909
-0.303383 -0.381004 -0.331909
-0.62453 -0.208225 -0.346388
0.251106 0.587074 -0.331909
-0.14402 0.259457 -0.331909
0.293256 -0.219571 -0.331909
-0.322102 -0.047468 -0.346388
0.077082 -0.207143 -0.346388
0.413971 0.608055 -0.346388
0.019485 0.473925 -0.331909
-0.502443 0.35086 -0.331909
-0.249785 0.035197 -0.346388
0.251534 0.207044 -0.331909
-0.521526 0.298758 -0.346388
-0.725053 0.299826 -0.346388
0.645113 -0.245783 -0.331909
0.558417 0.213566 -0.331909
0.683857 -0.366351 -0.346388
0.336006 0.012915 -0.331909
-0.415984 0.256954 -0.331909
0.52766 -0.110238 -0.331909
0.029301 0.496112 -0.346388
-0.640875 0.038918 -0.331909
-0.171863 0.448612 -0.346388
-0.613282 0.069033 -0.346388
-0.458832 0.374638 -0.346388
0.689801 -0.179589 -0.331909
-0.722492 0.407216 -0.331909
-0.363555 0.47184 -0.331909
-0.399283 -0.467878 -0.346388
-0.428747 0.136518 -0.346388
0.009839 0.031825 -0.346388
-0.063176 -0.43593 -0.346388
0.600647 0.524566 -0.331909
-0.312534 -0.195993 -0.346388
0.648978 -0.119767 -0.331909
0.39309 -0.231969 -0.346388
0.005483 -0.003958 -0.346388
0.7121 0.513396 -0.346388
0.35346 -0.168925 -0.331909
-0.448581 -0.382583 -0.346388
0.600511 -0.45929 -0.346388
-0.19963 0.055731 -0.331909
0.532508 -0.405313 -0.331909
0.105421 0.464794 -0.331909
-0.009155 0.575953 -0.346388
-0.226929 -0.195141 -0.346388
-0.332327 -0.281024 -0.331909
-0.174384 0.109261 -0.331909
-0.656569 0.157584 -0.346388
-0.126565 0.087774 -0.346388
0.281125 -0.246938 -0.331909
0.672283 0.27355 -0.331909
0.061479 0.059004 -0.346388
-0.569226 0.400609 -0.346388
-0.46235 -0.287201 -0.346388
-0.207139 -0.400297 -0.331909
0.239698 0.043372 -0.346388
-0.595426 -0.3128 -0.346388
-0.099578 -0.424649 -0.346388
0.10238 0.416699 -0.331909
0.196377 0.165218 -0.346388
0.149069 -0.136417 -0.346388
0.682642 0.500297 -0.346388
-0.206988 -0.320756 -0.346388
-0.262813 -0.43956 -0.346388
0.37906 0.286373 -0.346388
-0.697326 -0.131321 -0.331909
0.206969 0.413083 -0.331909
-0.711976 0.218977 -0.346388
-0.375308 -0.212034 -0.346388
0.275995 0.449465 -0.346388
-0.550606 0.005478 -0.331909
0.12335 -0.233367 -0.331909
-0.02003 0.142376 -0.331909
0.076454 0.514511 -0.346388
-0.072231 0.304375 -0.331909
-0.512101 -0.420912 -0.331909
-0.456743 -0.465167 -0.331909
0.486827 0.558339 -0.346388
-0.036129 0.204258 -0.331909
0.285406 0.484232 -0.331909
0.692168 0.580757 -0.331909
0.553058 0.042634 -0.331909
-0.246045 -0.35313 -0.331909
0.056551 0.243434 -0.346388
0.354717 0.304785 -0.346388
-0.500288 0.548442 -0.331909
0.592019 -0.359231 -0.346388
-0.276 -0.017123 -0.346388
0.156086 0.217756 -0.331909
0.625284 -0.446626 -0.346388
-0.492987 -0.176364 -0.331909
0.458021 0.050808 -0.331909
-0.173934 -0.44979 -0.346388
-0.213317 0.354285 -0.346388
-0.00626 -0.289543 -0.331909
0.358279 -0.276763 -0.346388
-0.13099 -0.210585 -0.346388
0.506363 0.148705 -0.346388
-0.385182 0.36271 -0.331909
-0.301651 0.125517 -0.346388
0.680877 0.020164 -0.346388
0.364507 0.191176 -0.331909
0.512263 -0.018709 -0.346388
0.032093 0.135923 -0.346388
0.624745 0.311369 -0.346388
0.192219 -0.058299 -0.346388
-0.43763 0.019862 -0.331909
0.064299 -0.054815 -0.346388
-0.603094 0.21975 -0.346388
-0.366512 0.288574 -0.331909
0.220313 0.556644 -0.346388
0.423769 -0.130611 -0.331909
-0.046092 0.484801 -0.331909
0.421683 0.391561 -0.346388
-0.033253 0.177853 -0.346388
-0.541592 0.206311 -0.346388
0.470835 0.168339 -0.346388
0.708327 0.270283 -0.331909
0.374538 -0.122744 -0.331909
0.440436 0.140009 -0.346388
-0.309324 0.312754 -0.346388
0.295357 0.078389 -0.346388
-0.274004 -0.345194 -0.331909
0.647502 -0.29629 -0.331909
0.619949 -0.111594 -0.346388
-0.049516 -0.321702 -0.331909
0.109273 -0.066116 -0.346388
-0.443057 -0.026781 -0.331909
-0.543489 0.294708 -0.331909
-0.447971 0.485523 -0.346388
-0.544768 0.033143 -0.331909
0.686851 0.143275 -0.346388
0.556624 -0.015117 -0.346388
-0.115527 0.299669 -0.346388
-0.563983 -0.249468 -0.331909
0.052035 -0.390778 -0.331909
0.654113 -0.329762 -0.346388
0.517513 0.487999 -0.346388
0.04104 0.264968 -0.346388
0.237297 -0.04546 -0.331909
0.406461 0.174968 -0.331909
0.253232 -0.2847 -0.346388
-0.69105 0.514974 -0.346388
0.532599 0.102153 -0.346388
-0.026927 0.056265 -0.346388
-0.640545 0.213326 -0.331909
-0.156652 -0.416364 -0.346388
-0.359259 -0.17299 -0.331909
-0.431422 -0.292927 -0.346388
-0.62319 0.122198 -0.331909
0.571397 -0.194984 -0.346388
0.378308 -0.192959 -0.346388
0.114014 -0.420364 -0.331909
0.609057 -0.152219 -0.346388
-0.602746 0.484657 -0.331909
0.49469 -0.067918 -0.346388
0.111659 -0.36319 -0.331909
0.509324 0.531736 -0.331909
-0.197893 -0.18192 -0.346388
-0.626531 -0.006877 -0.331909
-0.430297 -0.123289 -0.346388
0.58282 -0.225099 -0.346388
-0.275746 -0.318037 -0.346388
0.176139 0.23734 -0.346388
-0.720424 0.166279 -0.346388
0.317574 0.422569 -0.346388
-0.171068 -0.254502 -0.331909
-0.294825 -0.172936 -0.331909
-0.144399 0.200764 -0.331909
-0.599198 -0.03814 -0.346388
0.114772 -0.163868 -0.331909
-0.130601 0.432272 -0.346388
-0.485896 0.424125 -0.331909
0.08609 0.224944 -0.331909
0.126763 -0.051291 -0.331909
-0.125132 -0.043186 -0.346388
-0.690976 0.031338 -0.346388
-0.094397 0.278623 -0.346388
0.340723 0.474619 -0.331909
-0.701589 -0.24104 -0.346388
-0.2648 0.118468 -0.331909
-0.727926 0.550732 -0.346388
-0.391843 0.143085 -0.346388
-0.25929 0.162065 -0.331909
-0.67368 0.272314 -0.346388
0.114694 0.270132 -0.346388
-0.080587 0.336782 -0.346388
-0.528236 0.546425 -0.331909
0.362045 -0.310984 -0.346388
0.22982 -0.144601 -0.331909
0.170843 0.489302 -0.331909
-0.302808 0.283955 -0.331909
-0.14433 -0.460153 -0.346388
-0.557205 0.176756 -0.346388
0.476986 -0.238428 -0.346388
0.529123 0.342562 -0.346388
-0.606549 -0.249719 -0.331909
-0.530379 -0.402493 -0.331909
-0.091947 0.166663 -0.346388
0.476926 0.20236 -0.346388
-0.537007 0.234696 -0.331909
-0.724057 -0.044862 -0.346388
0.536828 -0.34108 -0.331909
-0.32232 -0.022036 -0.331909
-0.282195 -0.387816 -0.346388
-0.065035 0.447981 -0.331909
-0.068124 0.378369 -0.346388
-0.297715 0.157157 -0.331909
0.300589 0.407182 -0.331909
-0.220144 -0.462762 -0.331909
0.646488 -0.219855 -0.346388
0.357272 -0.348433 -0.331909
-0.237409 0.23581 -0.331909
-0.665309 -0.408717 -0.346388
0.336046 0.178744 -0.331909
-0.71431 0.455784 -0.331909
-0.463486 0.042363 -0.331909
0.013299 -0.078925 -0.346388
0.660844 -0.42275 -0.346388
0.125597 0.403313 -0.331909
-0.081335 0.095107 -0.346388
-0.486768 -0.086016 -0.346388
0.500586 -0.39225 -0.346388
-0.187005 -0.348057 -0.346388
-0.307204 0.467577 -0.331909
-0.565991 0.362244 -0.346388
-0.225417 0.152553 -0.346388
-0.673309 -0.102358 -0.331909
-0.496692 -0.219323 -0.346388
0.628768 0.589677 -0.331909
-0.32245 0.489944 -0.331909
0.175715 -0.450426 -0.331909
0.616595 0.288837 -0.331909
0.396189 -0.079744 -0.331909
-0.299839 0.369489 -0.346388
-0.003463 0.310513 -0.346388
0.603986 -0.317634 -0.346388
-0.276876 0.327496 -0.346388
0.527726 0.264956 -0.331909
0.278845 -0.025479 -0.346388
0.240102 0.3676 -0.346388
-0.065863 0.407162 -0.331909
-0.592598 0.512545 -0.331909
-0.480224 0.10456 -0.331909
0.36172 -0.407045 -0.331909
-0.676161 -0.256637 -0.346388
-0.500337 0.124762 -0.346388
0.345326 0.374637 -0.331909
0.096067 0.166034 -0.331909
-0.138187 0.131448 -0.346388
-0.439426 0.384998 -0.331909
0.252935 -0.135859 -0.346388
-0.460717 0.294817 -0.346388
-0.457088 -0.420079 -0.331909
0.180363 -0.227114 -0.346388
0.452026 0.101381 -0.331909
0.541914 0.455811 -0.331909
-0.070053 -0.22668 -0.346388
0.466191 0.608963 -0.331909
-0.652233 0.543564 -0.331909
0.556614 -0.176091 -0.331909
-0.403459 0.398986 -0.346388
-0.523228 0.575537 -0.331909
-0.350473 0.341128 -0.331909
0.007029 0.222809 -0.331909
0.135714 -0.193948 -0.331909
0.141779 0.347663 -0.346388
-0.651672 0.363537 -0.346388
-0.393816 0.607701 -0.331909
-0.215665 0.321995 -0.331909
0.401131 -0.160736 -0.346388
0.535514 0.160906 -0.346388
0.216233 -0.178485 -0.331909
0.590562 0.338247 -0.346388
-0.496001 -0.283469 -0.346388
-0.527356 -0.143331 -0.331909
0.405664 0.020911 -0.331909
-0.664199 0.093062 -0.331909
0.342326 -0.384048 -0.346388
-0.162761 0.395063 -0.346388
0.077606 0.412657 -0.331909
-0.421728 -0.072663 -0.346388
0.682654 -0.137971 -0.331909
-0.596256 0.546977 -0.346388
0.412268 0.345017 -0.331909
-0.224679 -0.125685 -0.331909
-0.651549 0.127168 -0.331909
-0.421395 -0.024831 -0.346388
0.486748 -0.194003 -0.346388
0.515457 -0.186108 -0.346388
-0.25773 -0.052888 -0.331909
-0.059463 -0.381469 -0.331909
0.156408 -0.321414 -0.331909
-0.089792 0.457193 -0.346388
-0.29234 0.564633 -0.346388
0.596205 0.421399 -0.331909
-0.490106 -0.421584 -0.346388
0.46974 0.018473 -0.346388
0.475629 -0.40879 -0.346388
0.217287 -0.251149 -0.331909
0.201203 -0.021027 -0.331909
0.022722 0.540026 -0.346388
-0.563366 0.334516 -0.331909
-0.307746 -0.240229 -0.346388
0.114293 -0.114933 -0.331909
0.351756 -0.085931 -0.346388
-0.67417 0.598358 -0.331909
-0.069461 0.589648 -0.346388
0.492349 0.091422 -0.331909
0.524221 0.442457 -0.346388
0.422335 -0.351088 -0.331909
-0.256989 0.369107 -0.331909
0.176034 -0.173907 -0.331909
-0.340298 0.193856 -0.346388
-0.188206 0.124206 -0.346388
-0.607193 0.463848 -0.346388
0.507499 0.19607 -0.331909
-0.058187 -0.288744 -0.346388
0.445255 0.347935 -0.346388
0.323888 0.21422 -0.346388
0.334954 0.595755 -0.346388
-0.624686 -0.130773 -0.346388
0.620979 0.500357 -0.331909
0.028765 0.065703 -0.346388
0.031898 0.008132 -0.331909
0.287944 0.286727 -0.346388
-0.159553 -0.029087 -0.346388
-0.519023 0.08057 -0.331909
0.541996 0.296328 -0.331909
-0.592524 0.045912 -0.346388
-0.256359 0.607224 -0.346388
-0.485776 0.165388 -0.346388
-0.328226 0.402779 -0.346388
0.239784 -0.340951 -0.331909
-0.450497 0.189363 -0.346388
0.43904 -0.443275 -0.346388
0.21541 0.473486 -0.331909
0.180625 -0.270072 -0.331909
0.311704 0.583562 -0.331909
-0.207982 -0.079838 -0.346388
0.392505 -0.423325 -0.331909
-0.22564 -0.329155 -0.331909
-0.555745 -0.230296 -0.346388
-0.682093 0.152455 -0.346388
0.14795 0.377011 -0.331909
0.309815 0.458597 -0.346388
-0.295356 0.018136 -0.331909
0.25554 0.527478 -0.346388
0.573681 0.319804 -0.331909
0.150804 0.466085 -0.331909
0.177367 -0.388751 -0.346388
0.487309 -0.329878 -0.331909
-0.079229 -0.3377 -0.346388
-0.702066 0.360753 -0.346388
-0.147357 0.544957 -0.331909
0.173041 0.320174 -0.346388
0.005926 0.516976 -0.346388
-0.107998 0.477099 -0.331909
-0.392247 -0.355095 -0.346388
0.192403 0.271734 -0.331909
0.665778 -0.024174 -0.331909
0.379814 0.5856 -0.346388
0.371852 -0.438558 -0.331909
0.329105 0.545781 -0.346388
-0.246881 0.414655 -0.346388
-0.687122 -0.324206 -0.346388
0.495616 0.112957 -0.346388
-0.252594 -0.421527 -0.331909
-0.654523 -0.162125 -0.331909
-0.02256 0.482069 -0.346388
0.330721 -0.307094 -0.346388
-0.056691 0.026 -0.346388
-0.131436 0.274426 -0.346388
0.33624 0.257195 -0.346388
0.591089 -0.271033 -0.331909
-0.209426 0.510357 -0.346388
0.189614 0.546004 -0.346388
-0.103692 0.431418 -0.346388
0.088247 0.247495 -0.346388
0.1059 0.588917 -0.331909
0.643156 0.050626 -0.346388
-0.035606 -0.257104 -0.346388
0.698744 0.240281 -0.331909
-0.03287 -0.039415 -0.346388
0.174564 -0.349873 -0.346388
-0.206924 0.116397 -0.331909
-0.38032 0.192922 -0.346388
-0.598043 -0.336906 -0.346388
-0.548608 0.077355 -0.346388
-0.695408 0.440659 -0.331909
0.255624 0.429696 -0.331909
-0.671877 0.392115 -0.346388
-0.467126 -0.089713 -0.331909
0.420489 0.054066 -0.331909
0.145767 0.485608 -0.346388
-0.493965 -0.371787 -0.346388
-0.513389 -0.311449 -0.346388
-0.338988 0.43374 -0.346388
-0.351715 0.106105 -0.331909
0.519446 -0.305288 -0.346388
0.286967 -0.333466 -0.346388
-0.280494 -0.095456 -0.346388
-0.08528 0.578685 -0.331909
-0.630018 0.296982 -0.346388
-0.619104 0.325939 -0.346388
0.540738 0.246905 -0.346388
-0.373614 0.324873 -0.331909
0.064032 -0.155833 -0.331909
-0.575276 -0.143611 -0.346388
-0.373364 0.044977 -0.346388
0.398316 0.144692 -0.331909
-0.316729 -0.443539 -0.331909
0.554866 0.355314 -0.331909
-0.313588 0.346817 -0.346388
-0.401771 0.093809 -0.346388
0.493297 0.295936 -0.331909
-0.726425 0.598199 -0.331909
-0.023953 -0.307097 -0.346388
0.677816 -0.398647 -0.331909
0.677744 0.449963 -0.346388
-0.707736 -0.054708 -0.331909
-0.36775 0.256327 -0.346388
-0.462462 0.336793 -0.346388
-0.01283 -0.103496 -0.331909
0.048414 -0.085301 -0.346388
-0.522771 -0.216914 -0.331909
-0.336617 0.528882 -0.346388
0.514413 0.404865 -0.331909
0.615699 0.336444 -0.331909
0.246331 0.148363 -0.331909
-0.385047 0.460084 -0.346388
-0.667952 0.228451 -0.331909
-0.081875 0.226115 -0.346388
-0.565473 -0.328414 -0.331909
0.190305 0.349414 -0.331909
-0.320415 0.229205 -0.346388
0.466998 0.289921 -0.346388
-0.617663 -0.060203 -0.346388
-0.373484 0.024654 -0.331909
0.649981 0.090775 -0.331909
0.020356 -0.229486 -0.331909
0.230938 0.000735 -0.331909
0.542439 0.128089 -0.346388
0.198741 -0.302112 -0.331909
-0.040009 -0.373478 -0.346388
-0.242558 -0.310616 -0.346388
0.053173 0.142542 -0.331909
-0.342437 -0.230999 -0.346388
0.63599 -0.197132 -0.346388
-0.648811 -0.13835 -0.346388
-0.44277 -0.188207 -0.331909
0.631468 -0.278905 -0.331909
-0.686117 0.052794 -0.331909
0.128313 0.426802 -0.331909
-0.273703 -0.268695 -0.346388
-0.359343 -0.061179 -0.346388
0.563701 0.291575 -0.346388
-0.599176 0.272713 -0.331909
0.236202 0.459577 -0.346388
-0.057338 -0.131264 -0.346388
0.590886 0.179961 -0.346388
-0.565846 -0.05673 -0.346388
-0.652352 0.607399 -0.331909
-0.630611 -0.301594 -0.346388
-0.020177 -0.130405 -0.346388
0.686025 -0.011979 -0.346388
-0.694983 0.197694 -0.346388
0.013798 -0.118706 -0.346388
-0.269158 -0.213157 -0.346388
-0.082464 -0.039529 -0.331909
0.303573 0.05048 -0.331909
0.413046 -0.32192 -0.346388
-0.526791 0.184563 -0.346388
0.296023 0.012686 -0.346388
0.029681 -0.398094 -0.331909
-0.033908 -0.164631 -0.331909
0.147011 0.064442 -0.331909
-0.349125 -0.450786 -0.331909
-0.280937 0.197864 -0.331909
-0.454162 -0.442243 -0.346388
0.047253 -0.134814 -0.346388
0.622408 -0.231189 -0.346388
0.452329 0.519868 -0.346388
-0.146367 0.075196 -0.346388
-0.473398 -0.154344 -0.331909
-0.025627 0.59801 -0.346388
-0.151488 -0.328469 -0.331909
0.190465 0.447469 -0.346388
-0.655777 0.42533 -0.346388
0.083072 -0.343551 -0.346388
0.318882 -0.258976 -0.346388
-0.37616 0.395884 -0.331909
-0.428569 -0.211778 -0.331909
0.411857 0.314681 -0.346388
0.080584 0.378952 -0.331909
-0.605182 0.020667 -0.346388
0.070573 0.33258 -0.331909
-0.222854 0.24704 -0.346388
-0.154687 -0.130499 -0.346388
0.506926 0.436277 -0.331909
-0.443943 0.508653 -0.346388
0.603079 -0.382721 -0.331909
0.694772 0.479515 -0.346388
0.229989 -0.103188 -0.331909
-0.451232 -0.137367 -0.331909
0.403186 -0.369273 -0.346388
-0.261202 0.459444 -0.331909
0.216598 -0.440407 -0.346388
-0.135653 -0.371794 -0.331909
0.537325 -0.125763 -0.346388
0.348119 0.527812 -0.346388
0.139989 0.151711 -0.346388
0.369309 0.001117 -0.346388
0.708125 -0.226243 -0.331909
0.405682 0.119006 -0.346388
-0.168517 0.585236 -0.346388
0.130718 0.519611 -0.346388
-0.172397 0.338649 -0.346388
0.608659 0.2643 -0.331909
0.376149 0.337543 -0.331909
-0.597502 -0.26793 -0.346388
0.295077 -0.459757 -0.346388
-0.015329 0.425042 -0.331909
0.221779 -0.358321 -0.346388
-0.558736 -0.348821 -0.346388
-0.704527 -0.458941 -0.331909
0.178703 -0.129682 -0.331909
0.448626 -0.363818 -0.346388
0.705552 0.050538 -0.331909
-0.025808 0.521265 -0.331909
-0.406115 -0.093823 -0.346388
-0.362751 0.17094 -0.331909
-0.118847 0.034766 -0.346388
-0.062771 0.548911 -0.346388
-0.475192 0.456487 -0.346388
-0.175502 -0.115321 -0.331909
0.027485 -0.211542 -0.346388
0.634681 -0.37857 -0.331909
0.273279 -0.388132 -0.346388
-0.353506 -0.030563 -0.346388
0.653857 0.134829 -0.346388
-0.014459 -0.044254 -0.331909
-0.560437 -0.433842 -0.346388
-0.331613 -0.406285 -0.331909
0.536052 -0.297728 -0.331909
-0.454856 -0.003569 -0.346388
0.618112 -0.413082 -0.331909
0.63656 0.532676 -0.331909
0.010183 -0.282277 -0.346388
0.068283 0.599337 -0.346388
-0.090483 0.125325 -0.331909
0.248108 -0.321363 -0.346388
0.213824 -0.130852 -0.346388
-0.059765 -0.052291 -0.331909
0.284932 -0.166263 -0.331909
-0.404287 -0.054707 -0.346388
-0.48327 0.32691 -0.346388
-0.66718 -0.373924 -0.346388
0.645512 0.150751 -0.331909
0.439013 0.176741 -0.331909
0.223281 -0.268001 -0.346388
0.120775 -0.093504 -0.346388
-0.064553 0.524618 -0.346388
-0.264016 -0.469815 -0.331909
0.513829 -0.449884 -0.346388
-0.022286 -0.430592 -0.346388
-0.521363 -0.354072 -0.331909
0.441823 -0.166148 -0.346388
-0.162445 0.492506 -0.331909
-0.658758 0.342599 -0.331909
-0.682712 0.10922 -0.331909
-0.389269 -0.223095 -0.331909
0.077804 -0.445934 -0.331909
0.073571 0.014229 -0.346388
0.149376 -0.284635 -0.346388
-0.195724 -0.13073 -0.331909
-0.360093 0.42738 -0.331909
0.243186 0.093827 -0.346388
0.193539 -0.436277 -0.346388
-0.663294 -0.282543 -0.331909
-0.399316 -0.005225 -0.346388
-0.09997 -0.033603 -0.346388
0.678176 0.106605 -0.346388
-0.602552 0.248953 -0.331909
0.073201 0.288575 -0.331909
-3.3e-05 0.245963 -0.331909
-0.183521 0.174934 -0.346388
-0.290684 -0.413732 -0.331909
0.473525 -0.434755 -0.331909
0.10673 0.066969 -0.346388
-0.032978 -0.216212 -0.346388
-0.37319 -0.130827 -0.346388
0.227538 -0.080082 -0.346388
0.591191 0.138847 -0.331909
0.535317 0.472857 -0.346388
-0.363074 -0.192876 -0.346388
0.547796 0.012541 -0.331909
-0.154175 0.280701 -0.331909
0.296873 0.199041 -0.331909
0.377371 0.232009 -0.331909
0.612823 0.059268 -0.346388
0.629197 -0.096765 -0.331909
-0.41375 0.422127 -0.331909
-0.732864 0.125302 -0.346388
-0.17778 0.089942 -0.346388
0.448682 0.24049 -0.331909
-0.484475 -0.319924 -0.346388
0.603966 -0.135583 -0.331909
-0.1516 -0.300926 -0.331909
-0.245418 0.062798 -0.346388
0.113035 0.103088 -0.346388
-0.141652 0.317397 -0.346388
-0.095166 -0.321633 -0.346388
-0.465017 0.569529 -0.346388
-0.125349 -0.129305 -0.346388
-0.532145 -0.061524 -0.346388
0.108454 0.286699 -0.331909
0.559865 0.230804 -0.346388
0.056164 0.273788 -0.331909
0.178718 0.515748 -0.331909
0.072912 -0.369425 -0.331909
0.249178 0.004297 -0.346388
0.325094 -0.092191 -0.331909
-0.161466 -0.003021 -0.331909
0.51177 -0.129761 -0.331909
-0.578146 -0.117559 -0.346388
-0.597179 -0.37474 -0.331909
0.711563 -0.357093 -0.331909
0.152195 0.418489 -0.346388
0.161826 0.087193 -0.331909
-0.634596 0.174021 -0.346388
0.370301 0.450067 -0.331909
-0.701998 -0.075059 -0.346388
-0.492532 -0.032723 -0.331909
-0.27885 0.039121 -0.346388
-0.181344 -0.034397 -0.346388
0.099822 -0.019055 -0.331909
0.127574 -0.353547 -0.346388
-0.729594 0.014367 -0.331909
0.55473 -0.140029 -0.331909
0.403161 0.541166 -0.331909
-0.70343 -0.009131 -0.346388
-0.311721 -0.366084 -0.346388
-0.222503 0.452775 -0.346388
-0.289806 -0.439581 -0.346388
0.213651 0.497203 -0.346388
0.019982 0.28029 -0.346388
0.253154 -0.454342 -0.346388
0.351509 -0.224161 -0.346388
0.077003 0.042888 -0.346388
-0.531669 -0.01847 -0.331909
-0.212902 -0.42191 -0.331909
-0.304252 0.528285 -0.331909
0.590424 0.4702 -0.331909
0.306398 -0.144652 -0.346388
0.407917 0.381523 -0.331909
-0.677731 -0.198761 -0.331909
-0.32821 0.608073 -0.346388
-0.026602 0.498929 -0.331909
0.170212 0.135186 -0.331909
-0.429179 0.445498 -0.331909
0.04028 0.21534 -0.346388
0.634354 -0.016903 -0.346388
-0.563139 0.106568 -0.331909
0.43635 0.5348 -0.331909
-0.118411 0.540937 -0.331909
0.356971 0.493743 -0.346388
-0.362822 0.071235 -0.346388
0.083116 -0.254032 -0.346388
0.210296 -0.374517 -0.331909
0.461466 -0.025199 -0.331909
-0.574957 -0.286826 -0.331909
-0.62192 0.023348 -0.331909
-0.005951 0.12401 -0.346388
-0.672526 -0.341046 -0.346388
0.24531 0.561244 -0.346388
-0.47841 -0.2175 -0.331909
0.098998 -0.13394 -0.331909
-0.374204 -0.350996 -0.331909
0.258764 -0.009945 -0.331909
-0.10784 -0.144322 -0.331909
-0.191539 -0.063486 -0.331909
0.370857 -0.056137 -0.346388
0.115672 0.206207 -0.346388
-0.697119 -0.284804 -0.346388
0.134873 0.578649 -0.331909
-0.574486 0.04427 -0.331909
0.039028 -0.031752 -0.331909
-0.482808 -0.253034 -0.346388
-0.493976 0.503049 -0.346388
0.499324 0.181367 -0.346388
0.20897 -0.418371 -0.331909
-0.563131 0.570488 -0.346388
0.606485 -0.434085 -0.346388
0.504066 -0.154802 -0.346388
-0.150612 0.585681 -0.331909
-0.636415 -0.079127 -0.331909
0.664579 0.228359 -0.346388
0.229825 0.276447 -0.331909
-0.064285 0.362028 -0.331909
0.59702 0.588652 -0.331909
-0.609795 -0.138474 -0.331909
-0.39059 -0.421078 -0.331909
-0.690393 0.223818 -0.346388
-0.330638 0.250562 -0.331909
0.232654 0.195535 -0.331909
0.418101 0.586354 -0.346388
-0.638687 -0.167326 -0.346388
0.581329 -0.038829 -0.331909
0.614577 0.146366 -0.331909
-0.465864 0.538847 -0.331909
0.46402 0.125023 -0.331909
0.070117 0.447969 -0.331909
-0.630412 0.065046 -0.331909
-0.104863 0.156257 -0.331909
0.585646 -0.149857 -0.346388
-0.330662 -0.36271 -0.331909
-0.665138 0.110713 -0.346388
0.308398 0.500299 -0.331909
-0.240581 0.547151 -0.346388
-0.122573 0.10941 -0.346388
0.228562 -0.031392 -0.346388
0.297384 0.442135 -0.331909
0.075788 -0.393303 -0.331909
0.064546 0.12517 -0.346388
-0.363653 0.574169 -0.331909
0.244471 0.409564 -0.346388
0.025714 0.094521 -0.331909
0.345657 -0.427628 -0.331909
0.066429 0.197511 -0.346388
0.634906 0.610661 -0.333669
0.165884 0.533842 -0.331909
0.088913 -0.232113 -0.346388
0.346616 -0.302811 -0.331909
-0.604063 -0.405411 -0.346388
-0.066722 0.043448 -0.331909
-0.36095 0.213596 -0.346388
-0.0026 -0.34793 -0.331909
-0.627289 -0.268011 -0.331909
-0.457337 -0.05605 -0.331909
0.256318 0.167804 -0.331909
0.535182 0.610437 -0.346388
0.174758 0.398558 -0.331909
0.495038 -0.089546 -0.331909
0.068923 -0.290198 -0.331909
0.472775 -0.322376 -0.346388
-0.624526 0.419265 -0.346388
-0.546064 -0.392383 -0.346388
-0.569167 -0.388771 -0.331909
-0.566239 0.45771 -0.331909
-0.015134 0.079464 -0.346388
0.668951 -0.000912 -0.331909
0.030654 -0.328205 -0.331909
-0.179636 0.359568 -0.331909
-0.616393 -0.392342 -0.331909
-0.428552 0.561618 -0.331909
0.435523 0.302361 -0.346388
-0.120863 -0.284598 -0.346388
0.153808 0.262719 -0.346388
-0.633902 0.253864 -0.346388
0.043785 0.31176 -0.331909
-0.059741 0.075337 -0.331909
0.264058 -0.149038 -0.331909
-0.580637 0.212742 -0.346388
0.39205 0.417055 -0.346388
-0.639278 0.156537 -0.331909
-0.396709 -0.295691 -0.331909
0.216963 0.053409 -0.346388
-0.520737 -0.101801 -0.346388
0.627722 0.412698 -0.346388
0.27638 0.329831 -0.331909
-0.350776 0.149446 -0.331909
-0.413683 -0.446233 -0.346388
0.404465 -0.444026 -0.331909
-0.402316 0.370805 -0.346388
-0.157764 -0.368928 -0.346388
0.007091 0.164124 -0.331909
-0.010451 0.344278 -0.346388
-0.649956 0.060772 -0.346388
0.486122 0.262515 -0.331909
0.175076 0.268803 -0.346388
-0.108457 0.252245 -0.346388
0.647425 0.231721 -0.331909
0.00157 -0.157313 -0.346388
0.431917 0.208323 -0.346388
0.691338 -0.227838 -0.346388
0.112384 -0.466649 -0.346388
-0.298594 0.50012 -0.331909
0.653855 0.517041 -0.331909
0.176068 0.566751 -0.346388
-0.159752 0.151578 -0.346388
0.281848 -0.289493 -0.331909
0.640651 0.456924 -0.346388
-0.195603 0.450858 -0.346388
-0.34364 0.215842 -0.331909
0.500896 0.450961 -0.346388
-0.068337 -0.088404 -0.331909
-0.032827 0.285075 -0.331909
-0.259176 0.281892 -0.331909
-0.212096 0.539016 -0.346388
-0.067076 0.193513 -0.346388
-0.691862 -0.090078 -0.331909
0.186222 0.153035 -0.331909
0.637606 -0.001306 -0.331909
-0.473194 0.256871 -0.346388
0.488666 0.064488 -0.346388
0.574223 -0.10493 -0.346388
0.451635 0.473925 -0.331909
0.668921 -0.111899 -0.331909
-0.707173 0.392221 -0.331909
0.63224 0.257722 -0.331909
-0.119282 -0.435684 -0.331909
0.653681 0.358389 -0.346388
0.601858 0.444954 -0.331909
-0.397521 0.439169 -0.346388
-0.011769 0.447746 -0.331909
0.556208 -0.447819 -0.331909
0.106349 0.510893 -0.331909
0.511315 0.220866 -0.346388
0.174802 -0.304358 -0.346388
-0.262024 0.340012 -0.331909
0.314167 -0.280518 -0.346388
-0.159792 0.197512 -0.346388
-0.099434 -0.165766 -0.346388
-0.066067 -0.204349 -0.346388
0.642138 0.554766 -0.346388
0.589402 0.401121 -0.331909
-0.393999 -0.384174 -0.331909
-0.342023 0.45117 -0.331909
0.009474 -0.376391 -0.346388
0.12472 0.17458 -0.331909
-0.108006 -0.257346 -0.331909
-0.10724 0.610661 -0.33838
-0.62439 0.610661 -0.343187
-0.008468 -0.326174 -0.346388
0.445786 0.074544 -0.346388
0.089212 0.480895 -0.346388
-0.375544 -0.293804 -0.331909
-0.538839 0.34047 -0.331909
0.095518 -0.270286 -0.331909
-0.03296 -0.149131 -0.346388
0.656604 0.548271 -0.331909
0.041388 0.593741 -0.331909
0.582448 0.252082 -0.346388
-0.547735 -0.11521 -0.346388
-0.301395 0.413401 -0.331909
0.418337 -0.283647 -0.331909
0.32688 0.349637 -0.346388
-0.65542 0.504174 -0.346388
-0.411706 0.57524 -0.331909
-0.135231 -0.225436 -0.331909
-0.688661 0.257816 -0.331909
-0.417925 0.45763 -0.346388
0.171781 0.054599 -0.331909
-0.13457 -0.253009 -0.346388
0.573665 0.154126 -0.331909
-0.532425 0.525145 -0.331909
-0.038654 0.067212 -0.331909
0.228493 0.136126 -0.331909
-0.082632 0.479541 -0.331909
-0.317832 0.211846 -0.331909
-0.194231 -0.210913 -0.346388
0.27568 -0.102826 -0.331909
-0.712511 0.311383 -0.331909
-0.292383 -0.016274 -0.331909
-0.015099 0.243305 -0.346388
-0.321597 0.436582 -0.331909
0.55887 -0.342024 -0.331909
0.65436 -0.37133 -0.346388
0.113298 0.134137 -0.331909
0.697491 -0.282298 -0.331909
-0.681411 0.204659 -0.331909
0.204618 0.239282 -0.331909
-0.063038 -0.106496 -0.346388
-0.41044 -0.116434 -0.346388
-0.582937 -0.077091 -0.346388
0.499081 0.047565 -0.331909
0.494884 -0.004193 -0.331909
0.313336 -0.318214 -0.331909
-0.477199 0.007167 -0.346388
-0.502893 -0.438728 -0.346388
0.29807 0.130574 -0.346388
0.096823 0.330548 -0.331909
-0.050021 0.591556 -0.331909
0.166143 -0.372158 -0.331909
0.111246 0.380743 -0.346388
0.018593 0.418939 -0.331909
0.670575 -0.435671 -0.331909
0.421935 -0.145622 -0.346388
0.282284 0.157864 -0.346388
-0.518899 0.558313 -0.346388
-0.403309 -0.396069 -0.346388
0.196279 -0.19668 -0.346388
0.671834 -0.253744 -0.331909
0.279038 0.587777 -0.331909
-0.733064 -0.436369 -0.346388
-0.480447 -0.127362 -0.346388
-0.427208 0.373621 -0.346388
0.354098 -0.118416 -0.331909
-0.332512 -0.108109 -0.331909
-0.190182 0.543503 -0.331909
-0.730605 -0.108003 -0.331909
0.660477 0.184006 -0.346388
-0.488371 0.195996 -0.346388
0.259946 -0.417962 -0.346388
0.553552 -0.401706 -0.331909
0.227088 0.035185 -0.331909
0.59666 0.570174 -0.346388
0.525411 0.239948 -0.331909
0.220872 0.436598 -0.346388
0.384323 0.000968 -0.331909
-0.589674 0.566763 -0.346388
0.685901 -0.45237 -0.331909
0.397878 0.161577 -0.346388
0.577589 -0.419027 -0.331909
0.692874 0.281779 -0.346388
0.338783 0.092097 -0.346388
0.300353 -0.35112 -0.346388
-0.60141 0.367397 -0.346388
-0.283501 0.285025 -0.346388
-0.078947 -0.290328 -0.346388
-0.413364 0.020325 -0.331909
-0.266257 -0.140624 -0.331909
0.586788 0.020018 -0.346388
-0.149308 -0.349915 -0.346388
0.22502 0.300991 -0.346388
0.649881 0.424019 -0.331909
-0.119118 0.506988 -0.331909
-0.369612 0.602673 -0.331909
0.516947 -0.339294 -0.346388
-0.382691 -0.093785 -0.331909
-0.098141 0.032418 -0.331909
0.611823 0.171152 -0.331909
-0.728857 0.139642 -0.331909
-0.602002 0.126079 -0.331909
-0.143798 0.381196 -0.346388
0.429519 0.253228 -0.331909
-0.23812 0.51001 -0.331909
-0.728388 0.451151 -0.346388
0.612382 0.030634 -0.346388
0.609608 0.360004 -0.331909
0.146526 -0.037143 -0.346388
0.188496 0.077774 -0.346388
0.02305 0.178245 -0.331909
0.052696 0.358101 -0.331909
0.241902 0.344576 -0.346388
-0.535965 0.47909 -0.346388
0.274467 0.362884 -0.346388
-0.172221 -0.295662 -0.331909
-0.249769 -0.462931 -0.346388
-0.44504 0.36456 -0.331909
0.477629 0.519169 -0.346388
0.487186 0.573612 -0.331909
0.470839 0.430612 -0.331909
-0.364599 -0.252958 -0.346388
-0.226845 0.196318 -0.331909
0.317508 -0.03318 -0.346388
0.206993 -0.31431 -0.346388
-0.582273 0.610661 -0.332024
-0.123052 0.165317 -0.346388
0.475529 -0.120888 -0.346388
-0.257674 -0.362133 -0.346388
0.191414 0.305139 -0.331909
-0.512911 0.117181 -0.331909
0.641325 -0.309608 -0.346388
0.682856 -0.317763 -0.331909
0.67402 -0.083903 -0.331909
-0.569583 0.497793 -0.331909
-0.23382 -0.21559 -0.331909
-0.099111 0.551656 -0.346388
0.306467 -0.428448 -0.346388
0.644799 -0.152612 -0.331909
-0.260434 0.23965 -0.346388
-0.152822 -0.080256 -0.331909
-0.678885 -0.384646 -0.331909
-0.183883 -0.451123 -0.179355
0.478143 -0.451123 -0.036815
0.124695 -0.451123 -0.034536
-0.441433 -0.451123 0.033638
-0.442811 -0.451123 -0.236963
-0.121181 -0.451123 0.09356
0.295316 -0.451123 -0.211793
0.448027 -0.451123 0.19993
0.242104 -0.451123 0.140763
0.536915 -0.451123 -0.242907
0.10152 -0.451123 -0.215156
-0.574225 -0.451123 -0.087062
-0.581842 -0.451123 0.145506
0.301602 -0.451123 -0.036237
0.048154 -0.451123 0.139547
-0.275726 -0.451123 -0.000208
-0.65878 -0.451123 -0.232737
-0.033208 -0.451123 -0.07737
0.611016 -0.451123 0.196806
-0.070194 -0.451123 0.233549
-0.375493 -0.451123 -0.112673
-0.682212 -0.451123 0.033872
0.622019 -0.451123 -0.038781
0.168264 -0.451123 0.264038
-0.165024 -0.451123 -0.313361
-0.298743 -0.451123 -0.242502
0.562631 -0.451123 0.075695
-0.050999 -0.451123 -0.202171
-0.160526 -0.451123 -0.055708
0.404714 -0.451123 -0.153659
0.199723 -0.451123 -0.131446
0.41071 -0.451123 0.084748
0.656185 -0.451123 -0.241213
0.195707 -0.451123 -0.287642
-0.564761 -0.451123 0.028209
-0.428276 -0.451123 0.226717
-0.004537 -0.451123 0.033241
0.541586 -0.451123 -0.129091
-0.345497 -0.451123 0.097238
0.151772 -0.451123 0.078682
-0.232608 -0.451123 0.117176
-0.561711 -0.451123 -0.196347
-0.26415 -0.451123 -0.117358
-0.479891 -0.451123 -0.118159
0.430702 -0.451123 -0.272664
-0.265806 -0.451123 0.263276
0.024709 -0.451123 -0.272067
-0.482301 -0.451123 0.119918
0.24474 -0.451123 0.038165
0.089085 -0.451123 -0.120252
-0.520609 -0.451123 0.23464
0.259724 -0.451123 0.231122
0.046768 -0.451123 0.230208
-0.089017 -0.451123 0.002072
-0.663765 -0.451123 -0.080515
-0.156968 -0.451123 0.265722
-0.648405 -0.451123 0.205184
-0.357738 -0.451123 -0.026627
0.329498 -0.451123 -0.297337
-0.033144 -0.451123 0.114604
0.310854 -0.451123 0.091273
0.503271 -0.451123 0.134642
0.638013 -0.451123 -0.123
0.323188 -0.451123 -0.13466
0.220742 -0.451123 -0.049044
-0.684757 -0.451123 0.132029
0.107939 -0.451123 -0.296342
0.399193 -0.451123 -0.056175
-0.485916 -0.451123 -0.037605
-0.633185 -0.451123 -0.156143
0.648369 -0.451123 0.120695
0.355331 -0.451123 0.0229
-0.196395 -0.451123 0.046111
0.045087 -0.451123 -0.031634
0.657648 -0.451123 0.032001
0.028968 -0.451123 -0.171401
-0.72816 -0.451123 -0.270017
0.478323 -0.451123 -0.179401
-0.09997 -0.451123 -0.270716
-0.221631 -0.451123 -0.260162
-0.092467 -0.451123 -0.136754
-0.38308 -0.451123 -0.188824
-0.133426 -0.451123 0.185284
0.375533 -0.451123 0.236882
-0.567513 -0.451123 -0.276895
0.210201 -0.451123 -0.213877
0.493332 -0.451123 0.047902
0.069396 -0.451123 0.041734
0.545812 -0.451123 0.278481
-0.339802 -0.451123 0.257861
-0.389482 -0.451123 0.155603
0.701828 -0.451123 0.256284
0.358225 -0.451123 0.164923
-0.36335 -0.451123 -0.273785
-0.629183 -0.451123 -0.019307
0.542838 -0.451123 -0.010092
-0.620382 -0.451123 0.07065
-0.016429 -0.451123 0.182773
0.603533 -0.451123 -0.182567
-0.299972 -0.451123 0.148679
-0.312148 -0.451123 -0.163065
0.363142 -0.451123 -0.203945
-0.582882 -0.451123 0.253812
0.259183 -0.451123 -0.27416
0.43437 -0.451123 0.020819
-0.115714 -0.451123 -0.20221
-0.539412 -0.451123 0.089572
-0.454971 -0.451123 -0.308717
-0.511893 -0.451123 -0.236518
-0.411128 -0.451123 0.095514
-0.196003 -0.451123 -0.116687
0.512643 -0.451123 -0.301616
0.521342 -0.451123 0.21989
-0.695662 -0.451123 -0.14605
