-0.1748854166696387 -0.228612 0.8198415775083647
-0.22637167669447922 -0.203725 0.6508726414589994
-0.24580625197894096 0.28067 0.7386164116111451
-0.26746327299836425 0.66731 0.5160171809014137
-0.214023857904877 -0.010273 0.8429206921940671
-0.17846009436224702 0.710743 0.8081101080610206
-0.13994865517960867 0.094147 0.9344979424323789
-0.2905619751433523 0.478233 0.440211264455419
-0.20654221838972114 -0.805615 0.8674741297164437
-0.32603771253927905 -0.102877 0.47531073506702864
-0.12825021346460252 0.12796 0.9728901901712208
-0.14405469600281268 -0.550006 0.9210226317584769
-0.23940129527039067 -0.086393 0.6081117031651982
-0.2898108724886257 0.658559 0.5942009130841566
-0.28471770142280495 0.86744 0.5782100081224515
-0.3026104811040224 0.650082 0.4006701668465299
-0.3243267407473995 -0.691201 0.4809258464218811
-0.29190306223269435 0.253131 0.4358100502571778
-0.33719196612218316 -0.059059 0.4387044179754627
-0.23548037690242896 -0.40109 0.7725041347554384
-0.20764633442850133 -0.247469 0.8638506132237385
-0.3448834692983531 0.853232 0.41346224447770374
-0.12310345131903563 -0.814549 1.0200989360708628
-0.2870062778410166 -0.110415 0.6034051041329453
-0.2826253395520254 0.307281 0.4662579198355342
-0.17661358562262913 0.039847 0.8141700280666406
-0.14872328802845747 -0.127791 0.9057011260394527
-0.3351294726981048 -0.224948 0.4454731620890804
-0.2891460127514405 0.071227 0.5963828669172773
-0.19850618903671952 0.505532 0.8938469781071221
-0.2555441829619862 0.776703 0.5551335579921505
-0.36808885213769005 -0.258436 0.33730622057755644
-0.2672030181285653 -0.125011 0.6683959526099517
-0.17131339663811307 -0.290734 0.9830889855395317
-0.3451058664835668 0.268028 0.4127323756593473
-0.3035033104605736 -0.308754 0.54926471700144
-0.16713095439516445 -0.771433 0.8452903717987383
-0.15898154036975376 -0.531204 0.8720353289316716
-0.2936469709602608 -0.114903 0.43008684561730015
-0.1703972490970047 -0.044153 0.8345709616041086
-0.1989804226151502 -0.698057 0.8922906261183068
-0.30219716628274723 -0.430534 0.4020265940869355
-0.26908505273431277 -0.171834 0.5106947823360988
-0.17173458134667624 0.099865 0.9817067307000493
-0.2867564474236283 -0.840539 0.45270034347568355
-0.15787804165090752 0.823957 1.0271814800524053
-0.1707869886217358 -0.138697 0.9848165649444489
-0.22295443111295155 -0.693464 0.8136121067083221
-0.3499784531022472 0.751768 0.327411812723772
-0.2239311372032684 -0.407213 0.6588820669060487
-0.16460472057570616 0.546218 0.8535810311024019
-0.23619970853069647 0.51323 0.6186187531007517
-0.23409389149582469 0.86744 0.7615848664549856
-0.2777162787481352 0.070378 0.482368602193017
-0.2985767610182655 -0.571794 0.565432794023538
-0.23099858746522817 -0.458604 0.6356879263573082
-0.15734084897417255 -0.455438 1.028944452833835
-0.25628981627852054 -0.496272 0.7042111799075716
-0.3307803398008927 -0.337296 0.4597462586011337
-0.3671126736453675 0.677788 0.3326327542461139
-0.16820158490896375 0.348732 0.9933014095300607
-0.25940017062113496 0.37257 0.6940035388057607
-0.2764285320059676 -0.568819 0.48659476266418195
-0.19756617472176013 0.031051 0.8969319413301882
-0.2705762850020614 0.73444 0.6573254783834258
-0.25630030946157123 -0.410516 0.7041767431088025
-0.19770692389570382 -0.804995 0.7449453664965207
-0.34510635790060745 -0.882022 0.39410152533633436
-0.14804047651659052 0.168554 1.0276974579861111
-0.32468380044843054 0.621497 0.47975403868598765
-0.32605724151884563 0.049588 0.4752466443582084
-0.21509704298379895 -0.527152 0.6878740251586665
-0.2694945783505974 -0.651216 0.5093507906063598
-0.29129186868531054 0.754781 0.5893405415689938
-0.165809104808082 -0.472764 0.849628451865903
-0.2630354412282718 -0.23965 0.5305485534042353
-0.17102308524037674 0.726732 0.9840417369721439
-0.22848637892182416 -0.120357 0.795457217712795
-0.22905064462278674 0.562945 0.6420807354176964
-0.2617197126646357 -0.07654 0.5348665453387845
-0.1865762799746638 -0.543808 0.7814742007908562
-0.2771371477045175 -0.017016 0.6357938699530387
-0.17047656528981897 -0.565829 0.9858353202413686
-0.279100247366921 0.44933 0.629351318849984
-0.23514718397524892 -0.165483 0.6220729553328423
-0.2593893859607773 -0.20742 0.6940389321822734
-0.2673583755331772 0.514551 0.6678860966726201
-0.27435499680954467 -0.492551 0.6449244045155712
-0.16715164928395887 0.863777 0.8452224547789438
-0.24438442567556984 -0.660324 0.7432825978443598
-0.30178151964301636 -0.156598 0.40339067394928974
-0.1626634817113249 -0.694285 0.8599518388746878
-0.21407078575129818 -0.539197 0.8427666831773497
-0.22247903162529303 -0.768516 0.8151722850081116
-0.1634099550944601 0.257005 0.8575020432733629
-0.21938146791886498 0.341573 0.6738132889056894
-0.22500931176172878 -0.755342 0.6553436858325223
-0.13172221678874943 0.485454 1.0227251466066096
-0.1766751216997186 -0.04213 0.9654927379462592
-0.22999940325695506 -0.672548 0.6389670748623225
-0.24973624050873858 -0.817229 0.7257188738943692
-0.18366474752071887 0.319389 0.9425540036550564
-0.21483154152247463 0.109094 0.840270015266589
-0.14438698013275178 0.012289 0.9199321331307884
-0.1827958536686588 0.414829 0.9454055619086876
-0.2303453868203215 0.067253 0.6378316170806855
-0.28921593293979186 -0.763857 0.4446287404753012
-0.29281920977380266 -0.628948 0.5843280741926009
-0.24771160476924559 -0.233092 0.5808387151178053
-0.20497086422787741 -0.099666 0.8726310403321182
-0.12469519668436349 0.413163 1.020583954309651
-0.224414406578215 -0.847496 0.6572960610071823
-0.24913430550453758 0.386971 0.5761696591513599
-0.2628570914817298 0.666628 0.6826585267668255
-0.19169228966649854 -0.709256 0.7646843482354269
-0.21607760700974638 0.744096 0.8361806454127572
-0.18280339771331983 -0.268165 0.793856143103839
-0.34137932911403013 0.085299 0.4249622221110999
-0.3336105844515146 -0.727442 0.4504578887109093
-0.3150688385236041 -0.53148 0.5113086687136736
-0.22917426536625957 0.348616 0.793199694237931
-0.2674213002661614 0.484782 0.5161549280964901
-0.2644762135565957 -0.795201 0.5258201896176875
-0.148995236355855 0.156474 0.9048086390046868
-0.17336594546843456 0.81535 0.8248282172856808
-0.2587396830435542 0.609592 0.6961711439727276
-0.12040590208212185 0.552791 1.0192769700652238
-0.28370850359002425 -0.671041 0.6142278247238824
-0.1930083097074417 -0.163761 0.7603653997231341
-0.23208932991320802 -0.041994 0.783632960224323
-0.1473148696812067 -0.178663 0.9103233096964625
-0.17389180489551792 -0.452103 0.9746270988197661
-0.1821662626856162 -0.67571 0.9474717698348343
-0.19767431280264386 0.308819 0.8965770509873177
-0.34692410192440915 0.743107 0.4067652436948551
-0.34933899141260716 -0.207544 0.39883999708924134
-0.3045033347354476 0.062796 0.39445815097967957
-0.23163954606324233 0.244417 0.6335844118991616
-0.2400920964878957 0.137555 0.6058446139128983
-0.2749819301315045 -0.357857 0.4913422580056015
-0.30160605030422394 0.5883 0.4039665337509288
-0.23950626146621778 0.185101 0.7592918829610225
-0.27889151524981465 0.845105 0.4785116807308765
-0.2601446036631214 0.807569 0.691560439248641
-0.2440958631416753 -0.301954 0.7442296098105103
-0.3185073963138602 0.812845 0.5000239210725843
-0.3579649708349042 0.235678 0.3705310353455443
-0.31363826790102406 0.231894 0.5160035522791959
-0.2296516708297468 0.619682 0.6401082721104212
-0.3235808503188782 -0.05579 0.4833737288677188
-0.24640378045821745 0.404817 0.7366554272367929
-0.292678100391912 -0.006624 0.43326651003698147
-0.28794509188142814 -0.271882 0.4487994194373381
-0.20573657511327226 0.809299 0.8701181105997167
-0.15784831096559715 -0.776173 1.0272790509822511
-0.22423106735213452 0.797961 0.6578977484078982
-0.17999647124725507 0.324585 0.8030679867745765
-0.31775421895266487 -0.180542 0.5024957179620118
-0.23774224080447076 -0.618382 0.7650810914652076
-0.3147426410517912 0.67584 0.36085453142523144
-0.20459249231811794 -0.029517 0.7223481304597783
-0.12282902703237628 0.771244 0.990681579624185
-0.3347727044743807 0.37856 0.4466440132472302
-0.31541478772165055 -0.60513 0.3586486631485212
-0.30114230990884394 0.353962 0.4054884489409748
-0.23201820945030877 0.482841 0.7838663651937581
-0.14092640783753818 0.630157 1.0255297412542188
-0.2914862496837356 -0.588225 0.4371779564305064
-0.2463032207873148 -0.86165 0.7369854465583303
-0.330826976170007 -0.599902 0.4595932061621598
-0.3120234836204427 0.59716 0.5213029929786648
-0.3444730692501476 0.69544 0.41480910594067344
-0.1756152758462769 -0.092619 0.8174463068384243
-0.2724023903301918 -0.60738 0.6513325188198568
-0.12829568392448892 0.493913 0.9727409640432214
-0.16863760059486213 -0.164434 0.84034582144214
-0.260558459474373 -0.882022 0.6252915229502172
-0.1590311258772577 0.275147 1.0233972584987772
-0.18088110487389125 0.494245 0.8001647733227917
-0.31496857033000847 -0.629239 0.5116377314574674
-0.20251983155361586 -0.203724 0.8806749025779368
-0.16960825439237276 0.178034 0.9886849653395124
-0.17811152186843793 -0.781519 0.9607787228258653
-0.28108229305427723 0.312508 0.6228465901935961
-0.27585289869003343 0.595793 0.6400085514912804
-0.3072581211288858 0.683092 0.5369420825085595
-0.12894335844363083 -0.110646 1.0218784050298788
-0.2871560628114762 -0.167473 0.45138887538922656
-0.35004524092738126 -0.031951 0.3965222092165315
-0.35508983867900984 -0.662066 0.37996671820828093
-0.27496447585840667 0.368599 0.6429242004537319
-0.2789107871173943 -0.336277 0.6299730943833151
-0.32004668797193786 0.663554 0.4949722340087044
-0.19949313119810014 -0.581613 0.8906080058673382
-0.18864926658179285 0.022098 0.7746710198784693
-0.15795583172654692 0.008219 0.8754015260113523
-0.20541183502799415 0.021206 0.7196591904225567
-0.14421588295356383 0.765469 0.9204936442662734
-0.34434248741662765 0.554434 0.4152376527698002
-0.3130013899853074 -0.106047 0.5180936746489322
-0.20034129579604582 -0.462979 0.7362998168499864
-0.1264713274602003 -0.206808 0.9787281841403288
-0.19784424407260393 -0.430651 0.8960193661628069
-0.3529849769503393 -0.031707 0.32832792589956034
-0.35620648824198947 -0.568339 0.37630206887260126
-0.23700710067098715 0.017821 0.6159690327510172
-0.21088668765002183 0.625351 0.8532163384482878
-0.16043688656342575 0.7362 0.8672591362579445
-0.15766409730759584 -0.70406 1.0278836081161977
-0.27891107859470127 0.684092 0.6299721378055716
-0.20791824839057887 -0.634082 0.7114335784054568
-0.287759746679519 -0.495797 0.6009323506657744
-0.1478561430402391 0.720018 0.9085469448266223
-0.14967641882223023 -0.637324 0.9025731168179252
-0.3488210362381318 0.391077 0.4005398357395945
-0.26058120230363374 -0.49722 0.5386029380052331
-0.30768189476789165 0.15901 0.38402667068586943
-0.24534772380976633 -0.611671 0.5885965606182912
-0.27240060710103 -0.755306 0.499813710502803
-0.20356681804023113 0.464642 0.8772388753229741
-0.2359295434324607 0.310763 0.7710300484525716
-0.17123860525808246 0.86744 0.9490710500311934
-0.21953627673418297 0.264982 0.8248298939073603
-0.245642990321721 0.05604 0.5876275473640382
-0.12422287151427883 -0.053054 0.9861072248543548
-0.2999154819238319 -0.518373 0.40951468466373014
-0.2517203265372435 -0.156352 0.7192074491937763
-0.30727298647154094 0.727861 0.5368932970436365
-0.15148736733039847 0.457359 0.8966298992970227
-0.13189134798319868 0.593597 0.9609406209983391
-0.30426927845795537 -0.288493 0.39522628290777945
-0.19204556016253913 0.147217 0.7635249760102001
-0.31066345050614796 -0.773193 0.5257663847302391
-0.324054209465388 -0.387556 0.4818202466121344
-0.15176397929470747 0.516952 0.895722107018359
-0.22347439226325558 0.408539 0.6603810242302486
-0.2653966988919884 0.080499 0.5227993171034415
-0.29562176408026297 0.492469 0.5751305791880174
-0.33817132987358267 -0.267084 0.4354903167570123
-0.3281934787015859 -0.512501 0.4682358860754633
-0.28036759069760114 0.025038 0.6251921188208701
-0.24907429554462301 -0.745856 0.7278912619500539
-0.21620498259288967 -0.321445 0.8357626209388098
-0.18003556357170825 -0.251116 0.9544643531404513
-0.300686439400752 -0.703337 0.406984536531944
-0.17417770976832975 -0.360825 0.8221641482697926
-0.18203127432717178 -0.841138 0.7963901175465995
-0.16901622961660856 -0.560106 0.8391032269532213
-0.36705993724410657 -0.466086 0.34068294001241656
-0.16404391823710712 -0.641149 0.8554214866810623
-0.23029587004345764 0.405932 0.7895187830806104
-0.19073015744152994 -0.761674 0.9193665591505211
-0.1874790195596518 -0.592769 0.9300362273024843
-0.2800670775941211 0.181635 0.6261783504745078
-0.3276035286322905 0.183638 0.4701719994284823
-0.22940569834798907 0.529987 0.7924401715095234
-0.1376710515029908 -0.622289 0.9419726409207634
-0.3037591931707681 0.822018 0.3969002939590558
-0.25783785225580713 0.483009 0.699130795511384
-0.30716922055026175 0.400759 0.5372338387203534
-0.2802177713618216 -0.792895 0.6256837997810736
-0.32771341557701594 0.440155 0.4698113696191502
-0.24394895857896537 -0.499019 0.744711724993278
-0.34943867665158884 0.192513 0.39851284750093485
-0.15548818484578844 -0.757338 0.883499913188555
-0.18448055813759157 -0.063144 0.7883519947672426
-0.3441104714802842 -0.840539 0.41599908865369495
-0.27853532998070446 0.466359 0.4796806187335392
-0.16648886425324244 -0.745934 0.9989222603513745
-0.36395501051378865 0.820682 0.3316705876558252
-0.16850993353441182 0.077837 0.840764802493831
-0.19832951942337923 -0.251648 0.7429021164362201
-0.24461673308922025 0.726284 0.7425202053827213
-0.3159849173340724 -0.450558 0.3567775970820661
-0.29205612218417054 -0.323435 0.5868323947253102
-0.29938502759047714 0.111471 0.5627802039405728
-0.17803949260829774 0.368577 0.8094904497450158
-0.13215309460485247 -0.365463 0.9600816141845985
-0.13071057341268688 0.269722 0.9648157174376077
-0.20963304375276898 0.291092 0.8573305793234531
-0.18568089605298993 -0.854596 0.9359373554026689
-0.3499155335257822 -0.782486 0.3969478863124274
-0.23259125383580032 -0.745529 0.7819857333498672
-0.2309959641694655 -0.116388 0.6356965355570005
-0.32091849659706767 0.303881 0.4921111099776373
-0.30826167749676336 0.465139 0.5336485853373913
-0.22831994537954764 -0.220437 0.7960034236043829
-0.22381950139470114 0.286787 0.6592484361818423
-0.1879375133635064 -0.316818 0.9285315305118227
-0.3423837599138286 -0.348902 0.4216658552067011
-0.22110092691796657 0.073646 0.8196949845797883
-0.33245108772441123 0.699389 0.4542631549748962
-0.1787475253522337 0.801106 0.9586914701893596
-0.24855805486866944 -0.059442 0.5780608133504302
-0.2427136433867313 0.262626 0.597241153687082
-0.14186672375948367 -0.213324 1.0258162634469645
-0.18333042304963104 0.028865 0.94365119832695
-0.26265244004692095 -0.127333 0.5318054965593079
-0.12505241592989882 -0.615684 0.9833848045961076
-0.15272292457144618 0.370346 1.0291242394037006
-0.25883467028030455 0.194814 0.5443347518448031
-0.18607814525706207 0.742359 0.7831089921546454
-0.13763986343114565 -0.713876 0.9420749947393272
-0.28974991936615013 -0.407271 0.4428762900490508
-0.21536494499421904 -0.609678 0.8385194779958258
-0.26134228391743713 -0.368022 0.6876298613002443
-0.22223211598097437 0.669669 0.664457958573414
-0.18690535785422632 -0.59216 0.7803942245183471
-0.30628834176329606 -0.013961 0.3886000688779562
-0.25664421831846895 -0.444752 0.5515234335878552
-0.13782553447568183 -0.413721 0.9414656547166627
-0.31467126347690505 0.176873 0.5126134407559255
-0.21556107485648587 -0.711794 0.6863511533908768
-0.2973190364387152 -0.090792 0.5695604269871135
-0.20645244337917618 0.396556 0.8677687556614684
-0.17411099583035494 -0.382587 0.9739077523565891
-0.26307508214201897 0.398586 0.5304184588311076
-0.17496939649936438 -0.178214 0.9710906309017271
-0.2758828864873307 0.635547 0.48838547620017575
-0.21218868241491062 -0.596348 0.697418757884172
-0.2579614042686399 -0.658265 0.5472006587645881
-0.25526669656575635 0.680174 0.5560442200040447
-0.14115362236659845 0.050915 0.9305434500403926
-0.20253029037134657 0.213821 0.7291159179956523
-0.18713478486012713 0.515123 0.9311659456176598
-0.2688101896338456 0.435437 0.5115968351483008
-0.31676287026635974 -0.666693 0.3542244910844339
-0.18209452490278302 0.176072 0.7961825401762412
-0.2832121177362643 0.405516 0.61585687662121
-0.24172469524952195 -0.580863 0.752011369754586
-0.21001954266180345 0.169271 0.8560621572354576
-0.20342483422641955 0.51206 0.7261801809005854
-0.2608036338541674 -0.577227 0.689397616970392
-0.1688999645364499 -0.099507 0.9910094492564274
-0.2459732684758314 0.064676 0.73806829256407
-0.2717835496421869 0.563472 0.5018387855859754
-0.2952128214185923 0.168861 0.5764726577622691
-0.3507007733907436 0.307905 0.39437086587120557
-0.14576190833136762 0.078489 1.0270031590409225
-0.29757378760500186 -0.665091 0.5687243780392189
-0.20440160904737642 -0.517675 0.8744992366653426
-0.3582780174625837 -0.309107 0.36950367084893243
-0.16498163509893082 -0.250223 1.00386872386346
-0.2308872774992879 -0.25955 0.7875778868388735
-0.24719656436783993 -0.802442 0.5825289879907225
-0.1741445157206558 0.609443 0.9737977459160767
-0.20298382906098278 -0.12201 0.7276274830266318
-0.19756384290330442 -0.069566 0.896939593952137
-0.2687352799659558 -0.399509 0.5118426756284025
-0.15454613018968028 -0.494915 0.8865915724558266
-0.17371458669288375 0.061115 0.9752086980878667
-0.2679687290139601 0.848077 0.6658830228775501
-0.2694322022069071 -0.715828 0.5095554982434873
-0.24102744716594368 0.220998 0.6027749559337295
-0.3465125359669758 0.454643 0.4081159314687991
-0.12341781119244383 -0.150739 0.9887492925821404
-0.25254400704140423 -0.581256 0.5649796127068857
-0.11987691458991856 0.111629 1.0191157831144726
-0.1566963582831548 0.680643 0.8795348984413893
-0.2918223230186653 0.802457 0.4360750222921512
-0.15756029702099655 -0.385668 0.8766996020093991
-0.31592895817334055 0.86744 0.4499667704369807
-0.26873149076096525 -0.831353 0.5118551111390691
-0.3219570302417809 -0.77752 0.4887028234772388
-0.33835058841736565 -0.629101 0.43490202144470663
-0.13068638079620884 -0.790219 0.9648951133903254
-0.17628803983607022 0.501824 0.9667630731897421
-0.17800334942223422 -0.693381 0.8096090653852204
-0.3065611988879345 -0.70869 0.5392292598934747
-0.2248312191271737 -0.083937 0.6559281548338537
-0.24639911682130602 0.550353 0.7366707324806903
-0.2384781866392352 -0.298396 0.6111411848791366
-0.2954655322437302 -0.534608 0.5756433048585796
-0.2829276358846673 0.261472 0.6167904964989503
-0.13685025140657975 -0.113811 0.944666363846703
-0.26656231664253804 0.810504 0.5189739627068394
-0.22224818159817744 -0.420305 0.815929894581032
-0.18466211281282474 0.86744 0.9128979816110583
-0.12018270456244876 0.311458 0.9993663489582063
-0.27423691413490414 -0.060819 0.4937872707182084
-0.2995278171055695 0.454956 0.4107869330627001
-0.2178089822131134 0.836298 0.8304985736158534
-0.3546843937450227 0.829929 0.38129731784960963
-0.3045960245190622 -0.100957 0.3941539592572191
-0.21406084115754137 -0.763575 0.6912746590371163
-0.26036554346180024 0.212039 0.6908353533190024
-0.1537830426000481 0.409037 0.889095892988536
-0.28472630798062304 0.129912 0.45936290745976316
-0.3438484333813234 -0.74772 0.41685905204517915
-0.3380760167942054 0.480792 0.4358031176791651
-0.20332168562507424 -0.842301 0.8780433572053303
-0.24981199024322925 0.318883 0.5739456158975214
-0.2762149135052829 -0.257251 0.6388204819337462
-0.18846246399334887 -0.018943 0.9268087339956235
-0.3638012209522474 -0.367962 0.351377479185713
-0.2291689844094142 -0.009294 0.6416923648538002
-0.29919002927211813 -0.847025 0.5634201544510321
-0.1498684965845842 -0.560181 1.0282544711197197
-0.260830706878395 0.010115 0.5377841074567231
-0.18710706015064552 -0.496804 0.7797322727197852
-0.20240991024357036 0.429164 0.7295109846037535
-0.22732775662664167 0.692209 0.7992596142435511
-0.31995399818832326 0.52509 0.4952764257311648
-0.24509384707540055 -0.879056 0.5894297398329551
-0.3039894946085898 0.259524 0.5476691453251378
-0.16708785011905375 0.678239 0.9969564930883044
-0.36482896993660296 0.779938 0.34800458606182716
-0.2775262355439946 -0.491864 0.4829922908818354
-0.21829454904119566 -0.647047 0.6773803673115233
-0.23297950160867653 0.83064 0.7807115717954101
-0.20920890990581614 0.829945 0.7071978521568562
-0.14394189428501752 -0.284775 0.921392827345245
-0.14738045207527362 -0.443408 0.9101080797041556
-0.25847673614735256 -0.700798 0.5455094293139272
-0.2899714421194429 0.55558 0.4421492909639252
-0.25496913260066595 -0.784107 0.7085454336637618
-0.277937801501428 0.198981 0.4816416031078914
-0.17827296593117606 0.558836 0.808724230972403
-0.14245244524643072 0.192737 0.9262809396149716
-0.17218487942061586 0.519126 0.828704270302693
-0.30019096234423304 -0.208534 0.5601352664795562
-0.12114953478964882 -0.576879 0.9961933805827301
-0.18050338464938576 -0.549073 0.952929045861995
-0.1652468794482682 -0.845279 1.0029982381167963
-0.2698172780947268 0.123471 0.6598164068277249
-0.27848577883852055 -0.694261 0.47984323694994885
-0.33682936835231975 0.604277 0.4398944006884843
-0.2566608668902859 0.256146 0.702993456439986
-0.19328757933283341 0.202275 0.9109735460282935
-0.25524807638343067 -0.312102 0.7076299887631495
-0.30115575223028435 -0.002482 0.5569689941482852
-0.25978900134862515 -0.043427 0.6927274640958164
-0.16509790017908949 0.036281 0.8519625015602539
-0.2961539672774595 -0.247545 0.42185932044471314
-0.24170250860887266 0.091288 0.6005595218795834
-0.20748132390743962 0.351963 0.712867488443093
-0.14258973105801084 0.434864 0.9258303914977424
-0.2884106155059699 -0.01647 0.5987963125643458
-0.3418386973498056 0.122413 0.42345465558720774
-0.29859013460906586 -0.809259 0.4138642436638177
-0.17600614691491584 0.614087 0.8161635360842748
-0.17145039097238624 0.313375 0.9826393940000462
-0.30079574339086357 -0.740357 0.4066258198780991
-0.2628497701837357 0.528122 0.5311578934268999
-0.30334908459986953 0.504981 0.39824619884428186
-0.231292688067955 0.770013 0.6347227394140295
-0.26503555850865984 -0.31574 0.5239845169277452
-0.13033835689169368 0.230392 0.9660372672161675
-0.25435907059719 -0.448249 0.7105475508810881
-0.2531680599556145 0.575904 0.5629315797578671
-0.339445377182323 0.305071 0.431309115439796
-0.14692341565795383 -0.803187 0.911607993606099
-0.3194319279662305 -0.702778 0.3454651086864128
-0.19025534090848534 0.277035 0.9209248242948234
-0.13809427655270276 0.155352 0.9405836900370759
-0.32469283624494644 0.404996 0.4797243847759365
-0.20089309670344896 -0.635106 0.8860135629648926
-0.314712361777187 0.561737 0.5124785632940798
-0.1671971541091653 -0.423606 0.9965977764344596
-0.17530222921859745 -0.442857 0.818473671335036
-0.15951173759112156 0.162527 0.8702953140160878
-0.3460467552304471 -0.413912 0.40964454270305023
-0.2939935374782412 -0.0645 0.42894947468017586
-0.301801082987903 0.831677 0.5548511310239848
-0.21084608360398882 -0.882022 0.7530364672349975
-0.23390957132987913 -0.735421 0.6261345844321105
-0.22381720394156546 -0.524677 0.8107806365873063
-0.34487297611530243 0.050873 0.4134966812764729
-0.275815589594742 -0.839445 0.6401309934424595
-0.2084997799832924 0.769555 0.8610497535905173
-0.23371635624068193 0.663175 0.7782933432596235
-0.18791008013133173 0.355408 0.7770969010362045
-0.3279981889059199 0.145617 0.46887679316366626
-0.2887816635694118 -0.882022 0.5567486607353244
-0.12317792536881234 0.620469 0.9895365560651121
-0.3687633306260051 -0.082339 0.33509269967889743
-0.36143296783316364 0.157129 0.3591496733523528
-0.16550541981954536 -0.670373 1.0021497536582353
-0.15233818958942685 -0.243353 0.8938376488634938
-0.23402648809529175 0.000593 0.7772755445404476
-0.15570416953024885 -0.156759 0.8827910890805577
-0.23560950134941405 0.783864 0.7720803708150297
-0.14564849391729262 0.329846 0.9157920646565463
-0.23033609391181864 0.202902 0.7893867753519955
-0.15993292229968475 -0.346658 0.8689130591766054
-0.12289396079319018 -0.698106 1.0200351025406376
-0.35598059332909227 -0.70997 0.37704341662388074
-0.12683314794127917 -0.854245 1.0212354060907158
-0.1670117745419361 -0.479364 0.9972061598793804
-0.295963084006718 -0.770453 0.5740104266502776
-0.291158046236094 -0.682701 0.4382550629697847
-0.1604882209347715 0.425811 1.0186153263585886
-0.2261309508042469 -0.179225 0.803187322458717
-0.1629809004986089 0.771058 0.858910125711922
-0.25557799432959405 -0.776297 0.5550225949738944
-0.33898221974155696 0.015933 0.4328291174743548
-0.2405491329052155 0.364192 0.6043447000109549
-0.32350098553677004 0.78143 0.48363583116946146
-0.20507867646613412 -0.084839 0.720752558783476
-0.2529430738399582 -0.084337 0.7151946055594312
-0.3061986011180711 0.345533 0.5404192426064962
-0.357120852553936 -0.605526 0.37330128449097055
-0.20931562496548506 -0.701128 0.8583722924862189
-0.23131079402630678 -0.077458 0.7861879793774424
-0.1982706753726925 -0.316026 0.8946198929239397
-0.15162381674406536 0.71397 1.0287893319779988
-0.19829049582956604 0.067858 0.894554845637376
-0.21636879283940358 0.672137 0.8352250242469141
-0.18897867030398235 -0.3635 0.9251146348117318
-0.1676101774531335 -0.025648 0.9952423057717976
-0.11623551887154024 -0.780916 1.012320324761854
-0.2534094375311008 0.022459 0.7136640811696928
-0.18961292492393633 0.729406 0.9230331216416878
-0.1751935425484198 0.836928 0.9703550226169091
-0.16582254712952238 0.633982 1.0011089970732132
-0.30487759159758954 -0.352636 0.3932299051569146
-0.2687388120589594 -0.726649 0.6633557444789948
-0.3017404557080544 -0.611949 0.5550500991946508
-0.18777745795666306 0.09385 0.7775321439095364
-0.2842599786548004 0.839173 0.6124179796330168
-0.28600855101927836 0.79507 0.6066794697492417
-0.32076077300868006 -0.274798 0.34110407075340227
-0.2143736306732339 0.707403 0.8417727989017634
-0.22349100646975256 0.178576 0.6603264992988641
-0.2877399262226454 0.105719 0.6009973979523382
-0.21480206794915124 0.130158 0.6888420818351759
-0.3177871215230318 0.153073 0.3508630768934711
-0.1454293029824556 -0.584397 0.9165114111197232
-0.15624719175312307 0.570382 0.8810089847442559
-0.23001109671455366 0.616799 0.7904533595360943
-0.36265367479472954 -0.161238 0.35514352576221275
-0.22291883651618194 -0.810857 0.6622042614095243
-0.25060076220119426 0.835806 0.7228816643068918
-0.14570183426446706 -0.511505 0.9156170109294699
-0.17609825374391652 -0.187645 0.8158612575173014
-0.16731837430354238 0.114665 0.8446752923096124
-0.25363970460360247 -0.673917 0.7129083847522595
-0.17660312680489842 0.367654 0.9657290126489251
-0.322801731477363 -0.569535 0.48593066117632533
-0.27605660696228135 0.694443 0.48781535586499825
-0.25356945857262414 0.186691 0.7131389199884639
-0.21818090725679967 -0.72376 0.8292779804150372
-0.2365057597030088 -0.587717 0.6176143464699859
-0.33682995130693366 -0.817033 0.4398924875329971
-0.1982152603190493 -0.683263 0.743277094911706
-0.1884779122906179 -0.726694 0.9267580353752136
-0.32651078020848184 -0.19698 0.4737582093891879
-0.359991321072919 -0.496008 0.36388090687213137
-0.20613790499964185 -0.359426 0.7172763552632828
-0.24099367016365586 -0.026554 0.7544104667355008
-0.2627521596512227 -0.529291 0.6830028947545166
-0.25632916571496067 0.061992 0.7040820419121875
-0.21634168544985588 -0.80021 0.8353139859770677
-0.34175766665846957 0.162448 0.42372058419992475
-0.18957179225833437 0.245149 0.7716434513200182
-0.2888804425594761 0.694955 0.4457297614581692
-0.1916284561362734 -0.753837 0.7648938387612723
-0.1657245763890624 -0.307155 0.849905859411543
-0.23645591708351793 -0.646808 0.6177779212641392
-0.2331601365374848 -0.882022 0.6548259866197337
-0.2792325436989627 -0.327242 0.47739248477088037
-0.17629558388073124 -0.476575 0.8152136543848935
-0.30584150705172003 0.029263 0.3900665025588742
-0.32472110954372196 -0.63413 0.4796315967348086
-0.29793168737263387 -0.633046 0.4160251527865795
-0.24511982292104037 -0.784208 0.7408691521972912
-0.2439291037567718 0.847222 0.5932522244963265
-0.19654571267007864 -0.131922 0.9002809200104844
-0.36079958764513054 -0.202445 0.3612283167891661
-0.33671073708838534 0.805658 0.4402837278301239
-0.21123966666875543 0.426899 0.8520579228008047
-0.13488336253918567 0.657069 0.9511213504604241
-0.18109621512643082 0.459333 0.7994588189480247
-0.26883529104756454 -0.280969 0.6630391172458676
-0.18111691001522526 -0.659618 0.7993909019282301
-0.24082137270992002 -0.138079 0.6034512563984451
-0.2041651865861085 -0.712324 0.7237504734318759
-0.2815087243543658 -0.160089 0.6214471169547292
-0.12119267343107953 0.577004 0.9960518070766793
-0.17089366931608468 0.133278 0.9844664574902964
-0.27001898039114597 0.397523 0.659154455029163
-0.13144672239859653 0.256147 1.022641201142204
-0.16879674720446455 0.465023 0.8398235299941419
-0.21282238844557072 -0.834771 0.8468637056531303
-0.14564732800806476 0.807493 0.9157958909675206
-0.19139764047447783 0.582029 0.9171759961177082
-0.2544922413611526 0.809893 0.5585858470687539
-0.1990973050152428 0.833688 0.8919070384431287
-0.34586370748167355 0.223548 0.4102452735260225
-0.23166523043157516 0.145979 0.7850247808412414
-0.1259186596184105 0.794876 1.0209567537852582
-0.13620637803549596 -0.005645 0.9467794440822852
-0.11568258642022924 -0.549425 1.0141349527414374
-0.16291955695203097 -0.882022 0.923418337576531
-0.21451907784940905 -0.043456 0.8412954666077137
-0.2488404963791177 -0.266083 0.577133889516895
-0.34850436679938046 0.711488 0.32696264619374027
-0.278507056681929 0.104481 0.47977340677466707
-0.20725866961023903 -0.423115 0.8651228616227082
-0.14145617581122727 0.690014 0.92955052234255
-0.24899410491988783 -0.707209 0.5766297730460249
-0.22050715327836054 -0.25117 0.6701189856599585
-0.20578430245668625 0.86744 0.8442236250458253
-0.20466536164485896 -0.782046 0.7221089860238816
-0.3363530944327403 -0.131646 0.4414574487215045
-0.16246997514482076 -0.176482 1.0121115542799444
-0.329818756165218 -0.29933 0.46290200857722535
-0.18066246880298653 -0.882022 0.8476029171130843
-0.1381143884868833 0.620995 0.9405176861727684
-0.19588927140947537 0.648606 0.7509105853055258
-0.30058383938870065 -0.469475 0.4073212518976864
-0.28073248592060024 -0.866372 0.4724699357023846
-0.34627673082564175 0.659801 0.4088898028633605
-0.1207400091733642 0.514246 0.997537372312469
-0.28917953264174134 -0.416494 0.5962728604767649
-0.13525091542326745 -0.223796 0.9499151059257618
-0.3218599682985619 -0.419581 0.4890213638658531
-0.324233176531864 0.470778 0.48123290787757234
-0.33378692822222794 0.529567 0.4498791591760395
-0.1967564163976937 0.803394 0.7480647665183561
-0.2397044316696334 0.615177 0.6071168623118683
-0.2813670320178612 0.399405 0.4703874659545969
-0.1254427040439238 0.160209 0.9821039469974455
-0.2008691955642779 0.35152 0.8860920023398666
-0.35461327328212344 0.35952 0.38153072281904477
-0.16806105848168704 0.685798 0.8422379322189539
-0.2718133146928173 -0.048258 0.653265762439645
-0.24692927967735379 -0.31831 0.5834061697815913
-0.17476328767802068 -0.589531 0.8202423835829274
-0.21079691263947686 -0.581043 0.8535109643933125
-0.283555769481175 -0.636379 0.6147290714615217
-0.2294568701078615 -0.882022 0.6881715061951013
-0.24961291124257273 0.422788 0.5745989584963909
-0.24415328417114723 -0.537941 0.7440411639950238
-0.30158189205306596 -0.119944 0.5555704774871618
-0.31849515426696773 0.146503 0.500064097337815
-0.25589981964180253 0.40443 0.7054910809284903
-0.20335633705928297 0.149419 0.7264049766703283
-0.26332666142324906 -0.85006 0.6811174800219078
-0.13377429138618707 -0.45913 0.9547611287747706
-0.23204619127177734 -0.454977 0.7837745337303739
-0.2514055310457223 0.345091 0.7202405531568496
-0.2706730554679735 0.006716 0.6570078945725552
-0.2987446519470769 0.302266 0.5648818052432323
-0.30585873857815093 0.163577 0.5415346122555179
-0.16712454189441123 -0.722838 0.8453114165090974
-0.29172412953153837 -0.823797 0.5879219367752553
-0.2940238511181655 0.200594 0.42884999059484286
-0.2778611773350164 0.76504 0.6334177308379699
-0.2614763634786406 -0.099397 0.6871898355381945
-0.13443944260067928 -0.751 0.9525782183639062
-0.20004256592172753 -0.782389 0.8888048568206779
-0.2517666370637308 -0.093786 0.5675308055490307
-0.11704495135297968 0.650212 1.0096639083679142
-0.19798236995078491 -0.617316 0.7440414005288315
-0.29040428592028467 0.325239 0.44072877301469926
-0.19849044926214343 0.669031 0.8938986333052756
-0.24012361040236785 -0.331086 0.7572658513001064
-0.20965082386849382 0.557189 0.8572722280810945
-0.1329593208359153 0.426607 0.9574357201458383
-0.2437530858286855 0.105544 0.7453545452369681
-0.30495191831086543 -0.223878 0.3929859778323
-0.28533290662173544 0.628673 0.6088968169588751
-0.332331290551249 0.077304 0.4546563084275102
-0.33026704826332887 -0.465913 0.4614307920075894
-0.24440887540403478 -0.521103 0.5916776975303832
-0.2199597932612019 0.185527 0.8234399864459292
-0.26005829201494 0.053551 0.5403190384772272
-0.306785053459683 0.029367 0.5384946081864002
-0.3531827026595434 0.683985 0.38622560638456704
-0.15705400093879984 -0.461798 0.8783611775500089
-0.19371401063292193 -0.249128 0.9095740727894266
-0.25212515415129677 0.265833 0.5663542149244194
-0.18400749046838874 0.773503 0.7899045204450834
-0.2747414957185791 -0.458521 0.6436559824275756
-0.25637929981175855 0.560132 0.7039175105402906
-0.27164130871638836 -0.106055 0.5023055955248457
-0.20369707403112408 -0.214535 0.7252867372880758
-0.2128492043578114 0.476311 0.8467757005007204
-0.28719599520253025 0.640672 0.45125782423835525
-0.36077393764211774 -0.278418 0.36131249563060175
-0.2869733065400097 -0.199313 0.4519886496344553
-0.26637081605186264 0.237241 0.5196024342843757
-0.2326139890657435 -0.587799 0.7819111202858675
-0.2277509473110336 0.327953 0.6463461155763484
-0.3585552123815066 0.039556 0.36859396541478173
-0.14547069276004448 0.565047 0.9163755770801338
-0.21297742000755565 0.669266 0.694830258510027
-0.3028337527211569 -0.774732 0.3999374282949427
-0.18578495345157614 -0.178535 0.9355958571482086
-0.1766509290832406 0.533474 0.9655721338989769
-0.23386151193955007 -0.146109 0.7778169675433175
-0.30296961551152224 0.603172 0.5510162108499468
-0.17074469004690596 0.728012 0.8334307209337537
-0.3184295718729008 -0.237802 0.5002793273301219
-0.3385216855965536 0.723125 0.4343405103092214
-0.13388651014936828 0.553204 0.9543928463434899
-0.24542642268264664 0.532147 0.5883382846275229
-0.2954570450365082 -0.853028 0.4241464978296283
-0.15107784171411387 -0.729776 0.8979738910267616
-0.2678792454807221 0.621042 0.6661766922448311
-0.2811143211927233 0.58036 0.47121681885828637
-0.14525091887059352 0.223115 0.9170968366987982
-0.1887166322050216 -0.513364 0.9259745982032161
-0.15986620836170995 0.775554 1.0206566632634022
-0.1883741463693387 0.789015 0.9270985770519302
-0.27912618884724083 0.534868 0.6292661834308048
-0.2843480048015036 0.374525 0.6121290931544536
-0.2811457586208211 0.86744 0.5002308362582969
-0.19537674626315213 -0.882022 0.8027062818736228
-0.2641984700483788 -0.480579 0.6782563559908408
-0.2991104559673169 0.38624 0.5636813001750313
-0.32409326742452116 -0.148054 0.4816920651944938
-0.31326047894587855 0.313518 0.3657187292513685
-0.13812363504882993 -0.728076 1.0246757127448138
-0.22646265197957205 0.437102 0.8020987369865158
-0.271677160425145 -0.248913 0.5021879364623845
-0.2740259189299821 -0.657171 0.6460043807880802
-0.1376177111558164 -0.525464 0.9421476946478398
-0.1898341561999221 0.153969 0.9223070791343058
-0.2737513129415019 0.605383 0.49538092923902344
-0.35062265747247723 0.096155 0.3946272287064867
-0.31816811672855394 0.493786 0.501137377566119
-0.16755625415134517 0.566151 0.9954192726543609
-0.2663903450314292 0.177821 0.5195383435755554
-0.3220240700223827 0.250988 0.4884828105962139
-0.2665451194814272 0.306871 0.519030400793711
-0.19069518016469422 -0.685867 0.9194813484797513
-0.1475899283993613 -0.425783 1.027560172174531
-0.3160251755677535 0.629989 0.5081701371369665
-0.2081086174373465 -0.36202 0.8623334809224104
-0.23930222735134288 -0.091623 0.759961487381533
-0.25070394516785954 -0.580285 0.7225430357856621
-0.19745596193440768 -0.433807 0.7457689799337486
-0.24329776390988744 -0.178395 0.5953241718889347
-0.15279347714290484 0.639653 0.8923434744280119
-0.268758306673206 -0.620586 0.5117671059866591
-0.27840212485142185 -0.161059 0.4801177747623582
-0.16268097034974274 -0.081192 0.8598944442100724
-0.28844643284940646 0.281443 0.4471541057183694
-0.15904686565183374 -0.101048 1.0233456033006236
-0.3602976637225383 -0.236141 0.36287554366362196
-0.2865585343321997 -0.806681 0.4533498597635788
-0.2343922921155318 -0.36093 0.7760750394722465
-0.3385216855965536 -0.511408 0.4343405103092214
-0.25759621756833384 0.52033 0.6999237984608171
-0.18028477666916265 0.289727 0.9536464791696848
-0.25958904791604775 0.157188 0.6933836764279167
-0.24672670294901372 0.722794 0.5840709913133839
-0.21728024237828047 -0.167613 0.8322338056427194
-0.21097642829524677 0.22355 0.7013971647197479
-0.3167940583382049 0.765983 0.3541221372658701
-0.2228795214450618 0.763806 0.8138579471884239
-0.32488404535831494 0.865402 0.4790968697761438
-0.16556951046175747 -0.371143 0.8504147587711308
-0.17649407992677382 0.676396 0.8145622249415112
-0.2595928371210383 0.293793 0.6933712409172501
-0.16104465111376604 0.013068 1.0167892194460821
-0.24369799661766925 -0.22492 0.7455353384305059
-0.31549614425561356 -0.378025 0.5099063257415759
-0.3675271753671701 -0.301801 0.3391495458894475
-0.2665285052749302 -0.519644 0.5190849257250953
-0.19074615432809292 0.716626 0.7677893995911085
-0.2094922602135053 0.368111 0.8577926063736054
-0.17424332652771668 -0.66233 0.9734734660610009
-0.3563297831428353 -0.113933 0.37589743648706425
-0.1577209353824538 0.571433 1.0276970754561983
-0.32009798797796357 -0.012812 0.4948038763258331
-0.30953569044018364 0.863562 0.3779428362366597
-0.2891203627484276 -0.255733 0.5964670457587129
-0.16907397648870748 -0.057273 0.9904383723435064
-0.35818270438320643 0.00294 0.36981647177108523
-0.1608117607455017 0.494653 1.0175535250632077
-0.29880790252268813 0.21929 0.5646742278728739
-0.36717565373497135 -0.659201 0.34030317864821275
-0.28622366127181786 -0.077312 0.605973515374475
-0.34385805213245324 -0.184136 0.41682748497964084
-0.32859280261212676 -0.806944 0.4669253745667499
-0.18492885023570244 -0.410838 0.7868807781976066
-0.2359846326434769 0.266865 0.7708492552590338
-0.22323891296454856 0.551226 0.8126784868305816
-0.28948354347290495 -0.564539 0.5952751498902042
-0.11508680680479452 0.607924 1.016090197649328
-0.3456555926845012 -0.645419 0.41092827003494325
-0.2180112674641465 -0.350694 0.8298347086618045
-0.3161055889391556 0.705357 0.3563815738962213
-0.3445138760731226 -0.448841 0.4146751850565713
-0.3645611022915029 0.071558 0.3488836810081831
-0.24198320125547912 -0.42757 0.5996383375125096
-0.24830800170461426 0.453083 0.7304061048379427
-0.36404198120779974 -0.583517 0.3505873459695106
-0.2663466234353846 0.78084 0.5196818302370934
-0.2900626745165227 0.381681 0.4418498821301826
-0.20704731419737 -0.302306 0.7142918327032932
-0.17937565894874147 -0.135328 0.956630045151931
-0.3048327040923171 -0.190049 0.39337721812942683
-0.1924478332114697 0.484437 0.913729446507566
-0.12143722289162248 0.279935 0.9952492383498102
-0.2625245158744837 0.023793 0.6837499819722577
-0.26031103720539794 -0.158888 0.691014233357053
-0.3341620595162908 -0.673175 0.4486480436200438
-0.3389520706612075 0.86744 0.3677703303658254
-0.2767252559044571 0.265085 0.48562096652121095
-0.32708644788973606 -0.859246 0.47186896834560466
-0.30426286595720214 -0.67651 0.3952473276181384
-0.21099948936781693 0.034872 0.8528461428615199
-0.18296257868824228 -0.484577 0.944858399439356
-0.22891306733389966 -0.781612 0.6425322401126692
-0.23227613250165202 0.281575 0.6314952461071688
-0.21825086181047104 0.610209 0.8290484017565765
-0.29655183380146555 0.671359 0.42055359182471763
-0.2977454677388038 -0.033672 0.5681609537482465
-0.347510554266021 -0.714524 0.4048406092747592
-0.20288971625615337 -0.291184 0.8794610054213254
-0.3572047980183417 0.204908 0.3730257901008177
-0.28926202071961216 0.303886 0.5960021489753298
-0.12986995285940228 0.787864 0.9675744876501109
-0.3124338836686482 0.263999 0.5199561315156951
-0.2558044721971052 -0.024367 0.5542793340671277
-0.2387206957586294 0.331777 0.6103453121964726
-0.18891775154682683 0.661821 0.9253145595601415
-0.25628719298275787 -0.87531 0.7042197891072639
-0.20236035910138644 -0.157163 0.7296736028201631
-0.20622135159512542 0.86744 0.7527960221348302
-0.20164102747311896 0.132371 0.8835589844748497
-0.2554497443145298 0.120798 0.5554434891810724
-0.14474170801532715 0.498912 0.9187679780168436
-0.3017748156649562 0.138068 0.4034126752373922
-0.24953071464200882 0.479034 0.5748687134200823
-0.13234896735513238 -0.487767 0.9594387939409084
-0.13882151243357832 0.122894 0.9381970285668277
-0.16405736890178074 -0.882022 0.8886492308729212
-0.2271447088778682 0.792196 0.7998603450665234
-0.22290109076577713 -0.039825 0.8137871604353983
-0.31154108867741703 -0.034582 0.5228861291443003
-0.2562037961076461 0.607172 0.5529688225584144
-0.16880811481943614 0.234786 0.839786223462142
-0.2736166847910044 -0.521361 0.6473474159400756
-0.23458754754587774 0.397035 0.6239095846005284
-0.22378572439241334 -0.871728 0.8108839469836135
-0.2224702873060841 -0.481843 0.8152009823404192
-0.1762530281939145 0.396802 0.815353314735457
-0.2238439854884861 -0.529977 0.6591680836513809
-0.271360358957795 -0.358752 0.6547522842531783
-0.11763116067284979 -0.882022 1.013013209285016
-0.2700542147799686 -0.478621 0.5075141613386738
-0.19980118834624122 0.486048 0.7380723554088521
-0.31265857830699756 -0.2824 0.36769406229187457
-0.1314371566211607 -0.756008 1.0226382863691343
-0.18249621499709962 -0.645771 0.9463889238290943
-0.30813164425253736 -0.326121 0.3825506712275155
-0.13050712225242592 0.52166 0.9654834087026309
-0.13120112972030756 0.057119 0.9632057970951518
-0.27617961038582023 0.036256 0.4874116800572048
-0.3239355782014536 0.36655 0.48220957375377405
-0.27972105966543465 -0.728115 0.4757892604726295
-0.19445345419536997 -0.277033 0.7556226872704326
-0.21555732001681538 -0.228207 0.8378881366850588
-0.2712388129207909 -0.866077 0.6551511771722538
-0.3001568594993182 0.082967 0.5602471860755559
-0.2540477384680323 -0.384582 0.5600446281277232
-0.1746105535691715 -0.262826 0.8207436303205666
-0.21661155907078466 0.843057 0.6829036472029912
-0.3016261966037245 0.864004 0.5554250776701366
-0.3244144754167957 0.687885 0.4806379165210616
-0.13364685120884537 0.456957 1.0233115989482215
-0.21678906875072584 0.026432 0.6823210913571471
-0.11643897417946891 0.332717 1.0180682136732435
-0.17605718980895457 -0.314175 0.9675206827626626
-0.30840621587569755 -0.409517 0.3816495749930571
-0.15043309391110915 0.080055 0.9000898409955749
-0.13286808843883555 -0.031747 0.9577351289795808
-0.17860379267458037 0.012179 0.8076385152334324
-0.25376503984559706 -0.38344 0.7124970563225175
-0.32835023031975774 -0.437545 0.32082151081331256
-0.19984082925998836 0.17528 0.7379422608357243
-0.277116126973096 0.511017 0.48433819576706155
-0.33898134530963603 0.189148 0.4328319872075856
-0.23819373915295822 0.54732 0.7635993525403921
-0.26867556148334815 -0.235187 0.6635633218493531
-0.3265795688529254 0.593979 0.47353245704170144
-0.2719745016435684 0.551043 0.6527367749474418
-0.228105709558929 0.574437 0.7967065082459189
-0.1389427669932754 0.268539 0.9377990922254957
-0.2519149990129756 0.026759 0.5670439074775452
-0.2902851060670564 -0.4689 0.5926445610953415
-0.2803733858784204 -0.544022 0.47364843948248303
-0.1860230904113659 0.445132 0.9348143331316985
-0.21562519986401799 -0.79249 0.6861407062872878
-0.16861923752452337 0.331016 0.840406085839986
-0.254920130047776 0.722964 0.557181590941169
-0.1789897086290009 0.076634 0.806372006300924
-0.24782003432743624 0.291671 0.5804828681971911
-0.21322812485686482 -0.098906 0.8455321494340582
-0.2952978984269058 0.637377 0.4246687892776265
-0.1305360603867023 0.578882 1.022363714745974
-0.18074268751840333 -0.750277 0.9521436955345104
-0.31474588166748785 -0.433204 0.5123685568535674
-0.24960212658221506 0.179043 0.5746343518729036
-0.11502355622918328 0.837699 1.0162977750196864
-0.29890493010058716 -0.025684 0.4128311397007443
-0.1665054440944194 0.628412 0.8473431876364748
-0.13141898164403254 0.048807 1.022632748300302
-0.2396126506832597 0.230409 0.7589427320846134
-0.2644669206480928 0.248446 0.6773753478889977
-0.317379087658602 -0.71014 0.5037268335180074
-0.35778250604074463 -0.469205 0.37112985301302936
-0.12352973847831808 0.385883 0.9883819667286033
-0.23688497167936917 0.555716 0.61636983882558
-0.27435645419607946 -0.580375 0.6449196216268533
-0.1439322755338877 -0.07673 0.9214243944107832
-0.2947828923908202 0.134884 0.5778836099340592
-0.28764432166596116 0.331127 0.6013111554522346
-0.22822547236677124 0.018281 0.6447888070097896
-0.2242573003097613 0.862224 0.6578116564109754
-0.12893897434095877 -0.180379 0.9706297969631261
-0.2753903242038813 -0.297615 0.6415266403703521
-0.2878495216900639 0.71424 0.6006377247207497
-0.22317300472785467 -0.601202 0.6613701256171169
-0.16143607077169886 0.362819 0.8639799877529302
-0.2228302274148648 -0.149955 0.6624950610435747
-0.2733526063508949 -0.778327 0.648214075375765
-0.26353885690271894 0.539063 0.6804210914245769
-0.12190446101468597 0.229465 0.9937158442268412
-0.24866706738147407 -0.647478 0.5777030532743289
-0.16963565325922741 -0.771364 0.9885950470316154
-0.31763176411841987 -0.415552 0.3513729328308027
-0.2645514147017924 -0.76145 0.5255733925598423
-0.35262568952593487 -0.289451 0.3880536264525607
-0.21014779267686767 -0.7635 0.8556412630282795
-0.16870842958045443 -0.663606 0.8401133730504484
-0.285539529667053 0.064151 0.45669405555515696
-0.2341824284545176 -0.692303 0.7767637754476289
-0.29368486301016616 0.829256 0.4299624905106339
-0.18864606033141623 0.12123 0.7746815422336488
-0.2482569931758955 0.30689 0.7305735059430704
-0.30958206969731095 0.82502 0.5293152881589447
-0.15206116429379574 -0.882022 1.0013691632673445
-0.1790955148914289 0.297264 0.8060247685800022
-0.31546349879723357 0.098171 0.5100134624488575
-0.26522097244120907 -0.787246 0.6749006812663395
-0.24991025246099619 0.124895 0.725147796981448
-0.14674211677302215 -0.013949 0.9122029849626099
-0.20024135344507715 -0.662456 0.8881524707995518
-0.20588610297174487 0.494988 0.8696273862172568
-0.14975424326318962 -0.472916 0.9023177105603877
-0.3014358619222769 0.746554 0.5560497229366986
-0.18524481163645157 -0.007472 0.785843847923559
-0.3211388534411326 0.755288 0.49138793720348595
-0.3014696732898847 -0.335217 0.5559387599184425
-0.13656345674904044 -0.186531 1.0242003132571553
-0.34786557362590337 -0.81641 0.40367549758307086
-0.3322543405422104 -0.085761 0.45490884495181705
-0.16383467189602685 -0.125332 1.0076328572844728
-0.1889675598009977 -0.465935 0.773626436982473
-0.20850298623366897 0.090405 0.8610392312353379
-0.17568234999219873 0.762033 0.9687508417409145
-0.19635217173825442 -0.612693 0.9009160876322257
-0.2317171133922148 0.760071 0.784854510002883
-0.11596546819639361 0.002724 1.017923932406296
-0.15184956909155178 0.402067 1.0288581206224423
-0.16805726927669648 0.179227 0.8422503677296207
-0.2985957070432182 -0.509268 0.5653706164702048
-0.24725343680801795 0.785484 0.7338670031142385
-0.19585753474833628 -0.851479 0.902539400063092
-0.22467123245097043 0.097932 0.8079778637985979
-0.2619721320124666 -0.286933 0.5340381490128386
-0.23563715732825566 0.440384 0.6204649481458735
-0.16130377443965715 0.242228 1.0159388218320338
-0.33699172121229876 0.447654 0.43936158688530663
-0.24344408551798347 0.002066 0.5948439698616543
-0.19429751383614413 0.217529 0.7561344563632513
-0.18209485074541004 0.189705 0.947706131382013
-0.31948821745179456 0.034521 0.496805036965416
-0.30867204317964886 0.335568 0.3807771760909063
-0.21310654445454075 0.766619 0.6944064945696182
-0.2785814177605248 0.066605 0.6310540272335678
-0.18176107486361603 0.241401 0.7972768651149041
-0.26937740447319786 0.375537 0.5097353348592816
-0.2865308439880381 -0.140517 0.45344073464921947
