0.4840320954245707 0.056592 1.3767727865510606
0.5080345828825058 -0.13145399999999996 1.2176439986438068
0.5928040834786903 -0.514874 0.8361688298547054
0.7449656010613017 -0.47953099999999993 0.2565715099756737
0.596807154094022 -0.181494 0.8455973393153078
0.4159488088960662 -0.365781 1.5345035346519857
0.5908228645479258 -0.587075 0.9546025431526866
0.6926926180168276 -0.590117 0.5745656989754605
0.7070756150049697 -0.12278500000000003 0.42557455414249035
0.76988112005887 -0.306602 0.26005330305996466
0.7249971918796762 0.031946 0.332633030837113
0.758654791318836 -0.576712 0.3307094911330605
0.4313949351352271 0.023710999999999996 1.5095715184037175
0.634978612973209 -0.4882139999999999 0.7506624322524443
0.6318654327200651 -0.010408 0.7459608173478147
0.5342046026828173 -0.23598200000000003 1.1179599682896357
0.7180734748728849 -0.401328 0.3674180426641897
0.46861148324497864 -0.536684 1.435511327229278
0.6744335638891095 0.030023999999999995 0.6335185112269643
0.7165433307128142 -0.01849500000000001 0.4234148575722665
0.7149941794999914 0.129342 0.4829260331237527
0.4926137167778996 -0.193645 1.2763835065459321
0.525440259263953 -0.102904 1.1174404546361005
0.7197799881314669 -0.506917 0.45123971598617907
0.40250946965668316 0.053881 1.6873000220520855
0.6755923358433584 -0.044716000000000006 0.5794009915816771
0.4956504060211893 -0.303178 1.2648164758362084
0.44389731949493966 -0.307033 1.428045068049725
0.5427565716540119 -0.567388 1.1530858151365906
0.5683740222014462 -0.01244300000000001 0.9878054831776737
0.4289765533012032 -0.17577699999999996 1.5187833588986928
0.45377855749254614 -0.10231699999999999 1.3904065169134945
0.649431566230441 -0.608645 0.6416411055216423
0.7134007547386563 -0.294792 0.43538522065141516
0.5177634015450244 0.029360999999999998 1.1220057406691248
0.6041629754598277 -0.342483 0.8514820439837136
0.7661351683083897 -0.415818 0.3022160420421877
0.48842713351272926 -0.04213900000000001 1.2584268802880907
0.37913684898750466 -0.255397 1.6500471246069914
0.39669957258581 -0.514414 1.5831490830451527
0.4674582597756591 -0.011210999999999999 1.3382992633450572
0.4022033400343086 -0.016527000000000014 1.5868612992124638
0.6285510818782329 -0.09582299999999999 0.7246817769677307
0.4745642189276178 -0.362804 1.3451357163384372
0.6299202438933174 -0.58274 0.8069529696743911
0.6626816508697086 -0.22653100000000004 0.5946752771136152
0.38263325663066977 -0.11254200000000003 1.7274447414152165
0.7540584946391147 0.100549 0.3482172110826136
0.7183885990957415 0.03420200000000001 0.4770141941875173
0.6871319865301266 0.102525 0.6031464819330548
0.6553601269943679 0.060751 0.7241684389104561
0.6840961630064757 -0.431376 0.5131054160989963
0.6596034394822726 -0.318563 0.6403041793648667
0.5649535307037318 -0.307386 0.9669307423909224
0.6512317856933255 -0.173394 0.6721925843710442
0.7585092922857726 -0.24263100000000004 0.3312637104320546
0.5026708032520966 -0.430651 1.2041714224211089
0.5967697231723569 0.05053099999999999 0.947344716101769
0.41168061249125626 0.115965 1.6454036037432627
0.6035168686658664 0.0063650000000000095 0.82003941478368
0.5215586291319925 -0.183137 1.1661296533306638
0.5363568711020935 -0.4223779999999999 1.1097617784497147
0.5530904079712915 -0.07889499999999999 1.0121184761251456
0.37767144773129385 -0.018039 1.6556289737771406
0.4327545820274223 -0.4445779999999999 1.4704887875583872
0.576816653436172 -0.178178 0.9217430086566991
0.5687186217792755 0.144892 1.0091412900087022
0.6384522475850987 -0.29572 0.7208710291874142
0.7054944270748457 -0.608119 0.5002082519587558
0.40622779758233923 -0.271898 1.5715317675025877
0.5080795560322526 0.114285 1.285173780839634
0.5986111589521526 -0.447543 0.8726294274971673
0.5197061744934478 -0.589018 1.2336131128730743
0.5981459683263722 -0.115919 0.8744013816956968
0.6575844173687398 -0.530043 0.5894145354704057
0.5199157400149808 0.024664999999999992 1.2026287814894188
0.5771790616627701 -0.550182 0.8956859857784558
0.4343697703789066 0.14248 1.5375706041079502
0.46991078911973017 -0.19060699999999997 1.3628610616671768
0.5605359972339173 -0.44266099999999997 0.9837575367095996
0.6577322660535745 -0.419366 0.6474316523391918
0.5108368993378068 -0.360734 1.2069697156007004
0.44791481712299386 -0.576962 1.514346846257411
0.6167957733321769 0.058448 0.8710636354133285
0.6193890810786404 -0.220601 0.7934843968186367
0.6155813539344659 -0.3608819999999999 0.7740846724908139
0.441461924684973 -0.239516 1.437321712546502
0.6963387712681013 -0.129371 0.5003758966676755
0.6880592922592624 -0.221188 0.5319131993954326
0.48440962106829943 -0.588894 1.3679546248725512
0.530535067977815 0.074455 1.0733572797938873
0.705462937240597 -0.44420499999999996 0.4317173931789862
0.4571642612633327 -0.46390200000000004 1.4114137673755724
0.6387857245530849 0.143805 0.7565408238197333
0.464390233811042 0.048840999999999996 1.4515904574674623
0.49921925776732984 -0.527368 1.192642102633429
0.48515771658969686 -0.46126200000000006 1.3047841021416853
0.40484837296130244 -0.471738 1.678390922640156
0.716695564163096 -0.230736 0.3889312764070711
0.4123546503022915 -0.14564699999999997 1.6497988167107187
0.54466986821279 -0.307982 1.0780968021661683
0.5536017090050365 -0.51898 1.111775682047512
0.7490351359494213 -0.37087800000000004 0.2502186445753698
0.6894231235098442 -0.0005489999999999939 0.526718239788281
0.7171234850433246 -0.12085499999999999 0.36262470976069433
0.764575306946944 -0.517356 0.30815769850592484
0.5008939859840368 -0.525796 1.3125442829739058
0.6898782895019143 -0.272228 0.491080760501445
0.4110523728497115 -0.454295 1.5531545132601972
0.3856023056996965 -0.581782 1.723507613575571
0.3988842861753706 -0.38086700000000007 1.599503882907321
0.5856432369057402 -0.511682 0.9897265332803515
0.6840937453144965 -0.352505 0.5470183351587701
0.6315522216195525 -0.43757200000000007 0.7132501576050563
0.6961835010881987 0.122703 0.5449370088190932
0.7124369877520906 -0.349134 0.4051525885596569
0.6225277649229488 0.140078 0.8210602147163071
0.65492537894802 -0.11125299999999999 0.6581233454126331
0.4330857002457725 -0.36192599999999997 1.4692275275830147
0.5630589961737389 -0.23937600000000003 0.9741471999647369
0.4318404519767623 -0.11044599999999999 1.4739707936253663
0.43508319596462613 -0.036212999999999995 1.4955225911473637
0.7588803635571697 0.142217 0.30149937613559263
0.7378805270624139 0.12714 0.40135383121494067
0.5231552236269713 0.11787 1.216206388308282
0.4454479356112822 0.0811 1.5237434265187173
0.4896405372103839 0.113137 1.3554097121062354
0.6482116015759505 0.008298 0.6836967455267807
0.7702043166588971 -0.057621000000000006 0.2867162789245925
0.4135305486202039 -0.12093799999999999 1.5776186219676598
0.4029606944066895 -0.329104 1.685581265168468
0.6751662496697453 -0.463561 0.5810239932984524
0.5403345421208903 0.028138999999999997 1.0360301747558698
0.663842849959061 -0.102495 0.5902521621846442
0.66024081968985 -0.518983 0.7055774281845095
0.7428210431413484 -0.542897 0.3910217051087711
0.582501780576235 -0.317495 0.9000878325918105
0.5993591004854478 -0.261187 0.8358767390449906
0.6021363999225172 -0.04092000000000001 0.8592014579894252
0.6286087228564273 -0.23849399999999998 0.7244622171407296
0.7658568664929665 -0.356672 0.3032761194448014
0.7361700043736709 0.030700000000000005 0.4017494536754952
0.560227345974967 -0.200301 1.0188369278018112
0.7666560720187053 -0.173072 0.27650045610049506
0.7590905266429839 -0.01857800000000001 0.3290497349078003
0.421669889443531 -0.554716 1.6143162076642927
0.5810037445513705 -0.04361999999999999 0.9396977004667255
0.7244873747780637 -0.074208 0.3931552576263093
0.38253081072559403 -0.502193 1.6371192098594234
0.5622601480794678 -0.37759 0.9771900863777137
0.5336342871012112 -0.042299 1.1201323531858678
0.7135194700870805 -0.17667 0.40102931304200906
0.5144526699800338 -0.388799 1.1592932003372838
0.3831806048366049 0.04009299999999999 1.6346440838801455
0.5981408898260908 -0.39271100000000003 0.8744207261738468
0.3734329313964003 -0.39300099999999993 1.6717738752410345
0.6847957836517615 0.076959 0.4857639198716006
0.7378813470937008 -0.259472 0.2835560897708554
0.47824448652341905 -0.24187599999999998 1.297213526202517
0.5069507665958009 0.063176 1.1631920690980446
0.5507998719775076 -0.443712 1.05474704981535
0.47167099731727885 -0.435589 1.3561562655404267
0.6777409277542761 -0.09182600000000002 0.537313096055762
0.4310285497621769 0.107885 1.5786682033296853
0.5597238646715866 0.119584 1.072384150013399
0.45447140742645786 -0.49336 1.4639788628592985
0.5020895688948853 -0.077289 1.2063853979453631
0.5418948541008473 -0.109437 1.0547633782065664
0.586618564498314 0.138021 0.9594208928798063
0.7151863838598682 -0.534748 0.49628468296136896
0.5045341050053587 -0.297829 1.1970739333879161
0.420866828568617 -0.415038 1.5157703420116375
0.6644396953002922 -0.18156099999999997 0.6218824328227315
0.7245601869304579 -0.441121 0.33429762318191053
0.7356854035720042 0.062681 0.29192064212286556
0.6562896537219856 0.05913199999999999 0.5943464101747187
0.6402256883056351 -0.529599 0.7818169182449277
0.6100823538297179 -0.15915400000000002 0.795030873431509
0.4812622529488149 -0.15707099999999996 1.3196222841065544
0.5813015985928772 -0.428365 0.9385631468232347
0.6151650357317852 0.115982 0.8670872189514034
0.5350039586271167 -0.184535 1.114915147428844
0.6900311523603857 -0.179527 0.49049849170913346
0.47526035975804226 -0.321111 1.3085803415633892
0.41610520929295963 -0.04815 1.6250055510876202
0.6166332329009145 -0.482572 0.8039816778866715
0.48518679640815365 -0.13356599999999996 1.2707696245716247
0.3663202378272232 -0.24619999999999997 1.6988667841138556
0.461398460872987 -0.342308 1.395285308718106
0.4465282937972589 0.026103 1.3933468667819284
0.5013499425604099 -0.577528 1.1845261268256448
0.4466647222165613 0.144073 1.487280279598063
0.565064871418057 -0.13599300000000003 1.0004103451401387
0.4050498966735752 0.068135 1.5513419248472045
0.4825857385444154 -0.529377 1.3822820939281477
0.616810247057979 -0.56904 0.8710085036506015
0.7158365930720065 0.066836 0.3675266005238751
0.3838870834171574 -0.472445 1.7268196307134311
0.4487474088218807 -0.072049 1.4434743382372839
0.532443765077079 -0.47879399999999994 1.0907634520435021
0.753356391975205 -0.36563900000000005 0.35089158518683516
0.6551979728549722 -0.014867999999999992 0.6231813001152855
0.771202742036318 -0.56454 0.2753637112958258
0.596598069862844 -0.538063 0.9479985594632352
0.4849149642762438 -0.056314 1.30570876819725
0.7662727956660168 -0.468375 0.3016918066843258
0.6191083723799291 -0.44225800000000004 0.760649932415719
0.5407463512621985 -0.22065100000000004 1.059138131940163
0.4569244344918869 -0.054846000000000006 1.3784235799235482
0.49897149128024 -0.24023700000000003 1.2521661543500913
0.40930044023303075 -0.21874700000000002 1.6614325858700596
0.4992756934470985 -0.443798 1.251007420108913
0.4531579647581537 -0.272886 1.3927704121434101
0.6108382885966108 -0.032660999999999996 0.7921514478588987
0.6630914858424213 -0.305467 0.5931141777269195
0.5316716133039527 0.134898 1.1716371057487678
0.5313962376654973 0.144892 1.1035278248961724
0.6909414735358347 -0.47146200000000005 0.48703099400076666
0.40984224802330604 -0.591786 1.6483379742179944
0.693368234895323 -0.318409 0.4777872351168442
0.42768534460464597 -0.230993 1.523701692468301
0.5168118872857788 -0.267054 1.1503067230127548
0.6121184873888148 -0.508766 0.8797196663862414
0.488603479030657 -0.005227000000000009 1.2916588737169885
0.6680610522928287 0.0023440000000000127 0.5741846386333499
0.5582540946906118 -0.315013 1.0263532247869491
0.5151433460183102 -0.128313 1.1566623513088994
0.6132567276621517 0.047485 0.7582628130016746
0.4018413929446591 -0.047041 1.689844788152703
0.4961814955924669 -0.194548 1.2288897966010317
0.4146366459815025 -0.338322 1.5734053946266147
0.7092046438811128 -0.05619199999999999 0.45136859572275745
0.3684118181681361 0.021005999999999997 1.6908997607878256
0.44098688821516074 0.09011 1.4144545941151752
0.668773715862733 0.055579 0.6730748359970731
0.7177301119019431 -0.271254 0.3603140118456906
0.624037310828085 -0.39459299999999997 0.7418751491473483
0.6472233538434374 0.097475 0.7551621618022015
0.5573469815517771 0.037709999999999994 1.0853485213685696
0.49689477095699575 -0.00887099999999999 1.2261728646448804
0.41724982738714006 -0.261828 1.6233747468631732
0.4371002547182543 0.010358000000000006 1.453935717605531
0.41957726498030573 0.019670999999999994 1.5545861190584995
0.40628330321582456 -0.103525 1.672925140338906
0.47136730300044843 -0.129894 1.35731306533379
0.4418101774374275 -0.206322 1.4698988953900265
0.6968738196950076 -0.544606 0.5660389367220384
0.6464922753056674 -0.477368 0.6902458186044242
0.7237774288609738 0.087264 0.4635605964991164
0.531108176734576 -0.542246 1.0711742554346728
0.6348194747756198 -0.037505999999999984 0.7008048875873281
0.48795263263131294 0.029699000000000003 1.3380801144152343
0.7068684694250038 -0.50299 0.40168701448875654
0.49072521212159986 0.051715 1.2249967095630188
0.6255701237711866 -0.090718 0.7699402324624118
0.38937782755954986 -0.527946 1.7166836501608265
0.7476778082345233 -0.047757999999999995 0.36419260622659244
0.41734562408399745 0.006392000000000009 1.6232106950638194
0.7013021137417456 0.022413000000000002 0.4361180937835951
0.6342294746010775 -0.342459 0.7369559627690434
0.4247093434397195 -0.132222 1.5350375566641332
0.4976305132809245 -0.091999 1.2572740638055684
0.5282102232978704 0.073386 1.2084942039013056
0.46188675867504786 -0.223082 1.3934253371439946
0.4993692702191296 -0.47398000000000007 1.2167472676663489
0.4638336566436701 -0.581032 1.4427545211358241
0.4717709222146617 -0.40200499999999995 1.3218719325001753
0.42625847562392954 -0.583053 1.4705564824215633
0.41796725883292635 -0.321437 1.526815071811314
0.6056484652144063 0.078867 0.9135247649523255
0.7193109918080398 -0.012697000000000014 0.37896887015988046
0.5111192923757112 -0.570535 1.2735951434430204
0.5446733588363424 -0.520552 1.0195032198485157
0.6548174608170394 -0.371787 0.6585344155733182
0.4622187710352928 -0.317261 1.3582569614522935
0.599436801539754 -0.137986 0.8355807685292973
0.6062847085507705 0.109775 0.7848198798297439
0.449724447949386 0.124716 1.3811724194582984
0.7029834810363433 -0.007612000000000008 0.47506558145636624
0.4729580788869664 0.05319599999999999 1.2926733663703907
0.7238319032830888 -0.608645 0.38674780578339424
0.4524896341211156 -0.165408 1.395316145467935
0.7553827135875013 -0.09520899999999999 0.34317313840503116
0.6616982675794755 0.142541 0.6716474174911862
0.7616414573343535 -0.29261 0.3193330035331132
0.4083310584738995 -0.16826799999999997 1.563520251876813
0.6386918312402212 -0.323138 0.6860547229980408
0.4159375038285945 -0.40744500000000006 1.5684503065485218
0.40276161719565695 -0.267931 1.6863395687119436
0.5776884352409989 0.046085 0.8937457346200224
0.5134473808493218 0.006003000000000008 1.1631224397870534
0.44167756425343724 -0.511193 1.4118237450867908
0.5804342114864551 0.02951000000000001 0.9824420753608325
0.40877631058172964 -0.081231 1.5957279551876744
0.5269089615453467 -0.286239 1.111846031555154
0.6723171466852103 -0.560437 0.53329620435759
0.7230677084466419 -0.57295 0.4662639873205628
0.4103308679401358 -0.41788800000000004 1.657507591253448
0.41801765754387415 -0.055453 1.560526808298329
0.7073573394037374 -0.15164900000000003 0.4584051496497781
0.47690381968063467 -0.50638 1.2776436740718375
0.7186422105524906 -0.531108 0.3568397435699713
0.45757047695920366 -0.559027 1.3512861679406338
0.5231733382964777 -0.085733 1.1599790765029079
0.6660675714857412 0.144892 0.5735196482035136
0.41331651825559707 0.069049 1.6461349725491305
0.5577886501398174 -0.038598999999999994 1.028126146209386
0.6560895035793797 -0.06715300000000002 0.6197853769760732
0.6600253412974991 -0.346996 0.6047934064099125
0.5874898835526698 -0.158615 0.8810876861529937
0.37011057651227935 -0.49745700000000004 1.6844290328466889
0.5946069510786031 0.079389 0.8293015401114965
0.6446703633296993 -0.12617699999999998 0.6971856501406954
0.6958557415646914 0.137487 0.4436355153567816
0.3830810662310885 -0.197214 1.6350232356518835
0.6189186903944172 -0.258094 0.7613724486746171
0.3877717929841337 0.081924 1.7191465624496765
0.5379459338401575 -0.143318 1.1037088912366158
0.3893715506046998 -0.587599 1.6110621977915285
0.6797984821433033 -0.39122199999999996 0.5294756807333363
0.3887720023402235 0.143593 1.622301332405838
0.6740243773037184 -0.54675 0.6530745800379072
0.6604030493515861 -0.276024 0.6372583912801675
0.4308415109714021 -0.15287700000000004 1.477775852477449
0.522742173622583 -0.225464 1.1616214226978332
0.65260177468804 0.13037 0.7186232754724522
0.5659298723828394 -0.18406100000000003 0.9632117664666071
0.5377920837038858 0.093021 1.1719960097520106
0.6764569789385304 0.094927 0.6438085750041125
0.7026365946188262 0.039201 0.5220814962918061
0.7674137675800808 -0.606 0.26899484950034125
0.5890666255232058 -0.07122299999999998 0.9089854397320609
0.5737352733904055 -0.227796 0.9334802707741416
0.45719247536215074 -0.532538 1.479007386349294
0.37513050078023696 -0.15669299999999997 1.7254750450810583
0.5612405067811153 -0.470859 1.0149777044109094
0.60225003677066 -0.310052 0.8248648948581687
0.42148081925264363 -0.4628479999999999 1.5134315946033163
0.5010524067705618 -0.34452 1.244239754428176
0.6133416029434964 -0.36329 0.8165198013995194
0.6414818269279943 -0.189645 0.7093310807471005
0.5548667634251443 -0.560252 1.1069569725403756
0.7644122870879096 0.037971000000000005 0.30877865625453604
0.665163127665384 -0.390162 0.6191268119102804
0.474976339225457 -0.069438 1.3435659119365742
0.7158084717220892 -0.254616 0.42621400356055483
0.7035294198165986 -0.09399099999999999 0.4729860500552536
0.6946206099921937 0.031075999999999993 0.5615744623929436
0.4297130682088652 -0.309347 1.482074195522353
0.6943316263987129 -0.42352999999999996 0.4741175876118111
0.4126345336816132 -0.488371 1.6105442756320871
0.6797634404913613 -0.043206999999999995 0.5296091576325705
0.4561530102991355 -0.400825 1.3813620061545158
0.7093283337852221 -0.571865 0.5185985385072609
0.378320405227153 -0.06554300000000002 1.7263124897774684
0.6256831204024487 -0.131604 0.7695098178235769
0.47819700254578756 -0.36721500000000007 1.2973943970732185
0.5051284110964491 -0.398421 1.2287138762650784
0.5721424017771305 0.019237000000000004 0.9395476663458531
0.6899081202867223 -0.319024 0.524870842124967
0.7120503815138202 -0.40495100000000006 0.44052891739146954
0.6210568727035791 0.044954999999999995 0.8332357860408486
0.6235084871624492 0.024460999999999997 0.7898006791969019
0.7683446148097098 -0.21278200000000003 0.28304885012063064
0.7689821755661674 -0.0020630000000000093 0.2913715275913623
0.3849027242820427 -0.407439 1.6280843713395199
0.45231403956953914 -0.11002699999999999 1.42988871123262
0.3874442597478916 -0.141886 1.6184034272494099
0.7102538904615153 0.099893 0.5150730073644445
0.6001182039106712 -0.21532099999999998 0.8668889536061892
0.4643991211865345 0.088915 1.4515566046307
0.42161164786640787 0.05617900000000001 1.4882566799287076
0.6885729825627305 -0.172093 0.5299565054305717
0.664605894626348 -0.265978 0.587345654342624
0.7402396414482901 0.080167 0.4008545033523575
0.7280717159500626 -0.16332599999999997 0.3209218837651728
0.6985339530147557 -0.233414 0.4920142459873878
0.6210750788454354 -0.518129 0.728481988889927
0.5759944442406062 -0.135892 0.9248748796691655
0.7296280866879559 -0.443222 0.37357380961908837
0.7281824272561981 -0.499213 0.3205001741415053
0.47411937072521926 0.068451 1.4145312734518205
0.7251450405645108 -0.306504 0.3906501477058991
0.5387551928600056 -0.34971 1.1006263486434316
0.5326806438540426 -0.60421 1.163260780638734
0.7246432204100595 -0.344672 0.33398134096416
0.5590604389771436 -0.275592 0.9893780748360486
0.5629574261681101 -0.07262099999999999 0.9745340895277346
0.41153869648317676 0.10113 1.5266254851150967
0.6511379658049713 -0.21459499999999998 0.6386462431722109
0.5463343466800334 -0.06294 1.0717566494525435
0.659638105651039 -0.437673 0.6062684228688412
0.5329455209048857 0.005794999999999995 1.0888522176022934
0.47415463787991924 -0.22713 1.3466958485012255
0.5161677367565946 -0.510627 1.1280837757038187
0.511018899246252 0.111847 1.1476961748760794
0.40614583703431084 -0.502404 1.5471673864624595
0.5504670047063149 0.050704 1.1237160611855281
0.7321916493033844 -0.376432 0.3052286758660788
0.4283007372805955 -0.07402799999999998 1.4874538948958362
0.6402958755541155 -0.284685 0.6799447695743998
0.5195678570216662 -0.328619 1.1737126887654186
0.7155034434535438 0.111711 0.3687955982905075
0.4348148256470078 -0.568006 1.5642459276450387
0.5639464907593181 -0.607128 1.0433156278300613
0.7260192400613168 0.070534 0.3287399546094487
0.5848192502350757 0.104573 0.9928651748601702
0.6454963814004762 -0.07411600000000002 0.6940392707696166
0.39241814292353827 0.023993 1.599457445349413
0.5347968100652988 -0.508731 1.1668177104337027
0.588728021921286 -0.287717 0.8763715023800518
0.3735083471255798 -0.308616 1.6714866097405086
0.7635517352152188 0.079975 0.31205657807703413
0.3674077986624946 -0.20800799999999997 1.6947241641180577
0.6215233492441736 -0.53478 0.8530558607036007
0.6765780084213422 0.140438 0.5170661871898367
0.6398921920132576 0.03616900000000001 0.6568058612250667
0.3673059747318516 -0.339697 1.6951120209049628
0.3722011411531359 -0.068554 1.6764658784162891
0.5139870930623869 -0.208687 1.1949703358043269
0.383212090464694 0.01333899999999999 1.7272089949569422
0.4026699502655768 -0.13910500000000003 1.6866887365425491
0.6074965030445678 -0.469398 0.8387843285261292
0.7423000296606768 -0.608645 0.3441335978111529
0.7640405408673079 -0.146127 0.31019467205510765
0.6762708234809593 -0.19337700000000002 0.5768165693008525
0.3692746553659536 -0.454148 1.6876131339501599
0.5694108264561591 0.050782999999999995 1.0515572887908282
0.5813074388682009 -0.280499 0.9385409006733623
0.46467199782776153 -0.524691 1.3242358169197428
0.39633747551574305 0.093444 1.5845283443372393
0.5129178432503848 0.081382 1.2667442965062385
0.5925684410656312 0.12121 0.8370664136408601
0.37772324843416455 -0.3590610000000001 1.655431660100012
0.663816083887987 0.105901 0.6919589155669906
0.4518041581412821 -0.35935800000000007 1.4318308968388682
0.39067418592689024 -0.282467 1.6061003391460833
0.3946089731681213 -0.600527 1.6919689164859126
0.4525994797076123 0.106078 1.4965025323880499
0.5574474033431605 0.09131 1.0971270759685117
0.48981946159640427 -0.534179 1.2284467972410507
0.48477955791709876 0.099885 1.2476442573569964
0.4176261051721748 -0.215762 1.5620182675636851
0.4307543107469789 -0.529892 1.5797128051497789
0.45727668571792207 0.04594899999999999 1.3524052460016047
0.4368006232016491 -0.282086 1.455077041816374
0.43984428997848035 -0.242938 1.4773871428818468
0.7484194516848675 0.033705 0.3617653728236084
0.5268396972480219 -0.58239 1.087433289319651
0.6449190882853285 -0.4526 0.6623345238906522
0.7691756140370458 -0.38823300000000005 0.2764257833623859
0.4316553978730206 -0.51937 1.4499991054916808
0.43199509231033223 -0.407389 1.4733817542657026
0.5517350134776909 0.08461 0.992604722981101
0.5222825050204678 0.105479 1.1047920567874498
0.40081325056268075 -0.381069 1.6937610777541467
0.6578239329836545 -0.146965 0.6470824845085863
0.6518615481504807 -0.53632 0.7374948499079118
0.41366387241259434 -0.361193 1.6323121152074078
0.40070238927612767 -0.456674 1.5925785597296622
0.6102726008967749 -0.512205 0.769629628362547
0.7310525783791522 -0.20372100000000004 0.3687070089839984
0.7127036090168665 -0.40898900000000005 0.404137003456788
0.4378189197395957 0.051382 1.4265216795850733
0.6618843263255219 -0.152924 0.5977123601831472
0.4983431220129214 -0.608645 1.2589664839056267
0.5580496207276391 0.111903 0.9685517988495342
0.4177363200763535 -0.168657 1.6220808713423667
0.6033238804231793 -0.600392 0.8970805165186513
0.6111208011855195 -0.608645 0.8340328950597429
0.46133726494459565 -0.012085000000000012 1.395518409679812
0.5849029527408189 -0.488773 0.8662649689602961
0.4753284116618136 -0.19221900000000003 1.3083211255561809
0.40925286350649864 -0.587947 1.5353324347303599
0.7554261347649077 -0.13150499999999998 0.3430077431168496
0.5348710342865954 -0.248558 1.0815177587117646
0.7715394536000391 -0.444816 0.2746994385183794
0.4914494266630958 -0.498455 1.3415528609506564
0.5068704690598371 -0.10811399999999999 1.1881745062150617
0.6767156357789693 -0.48755799999999994 0.5165419518319747
0.3683399573891537 0.064697 1.6911734851536464
0.5831022092899194 -0.546291 0.9994055429226465
0.664875285735308 -0.58696 0.6658863154579368
0.4116657517391135 0.026640999999999998 1.6524228951717508
0.38870906024298535 -0.22557 1.6135856849661812
0.5546660699151267 -0.52787 0.9814400574168949
0.5254134393357437 -0.4982690000000001 1.2123855744142726
0.44166216757647947 0.048505999999999994 1.5381637677555489
0.6011088138194451 -0.49831000000000003 0.9240076209664196
0.521015511949148 -0.553315 1.2358995260962473
0.5721326486819993 -0.568766 1.0411896157263976
0.5992175325718555 0.029869000000000007 0.9172705629109688
0.4402185111225782 -0.54871 1.4173814136592526
0.5654601111068058 -0.13127900000000003 0.9650011306954713
0.761137162256406 -0.05768000000000001 0.3212539102133968
0.5550243861880844 -0.48616499999999996 0.9834147661165602
0.6072666753729921 0.024460999999999997 0.8588465301062493
0.6532384907528938 -0.498862 0.6059685726471695
0.5919565745306179 0.080617 0.9656784452683222
0.7185454801397421 -0.332702 0.36754195807105694
0.4526868336293316 -0.60666 1.4677637693789647
0.6808828635115532 -0.11958099999999999 0.5592488814690346
0.7118387717279507 -0.499715 0.5006910644716605
0.6260882631667464 -0.13125200000000004 0.7340628816465173
0.4828510617618648 -0.286936 1.3135703641173628
0.4193380676170498 -0.300552 1.5554972439793588
0.6415950034748338 -0.603353 0.7485337287197725
0.5009764831913542 -0.27491 1.2445289543765168
0.40099886974796756 -0.4399040000000001 1.6930540370777685
0.47891195144081844 -0.568814 1.3962758894217742
0.5518594367345864 0.047443 0.9921307832664288
0.6278866816745674 -0.210071 0.7611162487543419
0.5948896861884179 0.144892 0.8792711419195725
0.7107835496186139 -0.328321 0.4453543974659582
0.6433265278285845 -0.525724 0.643724157876207
0.7175958498961436 -0.474722 0.41940571447570285
0.5406530996390312 0.032099 1.1517292273280824
0.41644527040694057 -0.12153199999999997 1.6247577801475206
0.7604155073664128 -0.329057 0.3240027605584954
0.5813787917971551 -0.318762 0.9382691107553565
0.5449281099521015 -0.41347599999999995 1.0771131354522467
0.38833426692221473 -0.544425 1.6150133074536426
0.5112968899051442 -0.43839000000000006 1.1713138590596222
0.6927596981947534 -0.359417 0.5140089176438067
0.6050207341573637 -0.088202 0.848214761624198
0.6761955401186325 -0.4469540000000001 0.543199620756772
0.427197046802585 -0.02052599999999999 1.5255616640424123
0.5508269203958518 -0.005347999999999992 1.0207403100365493
0.5048012341201626 -0.175186 1.196056413837232
0.48250515156605384 -0.560193 1.2563076818964223
0.6865028642898522 -0.095718 0.5039380679037659
0.5987240340252532 -0.42822099999999996 0.8382957660376338
0.3814414724152242 -0.288878 1.6412686004225736
0.5312545018693262 -0.3717079999999999 1.129197175646904
0.46597986270485936 0.144892 1.3486170376739064
0.5626023066315845 -0.345124 1.0097904825950177
0.6360426887999227 -0.504534 0.6714689756626793
0.5204684074884188 -0.4376340000000001 1.1363786987448377
0.6250501437965337 0.022413000000000002 0.7376312338114793
0.7458829335246066 0.131571 0.3610146827259869
0.6090859520744984 -0.331634 0.7988262600445164
0.5979681629989725 0.115967 0.9354429361096006
0.5288399573327696 -0.570354 1.20609548861072
0.5637508434658731 -0.607978 0.9589570019632503
0.5625938627794755 0.05244499999999999 0.9512423598010173
0.6705714094278767 0.141781 0.6379118087262898
0.435390634830023 0.12394 1.4357712418124404
0.7214490863100398 -0.366673 0.3683042409633018
0.6674143625135037 -0.593692 0.5519713635634886
0.5634478126018004 -0.546001 0.9479895858001142
0.4183080661199618 0.129229 1.6132475295363673
0.5719091019207151 -0.578535 0.9157597507545912
0.6278459893456713 0.055536 0.7026909633965932
0.7095232554471289 -0.536561 0.39157468853590427
0.525313861838462 0.047518000000000005 1.0932453377797837
0.3862360845309359 -0.014814999999999995 1.6230054786012675
0.6186015952833579 0.123864 0.7379037169728284
0.5410386701706233 -0.608645 1.1231659403959877
0.5425794931703029 0.060832 1.027478948189713
0.7319821611667748 -0.231072 0.30602663558976156
0.3896122073426 -0.325432 1.7164091686181
0.7152312358384584 0.033158999999999994 0.3698324623193414
0.4103156324392915 -0.178427 1.6575656246878976
0.7580969180629193 -0.444364 0.3328344820578253
0.7150848138542394 0.066929 0.49667157252436656
0.41783324365701313 -0.593219 1.5026489716722222
0.4277695261511564 -0.48571 1.4894773273103141
0.5591080445129366 -0.11016700000000001 1.023100450786046
0.4811613231600667 -0.08640700000000001 1.2861030251771308
0.5749481106849038 0.033845 1.023002426974141
0.6082656703344487 0.112894 0.9035555881377824
0.4670469502205019 -0.49423700000000004 1.425966201226164
0.6103229423762058 -0.23038999999999998 0.8280181592118108
0.6634615118194415 -0.556777 0.5670281381314515
0.36572224441908313 -0.42358300000000004 1.7011445964160046
0.7697183041819629 -0.24582499999999996 0.2885675454835366
0.41266748591962843 -0.511214 1.648607196856686
0.39158624539541875 -0.10894900000000002 1.6031657494770035
0.7341463640617124 -0.42606600000000006 0.2977829862261881
0.5415055833385011 -0.48905200000000004 1.1255382565835272
0.7263559446299765 -0.100108 0.3274574157081113
0.6855804119452448 0.032376 0.4827751979974434
0.6819645840715008 -0.021140999999999993 0.5551285076231092
0.604429221241428 -0.19587299999999996 0.8165641792840532
0.628595160886085 -0.552872 0.8261186748798863
0.7696053075507007 -0.09073599999999998 0.2889979601223714
0.45862285433476635 -0.608645 1.3793460873963168
0.576830065333213 -0.48616499999999996 0.9016033137702066
0.5851938935754288 -0.366397 0.8898333247245567
0.5769842199789761 -0.589073 1.0154829882356053
0.47192326935010026 0.03547 1.4150909731482657
0.4273102330322167 -0.550274 1.4665502409967222
0.45553450619637254 0.08831 1.359041369230923
0.5744961542907275 -0.4655389999999999 0.9644857147679877
0.6837212657411086 0.072425 0.6161382334585173
0.3763776997845959 -0.21994000000000002 1.660556979585824
0.4869971493916361 -0.42912700000000004 1.2977775321557972
0.4911470458966184 -0.332116 1.2819701918356188
0.6088724011376636 -0.251124 0.799639695350719
0.6303694961355211 -0.53763 0.6930786922039155
0.6769879077206994 -0.335317 0.5740851289860889
0.5095020439610852 -0.518996 1.279755392509851
0.5566428189181619 -0.401813 0.9985870136593014
0.677541972101405 -0.078964 0.5719746464199363
0.6999138099634803 0.062831 0.5544593321015173
0.496881160216936 -0.579096 1.325234253791953
0.5005290853176814 0.144892 1.242105931648057
0.3892900406751826 -0.343489 1.6113726766658343
0.5011943508534282 -0.14995000000000003 1.2436990762638866
0.6803009462826518 0.134316 0.6060376718502649
0.41226238277328264 0.045964000000000005 1.5238688969787382
0.688316396740356 -0.026782 0.4970301547564421
0.5655419965194987 -0.175332 0.9985929314179569
0.5028067746927869 -0.06664999999999999 1.2375572044512981
0.43799153151764786 -0.132127 1.450540761690226
0.6527767978457935 -0.4625600000000001 0.6324037800732429
0.40470413411239525 0.11516 1.6771051543272528
0.5642372082390341 -0.040549 0.9696592810339635
0.6852642753027248 -0.536878 0.4839793917622738
0.45342016535309376 0.05258199999999999 1.4933764647190284
0.5868097684203879 -0.575233 0.9852831066493231
0.6480099851147771 -0.218657 0.6844647213093311
0.43984162917017805 -0.460924 1.443493568300223
0.761490400126386 -0.594219 0.3036713174578555
0.6088400487162801 -0.553419 0.9013677276590304
0.6894753220482993 -0.606407 0.47219234865101867
0.5576365490563882 -0.425956 1.0287055133299752
0.5926578869972293 -0.18765699999999996 0.8953059920083699
0.4452026156254324 -0.028592000000000006 1.4569767839859036
0.6027251877035062 0.075348 0.7983784245649981
0.5842604652236993 -0.42751399999999995 0.8933888398085055
0.5218507752650281 -0.148426 1.1311131317924392
0.4833222250298213 -0.267073 1.2778719497243547
0.4585527516625356 -0.574668 1.4738259678768473
0.46653486833583163 -0.4882139999999999 1.3822379289284459
0.6677963372537443 -0.509009 0.6727768896014055
0.6147060744109589 -0.185776 0.7774186932999465
0.762866645527252 -0.21287299999999998 0.31466614817945354
0.6708049659948933 -0.22889499999999996 0.5637328170889672
0.6359547735135367 -0.159101 0.6964804294969212
0.42117292976873566 -0.250206 1.5485080840238057
0.5407342844196846 -0.088863 1.0930878055084214
0.4915586867666855 -0.529729 1.348103302709024
0.7710334035973242 -0.353569 0.2719012252679725
0.6182570833659065 -0.11887900000000001 0.797796280998246
0.4510590205918326 -0.425477 1.4007654849627578
0.6008109397713163 -0.56509 0.9319513476139982
0.4732061063941979 0.011859000000000008 1.3164051829750179
0.39997387841075444 -0.4124749999999999 1.5953535251202633
0.36728388325562733 -0.277652 1.695196169384915
0.4148918406206451 -0.485421 1.5724333345995831
0.5173177059138107 -0.309746 1.1483800129890263
0.6191912928143068 0.144892 0.7813639112754542
0.5466710796709493 0.079029 1.1381750913786597
0.4237062180759727 -0.10539100000000001 1.5049548442780367
0.7267513058768871 -0.294917 0.3259514480841428
0.5080606728323106 -0.526481 1.1589643333983872
0.40264542348380833 -0.23101099999999997 1.5851773623895165
0.3794626347805593 -0.055350999999999984 1.6488061763336763
0.5321000721661868 -0.073206 1.125976320034948
0.5640895454390056 -0.22980100000000003 1.004125452168824
0.7082899416537801 0.051326 0.3962724950546038
0.38999114324599626 0.143355 1.706006428758759
0.49383852948762247 0.020175 1.2378143715954808
0.5005599246101142 -0.325096 1.2122119547641084
0.47538922129833844 -0.463395 1.3419932058629884
0.37045261350623465 -0.528816 1.6831261822432941
0.7333849356934105 -0.521376 0.42696471273516445
0.5301742405328185 0.129769 1.0747317049664367
0.5775576066272348 -0.34312 0.9189206492946309
0.7091059994174912 -0.38104399999999994 0.41784063177816644
0.47124872001887674 -0.09706500000000001 1.3577647588985897
0.7237211122445859 0.044125 0.43744844190707405
0.7144144233948326 -0.079741 0.4315240628126982
0.5864471350780367 -0.452129 0.9189633215617714
0.3819808091451136 0.105028 1.639214216843056
0.504173277560362 -0.02554899999999999 1.1984483585604655
0.6434188993021898 -0.018179 0.6680488827361282
0.6826109555991672 -0.260038 0.5187627087339302
0.7016789466808927 -0.474796 0.4461309638484653
0.4781579553251374 0.029789999999999997 1.2728665551927236
0.5618564073070929 -0.344038 0.9787279723906295
0.3768700603868819 -0.445685 1.6586815324291924
0.408568732287071 -0.094173 1.5626149302993984
0.5763881779928357 -0.530088 1.0249799102607016
0.4389398375006111 0.11384 1.5485333752677948
0.4491010079402729 0.144892 1.456391499986812
0.7479548243313974 -0.265361 0.36371633730878167
0.7616313003337906 -0.548043 0.319371692489413
0.6566139802916003 -0.078128 0.6516913064277964
0.5475515416393342 -0.14848899999999998 1.0332165312193173
0.48876567278800453 -0.5892 1.2324607764571518
0.5319450563494411 -0.21834399999999998 1.0926630797978207
0.5903567781650707 -0.508733 0.9555430172266073
0.7003216627945261 -0.592794 0.5393899817151135
0.4160065714324221 -0.36867099999999997 1.5681872216456836
0.7149914733936572 -0.03831899999999999 0.3954223160502649
0.5400702061812411 -0.486287 1.0370370548435712
0.6557904641982462 0.032087000000000004 0.7131485224910381
0.4450543234172142 -0.33618 1.4575416427478802
0.4361581413112615 -0.602329 1.5320187480752068
0.4016848251555731 -0.15235900000000002 1.5888363704315671
0.5839155026877367 -0.006831000000000004 0.928606543919489
0.5612885270310308 -0.523426 1.0824958799198463
0.39988490071123267 -0.506743 1.6972972483599458
0.6124826765638542 -0.598491 0.8639699282536633
0.4670962842637536 -0.24575000000000002 1.3735817714578429
0.5435786308691601 -0.289492 1.0483497164759723
0.6983047910939011 -0.12062099999999998 0.45898343513124873
0.7456339316983398 -0.54919 0.25402577665114884
0.5667730249877209 -0.099218 0.9939038299144249
0.7149210037979067 -0.15829899999999997 0.4295944511172472
0.6260893886866392 -0.49951499999999993 0.8275389476299186
0.5730744281369371 -0.405146 0.969901201426048
0.3708660105720949 -0.230105 1.7243554896940139
0.5257150633606961 -0.520392 1.091717124005943
0.7418781268151976 -0.587952 0.26833198546689613
0.6840838422389477 -0.476074 0.5470560568911623
0.5880769581852048 -0.07511899999999999 0.8788514644788672
0.3818543544881057 -0.580741 1.6396958943489879
0.5276534696866064 -0.45497999999999994 1.1090101310583809
0.6672547080062969 -0.12621700000000002 0.6111597885842504
0.4157648051285061 -0.209495 1.6332451766862033
0.5689719512829416 -0.520113 0.9269476296925772
0.3960228624233076 -0.54625 1.5857267347586246
0.6338867745958224 0.11689 0.7951679025898946
0.3757578688252456 -0.126517 1.6629179731440171
0.5411406968090526 -0.330065 1.0576360332118244
0.53534110671916 -0.516938 1.055050632896744
0.6469011619368532 -0.608645 0.7127978113483668
0.7068015259701893 -0.528531 0.5282233836107362
0.6601592813380768 -0.348669 0.6381869262313619
0.7190766762515681 -0.03126999999999999 0.3551848234642486
0.5186306197947257 -0.150044 1.1772827122079799
0.4203019953927239 0.082832 1.6195266428539643
0.45878430285311345 -0.076596 1.4052428788457594
0.690556015364473 -0.38242200000000004 0.48849923989234295
0.49420953638786685 0.044388 1.3125811421147429
0.7680594854395053 0.115773 0.2905068941834025
0.5756395786290948 -0.0023759999999999892 0.9601303055125412
0.6485931293139395 0.008692000000000005 0.6483397611731181
0.6117011257944283 -0.062493999999999994 0.7888648210212332
0.40029194250879047 0.025158 1.6957467884362325
0.6724149078156281 0.023364999999999997 0.5329238231532047
0.47862600345271705 -0.037661 1.3296640027141595
0.5185572354656588 -0.279344 1.1775622399172456
0.7498954158008819 -0.22330300000000003 0.3524177794473303
0.49682102303483516 0.127612 1.3182604080437785
0.4250601430734415 0.04186200000000001 1.573854914786718
0.4999342533754403 -0.271922 1.2145951944721742
0.7142853079295224 -0.264499 0.3981121657370065
0.5849882715455472 0.053981 0.8659399817273781
0.4527742840618905 -0.313813 1.394231887467634
0.7484160375160519 -0.423547 0.36149876760338323
0.7184024668438383 0.144892 0.4256863907211156
0.5329849365135839 0.034918000000000005 1.0640255035343829
0.7534155565034838 -0.555377 0.350666222016389
0.5900207541679277 -0.31943 0.8714473654669987
0.47227981934918034 0.139446 1.3936166662421476
0.41082373639244996 -0.326971 1.6556302096490019
0.570526676912589 -0.353693 0.9457021120692388
0.5480181234483463 -0.19245599999999996 1.0653429877219494
0.6202536957515564 -0.45662099999999994 0.7901909994136187
0.46776353487409084 -0.49772799999999995 1.3124598658460003
0.7334706381478877 -0.144536 0.36934182151917894
0.40189710646733745 -0.302934 1.588027771244902
0.5551402122430441 -0.241319 1.038214291564551
0.7615932115816798 -0.11158000000000001 0.31951677607553713
0.3684234987187835 -0.37124899999999994 1.6908552684880807
0.3722307635055692 -0.261897 1.7247137778888697
0.5773695697499688 -0.155433 0.953540609030783
0.6129091970667875 0.09005 0.8858679645414353
0.4340504829323944 -0.21592699999999998 1.4994562907791429
0.5045205146127603 -0.102884 1.2310294102996198
0.5957100656663774 -0.026305999999999996 0.8836799606402892
0.604746176890507 0.046808 0.7906802894852514
0.5396749092609753 -0.3928940000000001 1.0971230636504874
0.5202793803465283 0.144892 1.1305062232242733
0.4280541760919313 -0.17991000000000001 1.4883930693100131
0.5087508410205589 -0.578073 1.1563354188178179
0.6140227621980906 -0.41887300000000005 0.7800214928350133
0.4448683287487518 -0.278257 1.424346403827467
0.6739517299975981 -0.593449 0.6385831609780321
0.4386271058278706 -0.39477399999999996 1.448119800249768
0.4531801777925395 0.016560999999999992 1.426589510484157
0.4235597033428529 -0.148961 1.505512932472661
0.4868637744326036 -0.4863930000000001 1.2397052835242837
0.5832884402698308 -0.13261 0.8970913729263934
0.7064011356282276 0.128438 0.5175323026282506
0.5806959231076704 -0.590334 0.8822899346596607
0.5269884400747513 -0.324898 1.1115432904721083
0.6467505170449789 -0.391999 0.6892621518905026
0.43692516801670606 -0.38333799999999996 1.4885063489224004
0.4139808900370065 -0.18658799999999998 1.541999519935066
0.4118465463491329 -0.05804100000000001 1.6517342317496149
0.3670284346914707 0.129022 1.696169196635854
0.6322737093642036 -0.603843 0.7839330711021266
0.7060577511817158 -0.240815 0.4633554016083335
0.5248797428132991 0.04779800000000001 1.221180312672
0.7256972631434733 -0.541329 0.3299663945241514
0.4121643073087695 0.041451 1.6229763481527202
0.6694966119555406 -0.028885999999999995 0.6026201687049837
0.7702187294830218 -0.05310200000000001 0.25840500579407966
0.7651946300562662 -0.174431 0.3057986393955463
0.3659670281326488 -0.306711 1.70021219256918
0.7364922456348997 0.008446000000000009 0.3701350832631406
0.4148123905134965 -0.545202 1.6404370565100823
0.40306744685719637 -0.047405 1.5835698362552608
0.6884300227798078 -0.11745899999999998 0.530501052490491
0.4075938102134513 -0.289271 1.6679332977523282
0.4595731263136743 0.021600999999999995 1.3683344673444757
0.761783909267248 0.107605 0.3187903909210089
0.6294800895601267 0.070115 0.8227478995622688
0.5162108804344805 0.035641000000000006 1.2462063266186338
0.7327285517118167 -0.583032 0.4146731717386617
0.7006996794597777 -0.206264 0.4837647932803695
0.7204554890779803 -0.08211299999999999 0.3499327976465549
0.5741198374198725 -0.269935 0.965919140598894
0.5506852297998565 0.122355 1.0991534061415686
0.4364518517904754 0.003483000000000014 1.49030925428597
0.5657563376536316 0.075232 1.0654775752674852
0.6337554250220607 -0.516835 0.8064627506317885
0.5929749750131609 0.03171199999999999 0.8355178881649619
0.4337903421598229 -0.05579100000000001 1.4665434812397182
0.7062372761666648 -0.29289 0.4626715743057351
0.637978931358868 -0.485557 0.7226739345509835
0.6250733248854997 -0.315757 0.7379288756047717
0.4633270213548656 -0.369475 1.3879392431406872
0.5392226044842681 -0.552203 1.040265648246787
0.6651247849882591 -0.09384700000000001 0.619272862720312
0.6818355901643521 -0.26106 0.5556198573681164
0.40040697054016516 -0.019442000000000015 1.6953086360061376
0.5748605833528351 -0.608645 0.9879513647367972
0.45161232319749606 -0.12915299999999996 1.3986579040683276
0.4414335204028581 -0.60841 1.5048828914379098
0.6299489963122175 0.028629 0.6946804149947259
0.6437968897035469 0.065522 0.7682138812099288
0.5401806063308456 -0.39072700000000005 1.06129310680606
0.4299767639316337 -0.343928 1.5149734639270729
0.4587806263447549 -0.027733000000000008 1.3713531731597652
0.4718073550498356 -0.157922 1.3556368663021023
0.39917797347205564 -0.10571200000000003 1.6999899997184098
0.47028926975755037 -0.341396 1.3275156840004039
0.7680883595166332 -0.280697 0.294776155745742
0.5449592784021877 0.130983 1.0184141257286772
0.7453777269875305 -0.343549 0.3661486701972314
0.4258277125074701 0.136347 1.57345160080984
0.7404566545864213 -0.19959 0.27374650490104885
0.5981237552919865 -0.061429999999999985 0.8405822833549501
0.5384878098201876 -0.018469999999999986 1.101644835418023
0.41346887326404036 -0.103104 1.6455546382046342
0.4279986880720111 -0.292845 1.5225081381664531
0.7014096537991237 -0.354002 0.4810604352350155
0.5225312943027416 -0.40697399999999995 1.1285209717203546
0.5910339149740759 -0.003595999999999988 0.8675881420760967
0.386309976710031 -0.048101000000000005 1.6227240164441865
0.38982074909370196 -0.4289529999999999 1.716166157634712
0.47500268310027594 -0.599665 1.284885279467247
0.7226060443488026 -0.43973799999999996 0.4003214195569341
0.39458521471941843 -0.280494 1.709832378091551
0.6772993521548044 -0.41946700000000003 0.5389950984308945
0.49772084625928964 0.055426 1.1983496909115525
0.7706477996550195 -0.505895 0.27034944963996477
0.6943200030795825 -0.517898 0.4494852855493068
0.4904698563063438 0.085548 1.3522507588243593
0.4859926504582224 -0.553704 1.3693048507612975
0.7205587793271907 -0.17538699999999996 0.3742159318784538
0.7222614681047066 0.0066890000000000005 0.40163394239940375
0.5182502401236454 -0.249965 1.1787316136214063
0.5575071796660638 -0.048595 0.9952945834781908
0.4177264146038801 -0.07552700000000001 1.621334906275078
0.3812147173776577 0.005851999999999996 1.642132331371966
0.640129805417348 0.04170599999999999 0.7546346423933414
0.4882456986858292 -0.15432999999999997 1.2930216922026478
0.6672900555338497 0.030242000000000005 0.6622213630953472
0.7580928552626942 0.026114 0.33284995764034514
0.693941908733629 0.084186 0.4509254819475657
0.4085897041186426 -0.44454799999999994 1.664139845587136
0.6394661058396445 0.078672 0.658428862941842
0.6924010345167219 -0.152271 0.48147139098048974
0.6495794956267575 -0.34722 0.6784863103371093
0.4173609431308388 -0.506255 1.5044480081401614
0.6138879280156182 0.0005280000000000007 0.780535088729893
0.6364459217222693 -0.578972 0.6699330240975784
0.635066289889298 -0.248338 0.6998647459492435
0.7391017107113319 -0.46505799999999997 0.2789076116714381
0.4473951937953015 -0.569236 1.3900447643617428
0.6357040468027011 -0.495656 0.7894271955144458
0.49251862726447504 -0.370356 1.242842001466636
0.5856599032077683 0.124793 0.8633816744920559
0.400448614242473 0.080169 1.6951500112853086
0.5039250604547609 -0.034142000000000006 1.2332975503626937
0.7158781795427974 -0.20220300000000002 0.39204477016529515
0.6898539699320803 -0.48919599999999996 0.4664968196343154
0.7668701842712786 -0.12986200000000003 0.2789811314003475
0.6624447960630963 0.071337 0.5709009026570584
0.6700847459231608 0.115973 0.6597045123592304
0.5474078200813692 -0.06297900000000001 1.0337639799509593
0.4827690724045755 0.114356 1.381583758266937
0.6708368281798138 -0.07164999999999999 0.5975151609212292
0.6170814871550357 0.134228 0.8469291512130928
0.5804344446698205 -0.19591800000000004 0.9418662164673275
0.682234188109801 0.106785 0.4955212746504025
0.6389318476100364 0.133221 0.6604639020432098
0.738433830254662 -0.586103 0.38400159007503454
0.7277482154821346 -0.252299 0.3221541270233204
0.5030478867919093 -0.493811 1.286941037939148
0.625960342191171 0.113631 0.7098735681336454
0.3759846238628121 -0.4189780000000001 1.662054242194625
0.403901232658813 -0.235273 1.6819986678151095
0.5221982662424404 -0.36338899999999996 1.1636932163076859
0.5024373137973117 -0.30634 1.2389645152367024
0.6792906893466758 0.06101100000000001 0.5067333341860758
0.4736379004762823 -0.403494 1.3486641491529763
0.5434879796391363 0.004621999999999987 1.0486950154109478
0.733163928182267 -0.4808589999999999 0.3015251755242833
0.39016455842364733 -0.506787 1.6080415575284241
0.5861398214843647 -0.520434 0.8615536213068917
0.4317922634556055 0.038876999999999995 1.4494777718055416
0.39963148354718864 -0.558732 1.698262537819625
0.5714936805976929 0.034958 0.9173421290672519
0.7408176476649613 -0.387286 0.3694985478922939
0.5789813641811378 -0.100238 0.9134974248453107
0.4788003856107401 0.08714 1.2704194787067633
0.6357131868805576 -0.557846 0.7990054543050078
0.742987017351651 -0.306593 0.26410811866286876
0.493486964901294 -0.06392799999999998 1.2730572235280593
0.4441945196708346 0.144892 1.4217264344905252
0.5846467424016201 -0.551919 0.8672408978829578
0.7323427759754474 0.11596 0.4249562528470274
0.4511701511140289 -0.497553 1.4944368862974609
0.44214081622800555 -0.56309 1.5363405506899226
0.6125876995767159 -0.052335999999999994 0.8193914891808698
0.667944114419503 -0.20428000000000002 0.6085337756754036
0.7074837940607454 -0.44808800000000004 0.4579234721438459
