0.385238 0.775522 0.385633
0.385238 -0.38288 -0.323364
0.385238 -0.231825 0.405709
0.401721 0.64419 0.349008
0.401721 -0.396649 -0.499546
0.385238 -0.185872 0.185505
0.385238 -0.47446 -0.135334
0.401721 0.146739 0.164017
0.401721 0.086122 -0.020332
0.385238 0.502688 0.414406
0.385238 0.348544 0.099983
0.385238 0.170552 -0.240444
0.401721 0.103964 -0.384144
0.401721 0.396658 -0.404267
0.385238 0.373062 -0.511957
0.385238 -0.3009 -0.37451
0.401721 0.470061 -0.071119
0.401721 -0.172144 0.227662
0.385238 0.515008 -5.2e-05
0.385238 0.163693 -0.16355
0.394991 -0.468079 -0.531734
0.385238 0.118332 0.18541
0.401721 -0.461298 -0.468927
0.385238 0.293696 0.133998
0.401721 -0.185439 -0.012312
0.385238 -0.131196 0.093923
0.385238 -0.476278 -0.434081
0.385238 -0.195141 -0.065224
0.401721 0.466513 0.336491
0.385238 0.596597 -0.045061
0.385238 0.386866 0.215298
0.401721 0.598664 0.147284
0.401721 -0.167798 0.190753
0.385238 0.400691 0.315756
0.401721 -0.435471 0.030038
0.385238 0.236289 -0.219819
0.385238 0.390228 0.062815
0.385238 0.155424 0.035283
0.385238 0.010961 0.234382
0.385238 0.176713 0.208915
0.385238 0.250174 -0.060826
0.401721 0.085588 0.142466
0.401721 0.171907 -0.465746
0.401721 0.044119 0.476192
0.401721 -0.179079 -0.191652
0.401721 -0.206401 -0.290209
0.401721 0.253811 -0.460017
0.401721 0.486567 -0.135229
0.401721 -0.030625 -0.036206
0.401721 0.232252 -0.446313
0.385238 -0.295479 0.052902
0.401721 0.673558 0.058744
0.385238 0.664229 0.013517
0.385238 0.56693 -0.451654
0.385238 0.496114 0.06785
0.385238 0.154122 -0.016236
0.401721 0.348302 -0.151698
0.401721 0.141771 -0.174675
0.385238 0.458618 -0.02792
0.401721 -0.257472 -0.240922
0.385238 0.020903 0.054727
0.385238 -0.227259 0.19814
0.385238 0.068234 0.136066
0.401721 0.728058 0.183039
0.385238 0.134183 -0.479591
0.385238 0.012224 -0.023372
0.385238 0.008563 0.28035
0.385238 0.5437 0.16825
0.401721 0.408616 -0.438021
0.401721 0.28811 -0.02093
0.401721 0.675696 -0.251681
0.401721 0.173217 -0.514142
0.385238 0.405364 -0.322057
0.401721 0.119759 0.26818
0.385238 -0.452746 0.040459
0.401721 0.773113 -0.105722
0.385238 0.011515 0.356354
0.401721 0.428886 -0.151924
0.385238 0.067228 -0.309848
0.401721 0.547152 0.44004
0.385238 0.557805 -0.426509
0.401721 -0.088584 0.467205
0.401721 0.578411 0.221992
0.401721 -0.249813 -0.061547
0.385238 0.070688 -0.460622
0.401721 -0.453815 0.23272
0.401721 -0.496642 -0.20533
0.385238 0.45073 0.117121
0.385238 0.59186 0.187465
0.401721 -0.012074 -0.200091
0.401721 -0.305004 -0.320995
0.385238 0.006299 -0.142926
0.401721 0.106625 -0.359307
0.385238 0.459624 0.283408
0.401721 0.446731 -0.452789
0.401721 0.703094 0.203582
0.401721 0.289032 -0.513057
0.401721 -0.288753 0.364137
0.385238 -0.539295 -0.063828
0.401721 -0.486525 -0.304226
0.401721 -0.375097 0.353166
0.401721 0.618071 0.201034
0.385238 0.557341 -0.215247
0.401721 -0.48252 -0.343317
0.385238 0.657939 -0.250868
0.385238 -0.539203 0.201107
0.385238 0.684354 0.431224
0.385238 -0.253219 -0.387514
0.401721 0.262715 -0.351741
0.385238 0.521971 0.073273
0.401721 -0.202376 0.212653
0.401721 -0.411175 -0.193854
0.385238 0.551867 -0.030874
0.385238 0.378318 0.335293
0.401721 -0.397965 0.194979
0.385238 0.310179 0.32575
0.401721 0.593878 0.098813
0.401721 0.468777 -0.250055
0.401721 -0.126455 -0.308933
0.401721 0.153051 -0.284581
0.385238 -0.513899 0.277409
0.385238 -0.189359 -0.457005
0.385238 0.024094 -0.247043
0.385238 -0.092205 0.323223
0.401721 0.258882 -0.003409
0.385238 0.303462 0.471539
0.385238 -0.18414 0.136099
0.385238 -0.205921 0.079821
0.401721 0.351083 0.363056
0.401721 0.629807 -0.320093
0.385238 -0.203331 0.303882
0.385238 -0.519393 -0.332902
0.401721 -0.357527 0.202209
0.385238 0.426913 0.281498
0.385238 -0.242275 0.0739
0.385238 0.297697 -0.281929
0.401721 0.248221 -0.327305
0.401721 -0.219572 0.336252
0.385837 0.777815 -0.307014
0.401721 -0.20846 -0.171924
0.385238 -0.463297 0.406879
0.385238 0.401335 -0.025987
0.401721 0.117252 0.410968
0.385238 -0.435755 -0.362879
0.385238 0.666167 0.264159
0.385238 0.565983 -0.35663
0.385238 0.64933 -0.150591
0.401721 0.46659 0.368321
0.385238 0.090412 -0.41568
0.401721 0.010233 -0.344728
0.401721 0.000212 0.053282
0.385238 0.673589 0.196559
0.401721 -0.272524 -0.061999
0.401721 -0.322391 0.010421
0.401721 0.76915 -0.359954
0.401721 -0.033164 -0.00411
0.401721 0.567396 0.192537
0.387581 -0.540889 0.480104
0.401721 0.439939 0.406395
0.401721 -0.443129 0.297615
0.385238 0.501269 0.340516
0.385238 -0.098809 0.065439
0.385238 -0.281683 -0.014911
0.385238 0.502768 0.039786
0.401721 -0.267771 0.458552
0.401721 -0.319194 0.383279
0.401721 -0.14042 -0.014767
0.401721 0.015649 -0.1986
0.385238 -0.231477 -0.129076
0.385238 0.177172 -0.206164
0.401721 0.219071 -0.419703
0.401721 0.292621 -0.069911
0.401721 -0.17614 -0.428923
0.385238 0.419543 -0.518251
0.401721 -0.33225 -0.450018
0.401721 -0.161871 -0.477697
0.385238 -0.470565 -0.066287
0.401721 -0.357735 -0.484659
0.385238 0.65928 -0.351468
0.385238 0.262205 -0.154504
0.385238 -0.069248 0.136982
0.385238 0.391105 -0.199053
0.401721 0.499648 -0.098675
0.385238 -0.416899 0.1391
0.401721 0.323487 0.055569
0.385238 -0.438613 0.190905
0.401721 0.363452 -0.196535
0.385238 0.726363 0.390168
0.401721 -0.387938 0.236874
0.401721 0.038438 -0.37594
0.401721 0.192152 0.0908
0.401721 0.222543 -0.3159
0.385238 0.679489 0.460394
0.385238 0.063523 0.18263
0.385238 -0.492557 -0.060165
0.385238 0.728659 0.464012
0.385238 -0.141976 0.033233
0.401721 0.683158 -0.122501
0.401721 0.703747 -0.487527
0.401721 0.324081 0.105856
0.385238 0.751851 0.004638
0.401721 -0.107218 0.18891
0.385238 -0.35704 0.398496
0.401721 -0.373516 -0.010001
0.385238 0.329191 -0.159848
0.385238 -0.500506 -0.121384
0.385238 0.772378 -0.455373
0.401721 0.198407 0.234188
0.401721 -0.096554 -0.080417
0.401721 -0.331346 0.411733
0.385238 -0.004723 0.421832
0.401721 0.708061 -0.04788
0.401721 0.340138 -0.402642
0.385238 0.307575 -0.465883
0.385238 0.409592 0.158335
0.385238 -0.135114 -0.273335
0.385238 0.121653 0.461281
0.401721 0.423151 0.348145
0.385238 0.606929 -0.423484
0.401721 0.629697 0.430901
0.385238 -0.123199 -0.228824
0.385238 -0.283566 0.337673
0.385238 0.641745 0.251275
0.401721 0.37256 -0.444693
0.385238 -0.029054 0.20999
0.385238 0.055711 -0.07624
0.401721 -0.069789 -0.11784
0.385238 -0.042539 -0.087813
0.401721 0.115109 0.333788
0.385238 -0.093576 -0.316589
0.385238 0.534978 -0.22457
0.401721 0.551716 -0.255016
0.385238 -0.007588 -0.471413
0.401721 0.190233 -0.420883
0.401721 0.653206 -0.063623
0.385238 -0.323807 0.306443
0.385238 0.59909 0.332763
0.385238 -0.214179 -0.488249
0.401721 0.194052 0.338173
0.401721 -0.38102 0.259795
0.385238 0.086851 0.075212
0.385238 -0.426852 -0.091369
0.401721 0.370831 0.454645
0.385238 -0.054935 0.300668
0.385238 0.142598 -0.22928
0.385238 0.19952 0.213463
0.401721 0.443228 -0.049192
0.401721 0.013972 0.336356
0.385238 -0.343179 -0.238949
0.401721 -0.384901 0.465862
0.401721 0.507878 -0.315273
0.385238 0.640942 0.45086
0.385238 0.41592 -0.270187
0.385238 0.0548 -0.335143
0.401721 0.366982 -0.17301
0.401721 -0.424293 0.392081
0.401721 -0.425482 -0.213229
0.401721 0.660952 0.082216
0.385238 0.69566 0.288922
0.385238 -0.198894 0.346166
0.401721 -0.337363 0.34302
0.401721 0.524314 -0.12638
0.401721 -0.309882 0.329059
0.385238 -0.099945 0.153717
0.401721 -0.339589 0.447069
0.40134 0.777815 -0.165282
0.401721 0.753187 -0.137399
0.385238 0.727321 -0.256979
0.401721 -0.158527 -0.069267
0.385238 -0.133732 0.28844
0.401721 -0.417847 -0.112904
0.401721 -0.41107 0.460285
0.401721 -0.456993 0.451959
0.401721 -0.456391 -0.000166
0.401721 0.620951 0.353111
0.401721 0.462136 -0.357073
0.385238 -0.5253 0.402767
0.401721 -0.377724 -0.447704
0.385238 0.419843 0.416365
0.385238 0.637259 -0.36964
0.401721 0.17477 -0.115206
0.401721 0.103275 -0.202744
0.401721 0.284822 0.059863
0.401721 0.684115 -0.46932
0.385238 0.533339 0.144394
0.385238 -0.109143 -0.045648
0.401721 0.546166 -0.323566
0.385238 -0.096246 0.294005
0.385238 -0.148259 0.354337
0.385238 0.447197 -0.142045
0.401721 -0.252218 0.248218
0.385238 -0.521738 0.222866
0.401721 -0.056869 -0.290128
0.385238 0.500692 -0.206089
0.401721 -0.098673 -0.451988
0.385238 0.189949 -0.446394
0.401721 0.328359 0.356345
0.401721 -0.017215 -0.293508
0.401721 0.115712 -0.087661
0.385238 0.628339 -0.252677
0.401721 -0.230765 -0.050726
0.401721 0.087933 -0.185388
0.385238 0.336729 -0.138721
0.401721 0.133199 -0.007037
0.401721 0.156133 0.247864
0.385238 -0.004061 0.396474
0.401721 0.348074 0.47149
0.385238 0.503054 0.437529
0.401721 0.637588 0.298298
0.401721 -0.514613 0.30633
0.401721 0.158571 -0.144286
0.401721 -0.483356 0.069935
0.401721 0.425238 0.046998
0.401721 0.068434 -0.332729
0.385238 -0.206858 -0.029324
0.401721 -0.170806 -0.262806
0.401721 -0.152198 0.095331
0.385238 0.25323 0.353284
0.385238 0.378842 0.382501
0.401721 0.73765 -0.204729
0.385238 -0.094201 0.37911
0.385238 0.539793 -0.311123
0.401721 0.336411 0.314162
0.401721 -0.095387 -0.50837
0.401721 0.517227 0.162368
0.385238 0.248007 0.292326
0.385238 -0.200462 0.051829
0.401721 -0.418858 -0.295916
0.385238 0.732303 0.43759
0.401721 0.372499 -0.323107
0.385238 0.712631 -0.290088
0.385238 0.461425 0.435331
0.385238 0.703067 0.318086
0.401721 0.390284 -0.347979
0.385238 0.258962 0.017971
0.401721 0.606415 -0.086731
0.401721 0.545912 -0.508482
0.401721 0.052389 0.384183
0.401721 -0.245818 0.3268
0.401721 -0.096624 0.257068
0.385238 0.565562 -0.113542
0.398897 0.550475 -0.531734
0.385238 0.392878 -0.484496
0.401721 0.164461 -0.072264
0.385238 0.570133 -0.05929
0.401721 -0.448609 -0.321608
0.385238 -0.023585 0.443734
0.401721 0.194036 -0.245731
0.385238 -0.236695 -0.156923
0.385238 0.494877 0.106375
0.401721 -0.061024 -0.093223
0.401721 0.512716 -0.504835
0.401721 0.52247 0.278989
0.401721 -0.176153 0.313486
0.401721 -0.303148 -0.211005
0.401721 0.083624 -0.377599
0.385238 -0.242999 0.175478
0.401721 -0.341947 0.260339
0.401721 0.166506 -0.179359
0.385238 0.645672 0.074339
0.401721 -0.225953 -0.261728
0.401721 0.547432 0.022178
0.385238 0.143003 -0.042624
0.385238 -0.113107 -0.504962
0.385238 0.689811 0.010875
0.385238 0.037004 -0.086501
0.385238 0.231673 -0.273829
0.401721 0.618515 0.471827
0.385238 0.691754 -0.056775
0.385238 -0.210763 -0.251854
0.385238 0.244332 0.189236
0.385238 0.141286 -0.078274
0.385238 0.603289 0.3876
0.385238 -0.152686 -0.450912
0.401721 0.43634 0.331436
0.385238 0.181438 0.023903
0.385238 -0.054169 -0.183836
0.401721 -0.157077 0.068524
0.385238 -0.124364 0.386083
0.385238 0.6616 -0.391899
0.401721 -0.254322 -0.494905
0.385238 0.697832 0.133441
0.401721 0.680904 0.093784
0.401721 0.697935 -0.215689
0.401721 -0.270792 0.136425
0.401721 -0.073189 -0.058893
0.401721 0.39906 -0.376622
0.385238 0.483449 -0.255029
0.401721 -0.386124 -0.205467
0.401721 -0.326347 -0.514802
0.385238 0.109317 -0.068124
0.385238 0.631655 -0.49938
0.401721 0.256554 0.168355
0.385238 -0.3981 -0.061962
0.401721 -0.214233 -0.133772
0.401721 0.153373 -0.455487
0.385238 -0.32318 -0.476054
0.385238 0.024418 -0.515795
0.385238 0.080221 -0.32655
0.401721 -0.418841 -0.236717
0.385238 -0.155682 0.410505
0.385238 0.350205 -0.316813
0.385238 -0.367121 0.083767
0.385238 0.213653 -0.158701
0.385238 -0.114933 -0.353591
0.401721 -0.329457 -0.254939
0.401721 -0.224159 0.16863
0.401721 -0.196181 -0.152181
0.385238 -0.201922 -0.421937
0.385238 0.667708 0.346619
0.401721 -0.13129 0.140227
0.385238 0.277474 -0.134462
0.385238 -0.45382 -0.277536
0.401721 0.64968 0.369382
0.385238 0.040763 0.151899
0.385238 -0.095623 -0.390812
0.385238 -0.295049 0.275155
0.401721 0.464755 -0.439948
0.385238 0.146277 -0.430577
0.401721 0.598535 -0.447876
0.385238 -0.301218 -0.032567
0.385238 0.642279 0.100541
0.385238 0.294356 -0.346516
0.385238 -0.219361 -0.19072
0.401721 0.059536 -0.266021
0.385238 -0.429463 0.307018
0.385238 -0.194909 0.394805
0.401721 0.768465 -0.522203
0.385238 0.361239 -0.095069
0.385238 -0.422998 0.110542
0.401721 0.148645 -0.357224
0.401721 -0.018028 -0.072253
0.401721 0.486524 -0.465815
0.401721 0.087617 0.018022
0.385238 -0.113201 -0.145358
0.385238 0.613486 -0.383384
0.401721 -0.252674 -0.178275
0.385238 0.230231 -0.010732
0.385238 0.421208 0.002388
0.401721 -0.032673 0.087058
0.385238 -0.176683 -0.403131
0.385238 0.079395 0.278801
0.401721 -0.350791 0.359166
0.401721 0.278068 -0.111693
0.385238 0.156437 -0.266138
0.385238 0.348423 0.38314
0.385238 -0.136941 -0.173904
0.401721 -0.452145 -0.068886
0.401721 -0.512806 0.258863
0.401721 0.250612 0.305003
0.385238 -0.516595 0.076024
0.385238 0.768728 0.3084
0.401721 0.566325 0.26616
0.385238 0.495918 0.360754
0.385238 0.17109 0.079909
0.385238 0.269004 -0.333023
0.385238 -0.265831 -0.225456
0.385238 0.365504 -0.350372
0.385238 -0.137548 -0.5175
0.401721 -0.132641 0.226403
0.385238 -0.343558 -0.51879
0.401721 0.22114 0.313621
0.385238 0.479318 0.190199
0.385238 0.412612 0.384371
0.401721 -0.301472 -0.121809
0.385238 0.601192 -0.504635
0.401721 0.577488 0.248122
0.385238 0.381798 -0.154673
0.401721 -0.152715 -0.150118
0.385238 -0.045839 -0.005423
0.385238 -0.281554 -0.445848
0.385238 -0.191988 0.255512
0.401721 -0.117149 0.414446
0.385238 0.389752 0.183534
0.401721 0.534797 -0.372983
0.401721 0.225809 -0.476892
0.401721 -0.147284 -0.501428
0.385238 -0.318725 -0.199032
0.385238 0.568495 -0.181801
0.401721 0.029298 -0.157774
0.401721 0.328619 0.21175
0.385238 -0.092389 -0.47638
0.401721 -0.066992 -0.189466
0.385238 -0.299402 -0.457857
0.385238 -0.120962 0.24864
0.401721 0.079315 -0.209882
0.401721 0.53186 -0.169688
0.385238 -0.402485 -0.2325
0.401721 -0.344818 -0.334099
0.385238 -0.44284 -0.242836
0.401721 -0.292852 0.469333
0.401721 -0.441333 0.178454
0.401721 0.71158 0.286472
0.385238 -0.034611 0.053365
0.385238 -0.334962 -0.437768
0.385238 0.349793 -0.480625
0.385238 -0.427511 0.059735
0.401721 0.749334 0.161054
0.385238 0.241267 -0.137578
0.385238 0.143345 0.351015
0.385238 0.279244 -0.219213
0.401721 0.621951 -0.289301
0.385238 0.507316 -0.27216
0.385238 0.76115 0.190247
0.385238 -0.0209 0.174053
0.401721 0.595785 0.360096
0.401721 -0.339738 0.075218
0.401721 -0.502024 0.042768
0.401721 -0.015007 0.027702
0.385238 -0.453778 0.09934
0.385238 0.570007 -0.267346
0.385238 -0.504763 0.473263
0.385238 0.437708 -0.243929
0.397733 -0.206721 -0.531734
0.401721 0.566423 0.014151
0.401721 -0.054404 0.146053
0.385238 0.066819 -0.390737
0.385238 0.053448 -0.475194
0.385238 0.099054 -0.228934
0.401721 0.078537 -0.104544
0.385238 0.205133 -0.126854
0.401721 -0.149562 -0.346902
0.401721 -0.420265 -0.351471
0.401721 -0.440096 0.073015
0.385238 0.404489 0.430254
0.401721 -0.355316 -0.354221
0.401721 0.177664 -0.367681
0.401721 -0.446538 0.13197
0.385238 -0.226206 -0.338275
0.401721 -0.099524 0.447723
0.385238 0.721332 0.21644
0.401721 0.430129 0.463628
0.385238 -0.085271 0.020631
0.401721 0.674936 -0.002015
0.401721 -0.48648 -0.133938
0.385238 -0.011027 -0.356058
0.401721 0.012073 0.433739
0.401721 -0.10515 0.211217
0.385238 0.368589 0.132201
0.401721 -0.288113 0.416352
0.401721 0.313426 0.168516
0.401721 -0.130694 -0.032723
0.385238 -0.142844 -0.403591
0.385238 -0.325291 0.487777
0.385238 -0.496861 0.445731
0.385238 0.619425 0.228511
0.401721 0.575348 0.443972
0.401721 0.154225 0.069993
0.385238 0.724103 -0.458207
0.385238 0.601067 -0.210332
0.401721 0.060727 -0.513648
0.385238 0.770575 0.1619
0.401721 -0.409528 0.367671
0.385238 -0.51723 0.166913
0.401721 -0.260269 0.355366
0.385238 -0.066517 -0.467312
0.385238 0.328996 -0.267486
0.401721 0.555663 -0.393927
0.401721 0.394873 -0.114796
0.401721 0.302032 -0.036823
0.401721 0.506876 0.32752
0.385238 -0.44649 -0.381502
0.401721 0.396694 -0.182178
0.385238 -0.026049 0.239699
0.385238 -0.006278 0.304065
0.401721 -0.503531 -0.232973
0.385238 0.409158 0.293806
0.385238 0.146952 -0.119383
-0.367523 0.770093 -0.531696
-0.360924 0.777815 0.374216
-0.351039 0.018401 -0.126696
-0.367523 0.523212 -0.082603
-0.367303 0.281696 -0.531734
-0.351039 -0.188058 0.25156
-0.367523 -0.341483 -0.270537
-0.351039 0.235597 0.149678
-0.367523 -0.068617 -0.524973
-0.363654 0.777815 -0.232489
-0.367523 0.521291 0.228811
-0.351039 -0.356867 0.017503
-0.364425 0.777815 0.051206
-0.351039 0.286599 -0.250017
-0.352528 -0.439356 -0.531734
-0.367523 0.549949 -0.340259
-0.367523 0.001637 0.112515
-0.351039 0.075986 -0.349485
-0.351039 -0.016489 0.394579
-0.351039 0.347843 0.365337
-0.351039 -0.130081 -0.30154
-0.351039 -0.359031 0.385398
-0.351039 0.316977 -0.046194
-0.367523 -0.185504 -0.10438
-0.359318 0.511485 -0.531734
-0.367523 -0.483357 0.159782
-0.351039 0.156162 0.315451
-0.351039 0.710953 0.213263
-0.351039 0.595693 0.395965
-0.351039 0.451866 0.072298
-0.351039 -0.189986 0.065677
-0.367523 0.380194 -0.394208
-0.367523 0.128408 -0.001289
-0.367523 0.687755 -0.090591
-0.367523 0.616791 0.065056
-0.351039 0.713882 -0.382367
-0.367523 0.436468 -0.212359
-0.367523 -0.205532 0.40333
-0.351039 -0.325273 0.166682
-0.367523 0.21806 -0.39112
-0.351039 0.144793 -0.206058
-0.367523 0.374436 0.222614
-0.367523 -0.352266 -0.41709
-0.367523 -0.329767 -0.126963
-0.351039 0.632651 -0.221571
-0.367523 0.03131 0.255214
-0.367523 -0.073454 -0.029575
-0.367523 0.639922 -0.492952
-0.367523 -0.443536 0.28509
-0.367523 -0.223793 -0.393285
-0.367523 -0.470387 -0.283821
-0.367523 0.055011 -0.476106
-0.351039 -0.008232 -0.257674
-0.367523 -0.052299 -0.402619
-0.367523 0.473426 0.396511
-0.367523 -0.480583 0.405671
-0.367523 -0.229603 -0.221195
-0.367523 -0.47335 -0.413464
-0.367523 0.118364 0.167368
-0.367523 -0.102164 0.170678
-0.351039 0.269067 0.276376
-0.367523 -0.306533 -0.528807
-0.351039 0.329874 0.077803
-0.367523 -0.302174 0.28144
-0.367523 0.211056 -0.094095
-0.351039 0.097263 0.418127
-0.367523 -0.184207 -0.527341
-0.367523 -0.09637 -0.174295
-0.367523 -0.443905 -0.080503
-0.367523 0.402301 -0.513463
-0.367523 -0.468209 0.048749
-0.351039 0.244199 0.4025
-0.351039 0.680253 0.318568
-0.367523 -0.088255 0.289552
-0.367523 0.164606 -0.486943
-0.351039 0.423583 -0.042572
-0.367523 -0.252698 -0.017223
-0.367523 -0.410584 -0.190833
-0.351039 0.027727 -0.015174
-0.351039 0.488193 -0.420691
-0.351039 0.360254 -0.146284
-0.351039 0.613757 0.181848
-0.367523 0.227448 0.021173
-0.367523 0.535857 -0.196926
-0.367523 0.439841 0.297492
-0.367523 0.689425 0.435757
-0.351039 -0.142752 0.477433
-0.351039 0.699946 0.114965
-0.351039 0.460274 -0.305399
-0.351039 0.176372 -0.304666
-0.367523 0.525666 0.13117
-0.367523 0.525698 0.013571
-0.361821 0.777815 -0.120815
-0.351039 -0.23123 0.158138
-0.367523 -0.087403 0.077776
-0.351039 0.53898 0.321996
-0.351039 0.61935 -0.026245
-0.367523 0.658126 -0.310132
-0.351039 0.397586 0.45264
-0.351039 -0.115899 0.388954
-0.351039 0.120818 -0.103778
-0.351039 -0.284094 0.082684
-0.367523 -0.401388 0.118183
-0.351039 -0.537793 -0.070656
-0.351039 -0.401184 -0.341231
-0.367523 0.184961 0.230318
-0.367523 0.165794 0.090371
-0.351039 0.307254 -0.337823
-0.351039 0.607605 -0.410381
-0.367523 0.597285 -0.132825
-0.352261 0.777815 0.285909
-0.351039 -0.138694 -0.406951
-0.351039 0.693461 0.019455
-0.367523 0.378889 -0.279312
-0.367523 0.775059 -0.319391
-0.367523 0.226922 -0.182561
-0.367523 0.307847 -0.442092
-0.367523 0.610946 0.266519
-0.367523 0.390062 0.13808
-0.351039 -0.246649 -0.312291
-0.351039 0.069805 0.059477
-0.351039 -0.378886 0.232006
-0.351039 0.708967 -0.186644
-0.367523 -0.530715 -0.224424
-0.357762 0.777815 -0.449516
-0.367523 -0.379158 0.472475
-0.367523 0.067375 0.330025
-0.351039 0.061851 -0.206719
-0.366306 0.777815 -0.031146
-0.367523 -0.170601 -0.025082
-0.367523 -0.230806 0.326956
-0.351039 0.774721 0.142396
-0.351039 -0.242479 -0.475701
-0.351039 0.284066 -0.119158
-0.367523 -0.063692 0.455338
-0.367523 0.118371 -0.413643
-0.367523 0.459803 -0.137285
-0.367523 0.460471 0.17947
-0.367523 0.317164 0.435417
-0.351039 -0.282131 0.398441
-0.367523 0.535143 0.443837
-0.367523 0.317315 0.170257
-0.351039 0.554168 -0.468006
-0.367523 0.384169 0.02617
-0.351039 -0.030739 0.2133
-0.367523 -0.022117 -0.331033
-0.351039 0.10496 -0.531673
-0.367523 -0.015478 0.314523
-0.351039 -0.155972 -0.220188
-0.351039 -0.263912 -0.094661
-0.367523 -0.315415 -0.351743
-0.351039 0.091098 -0.275686
-0.351039 0.556168 -0.267026
-0.367523 -0.307986 -0.198377
-0.351039 0.348839 0.29084
-0.367523 -0.352794 -0.056535
-0.367523 -0.098676 -0.098294
-0.367523 0.042623 0.171736
-0.367523 0.102293 0.260599
-0.367523 0.018843 -0.40339
-0.367523 -0.262422 0.21978
-0.367523 0.165931 0.421168
-0.367523 -0.41927 0.353417
-0.351039 -0.505433 0.313698
-0.367523 0.708615 -0.479177
-0.367523 0.262622 0.08606
-0.351039 -0.078765 -0.255172
-0.351039 0.355146 -0.215205
-0.367523 -0.02033 -0.191678
-0.367523 0.045586 0.469051
-0.367523 -0.153067 0.12107
-0.367523 0.235546 -0.457405
-0.351039 -0.230162 -0.154734
-0.367523 -0.418613 -0.007029
-0.351039 -0.377353 0.301985
-0.367523 0.722334 -0.271528
-0.367523 -0.309765 0.465085
-0.351039 0.428514 -0.452574
-0.367523 0.456974 0.479212
-0.367523 -0.514354 -0.010387
-0.351039 0.2491 -0.041813
-0.351039 -0.430678 -0.461429
-0.367523 0.208865 -0.24633
-0.367523 -0.474294 -0.139395
-0.367523 0.216476 0.337363
-0.367523 0.239624 -0.315241
-0.367523 0.262562 0.212759
-0.367523 -0.153372 -0.469157
-0.354413 0.017774 -0.531734
-0.351039 -0.147023 0.331193
-0.351039 -0.519835 -0.326411
-0.367523 -0.018623 -0.075318
-0.367523 -0.029809 0.018993
-0.351039 0.289582 0.015923
-0.351039 -0.425563 0.182923
-0.351039 0.446871 -0.368294
-0.351039 0.1606 -0.368262
-0.367523 -0.470065 0.470255
-0.351039 -0.422767 0.429106
-0.351039 -0.392599 -0.114337
-0.367523 0.772059 0.217452
-0.351039 0.670868 -0.430986
-0.367523 0.302966 -0.183306
-0.367523 -0.088407 -0.350641
-0.367523 0.18356 -0.032185
-0.351039 -0.161999 0.182382
-0.367523 0.573849 -0.530223
-0.367523 0.218839 -0.53017
-0.367523 -0.40284 -0.258358
-0.351039 -0.177831 -0.354207
-0.351039 0.465005 0.003775
-0.351039 0.717493 -0.037721
-0.351039 -0.310791 0.340499
-0.351039 0.605191 0.325837
-0.351039 -0.06479 0.354153
-0.351039 0.657624 0.385414
-0.367523 0.624234 0.462504
-0.351039 -0.123658 0.0113
-0.351039 -0.473047 -0.210463
-0.367523 0.368461 -0.075579
-0.351039 -0.275343 -0.422443
-0.367523 0.06478 -0.085047
-0.367523 0.076197 -0.14949
-0.351039 0.280248 0.336457
-0.351039 -0.537919 0.449074
-0.351039 0.636949 0.12551
-0.367523 -0.488303 -0.499242
-0.367523 -0.280494 -0.254025
-0.367523 -0.19369 -0.269803
-0.351039 0.089 0.117192
-0.367523 0.039804 -0.302949
-0.351039 0.613377 -0.350315
-0.351039 0.521536 0.073749
-0.351039 0.042081 0.382872
-0.367523 0.418023 0.374722
-0.367523 -0.110627 0.234498
-0.367523 0.445235 0.238548
-0.351039 0.375132 -0.337674
-0.351039 -0.244201 0.038863
-0.367523 -0.457908 -0.356741
-0.367523 -0.094601 -0.44335
-0.351039 0.460991 -0.503002
-0.367523 -0.342092 0.071573
-0.351039 0.281677 -0.390271
-0.351039 0.20942 0.456408
-0.367523 0.711163 0.272275
-0.351039 0.211109 0.279688
-0.351039 -0.036729 0.152731
-0.367523 -0.016297 -0.457564
-0.367523 0.344911 -0.507526
-0.367523 -0.320035 0.226681
-0.367523 0.670145 0.169521
-0.351039 -0.474936 0.214253
-0.367523 0.504795 -0.247126
-0.351039 0.554019 -0.036942
-0.367523 0.12428 -0.32138
-0.351039 -0.16943 -0.164752
-0.364015 0.687066 -0.531734
-0.351039 0.538463 -0.394029
-0.367523 0.374647 -0.454014
-0.367523 0.730551 0.344351
-0.367523 -0.034366 -0.135538
-0.351039 0.189469 -0.144414
-0.351039 0.65306 0.233625
-0.367523 0.665554 -0.155512
-0.351039 0.386139 0.079479
-0.351039 -0.404208 0.064916
-0.351039 -0.005353 0.453549
-0.351039 0.114123 -0.470044
-0.351039 0.173096 0.368573
-0.351039 -0.131319 -0.523561
-0.367523 0.761417 -0.1795
-0.351039 -0.305408 -0.012452
-0.351039 0.467493 0.3441
-0.351039 0.466938 -0.076594
-0.351039 0.310273 0.234318
-0.367523 0.017601 0.058632
-0.367523 -0.362659 -0.217123
-0.351039 0.54535 -0.133313
-0.367523 0.765756 -0.381361
-0.351039 0.725311 0.063272
-0.367523 0.079059 -0.023492
-0.351039 0.570703 0.04205
-0.367523 0.293547 0.386218
-0.367523 -0.244874 0.440604
-0.351039 0.455841 0.126113
-0.367523 0.683918 -0.23385
-0.366899 -0.366217 -0.531734
-0.351039 0.590975 -0.082067
-0.351039 -0.518797 0.056233
-0.367523 -0.24902 0.276385
-0.351039 0.18485 0.166236
-0.351039 -0.193216 -0.437695
-0.351039 0.587715 -0.192817
-0.351039 0.165278 -0.436344
-0.351039 0.705842 -0.326133
-0.367523 0.569437 0.101399
-0.351039 -0.469315 0.354098
-0.351039 -0.214278 -0.04921
-0.367523 -0.226812 0.108527
-0.367523 0.412035 -0.15852
-0.367523 0.570499 0.205972
-0.367523 -0.303656 -0.47226
-0.367523 0.491531 0.292348
-0.351039 -0.285929 -0.149349
-0.367523 0.605101 -0.272015
-0.367523 0.486226 -0.182782
-0.367523 -0.511448 -0.374453
-0.351039 0.503024 -0.473517
-0.351039 -0.282951 0.137701
-0.351039 -0.132879 -0.055488
-0.351039 -0.409265 -0.41521
-0.351039 0.341076 0.128473
-0.351039 0.131902 -0.054238
-0.351039 -0.346569 0.119366
-0.367523 0.39256 0.315607
-0.351039 0.517013 -0.305641
-0.351039 -0.016494 0.266831
-0.367523 0.122232 0.37752
-0.367523 0.369884 0.413955
-0.351039 0.211573 0.1028
-0.351039 -0.066512 0.408098
-0.351039 0.091058 0.205971
-0.367523 0.494047 -0.366865
-0.351039 0.284936 0.136042
-0.351039 0.181011 0.028019
-0.367523 0.754582 0.099906
-0.351039 -0.161917 0.420395
-0.351039 0.507079 0.175463
-0.351039 0.360767 -0.023003
-0.351039 -0.313614 -0.081915
-0.351039 -0.530108 -0.468623
-0.363886 -0.257535 -0.531734
-0.351039 -0.098127 0.122749
-0.351039 0.744793 0.017472
-0.367523 0.327387 -0.103332
-0.351039 0.414769 0.184813
-0.367523 0.12285 -0.163719
-0.367523 0.423657 -0.104897
-0.351039 -0.141471 0.064684
-0.367523 0.045994 -0.249417
-0.367523 0.662014 -0.042182
-0.367523 -0.346684 0.42919
-0.351039 0.642113 0.027352
-0.351039 0.730749 -0.121928
-0.351039 -0.311222 -0.304292
-0.351039 -0.254821 -0.35953
-0.351039 0.677011 0.064401
-0.351039 -0.201539 0.017775
-0.367523 -0.466846 -0.01259
-0.351039 -0.299987 0.037873
-0.367523 -0.137016 -0.134136
-0.351039 0.438157 0.423518
-0.367523 0.135106 -0.270114
-0.367523 -0.067265 -0.211488
-0.351039 0.016364 0.211494
-0.367523 0.557885 0.3619
-0.367523 0.45829 -0.254681
-0.367523 0.735536 0.398325
-0.367523 -0.062561 -0.477831
-0.351039 -0.061289 0.252534
-0.351039 0.500106 0.470579
-0.367523 -0.17925 0.364454
-0.367523 0.111161 0.314016
-0.351039 0.648169 -0.265576
-0.351039 -0.364524 -0.31258
-0.367523 0.029292 -0.34823
-0.367523 -0.429619 0.240742
-0.351039 0.581475 0.455546
-0.367523 0.164046 -0.101771
-0.351039 0.144063 0.249459
-0.367523 0.280698 -0.479551
-0.351039 0.025567 0.30113
-0.367523 0.064915 -0.406867
-0.367523 0.307381 -0.29469
-0.367523 0.641649 -0.09256
-0.351039 -0.359002 -0.158459
-0.367523 0.323862 -0.39769
-0.351039 -0.185054 0.305662
-0.367523 0.671625 -0.38788
-0.367523 -0.133941 0.290239
-0.351039 -0.262585 0.357203
-0.351039 -0.519834 -0.121985
-0.367523 -0.51389 -0.270591
-0.367523 0.321324 0.326327
-0.367523 0.047015 0.112237
-0.351039 0.417256 -0.320823
-0.351039 0.218606 0.196525
-0.367523 0.244569 -0.134086
-0.367523 -0.397213 -0.065546
-0.351039 -0.479975 -0.457883
-0.367523 0.653116 0.283027
-0.351039 0.525558 0.402809
-0.351039 -0.516922 0.357433
-0.351039 0.502091 -0.118977
-0.367523 0.061585 0.018356
-0.351039 0.147235 0.197672
-0.351039 0.577681 0.155199
-0.351039 -0.278233 -0.050112
-0.367523 0.748097 -0.084102
-0.351039 -0.483448 -0.095849
-0.367523 0.147749 -0.528336
-0.367523 0.339291 0.037546
-0.367523 0.056475 0.424857
-0.351039 0.40765 -0.249618
-0.351039 -0.515293 0.1957
-0.351039 0.571116 0.256059
-0.351039 -0.515998 0.1348
-0.351039 0.086005 0.476247
-0.367523 -0.355541 0.194416
-0.351039 -0.151226 0.227081
-0.367523 -0.066251 -0.294252
-0.367523 0.025453 -0.187794
-0.367523 -0.024213 0.076665
-0.367523 -0.014054 -0.501574
-0.367523 -0.139887 -0.261992
-0.367523 0.496487 -0.048007
-0.351039 0.113729 -0.373442
-0.351039 0.105738 0.034661
-0.367523 0.360592 0.176072
-0.367523 -0.44161 -0.235871
-0.367523 0.269135 0.434239
-0.351039 -0.414922 -0.296837
-0.367523 0.009413 0.359236
-0.367523 0.185046 -0.207588
-0.367523 0.736876 -0.215563
-0.367523 0.581907 -0.308727
-0.351039 0.517767 0.35996
-0.367523 -0.11096 -0.488955
-0.367523 0.20366 -0.339502
-0.367523 0.210981 0.062797
-0.367523 -0.223796 0.200351
-0.351039 -0.274153 0.181664
-0.367523 -0.205792 -0.325799
-0.367523 -0.358321 -0.355675
-0.351039 0.27654 -0.075004
-0.351039 0.151542 0.138964
-0.367523 -0.199348 0.44588
-0.351039 -0.322148 -0.390832
-0.351039 0.575715 -0.370887
-0.367523 0.381468 0.268518
-0.351039 0.064788 -0.516948
-0.367523 -0.411758 -0.502682
-0.367523 -0.452019 0.088219
-0.351039 0.340473 -0.255229
-0.351039 -0.377748 -0.019599
-0.367523 -0.061148 -0.076027
-0.367523 0.42587 0.0051
-0.351039 -0.34186 0.2787
-0.367523 -0.267007 -0.187625
-0.367523 0.247476 -0.356777
-0.367523 0.619678 -0.170674
-0.351039 -0.519842 -0.174993
-0.351039 0.491145 0.102803
-0.351039 0.356072 0.457367
-0.351039 0.634663 -0.53092
-0.351039 -0.093242 -0.388614
-0.351039 0.744274 -0.349777
-0.351039 0.260453 -0.200816
-0.367523 -0.125892 0.443196
-0.367523 -0.365802 -0.460816
-0.367523 0.314239 -0.143357
-0.367523 -0.106691 -0.224363
-0.351039 -0.436783 -0.133011
-0.367523 0.111276 0.086383
-0.367523 -0.32232 0.395694
-0.367523 0.313655 0.276554
-0.351039 -0.136666 -0.350814
-0.367523 -0.032332 -0.026751
-0.351039 0.239175 -0.268864
-0.367523 0.026437 -0.443845
-0.367523 0.615215 0.363734
-0.351039 0.266252 -0.435803
-0.351039 0.174888 -0.262279
-0.351039 -0.23537 -0.273009
-0.367523 -0.281206 -0.329507
-0.367523 0.026803 -0.070259
-0.351039 0.201789 0.411086
-0.351039 -0.3845 -0.382967
-0.367523 -0.055478 0.050026
-0.351039 -0.433504 0.473457
-0.351039 0.484982 0.038686
-0.367523 -0.448565 -0.177834
-0.367523 0.39677 -0.20653
-0.367523 0.571864 -0.418023
-0.351039 0.413442 -0.409299
-0.367523 -0.269074 0.315293
-0.367523 -0.509912 0.472274
-0.351039 -0.425513 -0.373129
-0.351039 -0.461447 -0.048808
-0.367523 -0.502793 -0.061438
-0.351039 -0.052707 -0.35658
-0.351039 0.078167 0.165056
-0.367523 0.665384 0.469039
-0.351039 -0.273637 0.46524
-0.367523 0.121232 0.468516
-0.367523 0.659361 -0.194674
-0.367523 0.202728 -0.435208
-0.351039 0.275649 -0.31173
-0.367523 -0.372386 0.337649
-0.367523 0.078077 0.383623
-0.367523 -0.237888 -0.119611
-0.367523 0.260269 0.046619
-0.351039 -0.363374 0.155108
-0.367523 0.302808 0.472205
-0.367523 -0.44514 -0.316168
-0.351039 -0.403784 -0.155623
-0.351039 0.016975 -0.222624
-0.351039 -0.067972 0.181379
-0.367523 0.347963 -0.360996
-0.351039 -0.330949 -0.495405
-0.367523 0.000875 0.179287
-0.355573 0.777815 -0.282001
-0.367523 0.612772 0.227246
-0.367523 -0.195579 0.157472
-0.351039 0.099698 -0.237369
-0.367523 0.242507 0.300106
-0.351039 0.535693 0.282896
-0.367523 0.336317 -0.469057
-0.367523 0.13801 0.28492
-0.367523 0.352092 -0.31069
-0.363208 0.777815 0.424554
-0.367523 0.757926 0.316423
-0.351039 0.419109 0.339107
-0.367523 -0.460386 0.128147
-0.351039 -0.511668 -0.42498
-0.351039 0.416614 0.055032
-0.367523 -0.225063 0.245527
-0.351039 0.295338 0.054534
-0.367523 0.252166 0.368077
-0.367523 0.565945 -0.233096
-0.351039 0.544287 -0.510936
-0.367523 0.474941 0.444712
-0.367523 0.677155 -0.349392
-0.351039 0.703824 0.383067
-0.367523 0.705849 -0.151672
-0.367523 0.489589 -0.283765
-0.367523 0.32776 -0.011431
-0.367523 0.590674 -0.48257
-0.367523 0.685624 0.352997
-0.351039 0.605904 0.014335
-0.367523 -0.210418 0.281955
-0.367523 -0.194506 -0.205622
-0.367523 0.417535 0.094156
-0.351039 0.012933 -0.479864
-0.367523 -0.312847 0.11159
-0.351039 -0.231427 -0.436192
-0.351039 -0.430695 0.317116
-0.367523 -0.06101 0.319887
-0.367523 -0.417478 0.3951
-0.351039 0.003998 -0.293777
-0.367523 0.014935 0.016709
-0.367523 -0.115517 0.344533
-0.351039 0.090894 -0.31394
-0.351039 0.018778 0.142095
-0.367523 -0.104575 0.044097
-0.367523 0.455686 -0.43212
-0.367523 0.539955 0.166144
-0.367523 -0.232562 -0.081559
-0.351039 -0.320191 -0.166702
-0.367523 0.662617 0.000308
-0.367523 0.775126 0.179864
-0.367523 0.277215 -0.015637
-0.351039 0.059094 0.235838
-0.351039 0.74077 0.158586
-0.351039 0.592782 -0.444929
-0.351039 0.615664 0.427797
-0.351039 -0.477211 0.287563
-0.351039 -0.397375 0.264559
-0.367523 0.737531 -0.504128
-0.367523 0.38051 0.372898
-0.351039 0.426083 0.266918
-0.351039 -0.010628 -0.387674
-0.367523 0.483193 0.25606
-0.367523 0.369228 -0.114183
-0.367523 0.13919 0.344452
-0.351039 -0.195212 0.119017
-0.351039 0.500891 -0.008538
-0.351039 0.586277 0.289882
-0.367523 -0.320741 -0.43654
-0.351039 0.701918 0.160066
-0.351039 0.144306 0.032354
-0.351039 0.648294 0.196978
-0.351039 0.535441 0.199018
-0.367523 0.754498 -0.416461
-0.367523 0.237139 -0.494166
-0.367523 -0.137722 0.160259
-0.367523 -0.000759 -0.160575
-0.367523 -0.065984 0.116245
-0.367523 0.69032 0.238677
-0.351039 -0.03594 -0.281923
-0.351039 0.625844 -0.30488
-0.367523 0.062335 0.274634
-0.367523 0.178809 0.28462
-0.367523 0.17959 -0.068673
-0.367523 -0.335687 0.361564
-0.351039 -0.281931 0.255888
-0.351039 -0.155012 0.029972
-0.367523 0.448081 -0.335569
-0.367523 -0.432645 0.041324
-0.351039 -0.394089 -0.2246
-0.351039 0.603072 0.112631
-0.367523 -0.317829 -0.243117
-0.351039 -0.273924 0.01276
-0.351039 -0.105584 -0.031507
-0.367523 0.240958 -0.073765
-0.351039 0.746057 0.268688
-0.367523 0.249947 0.119903
-0.367523 0.692005 -0.297104
-0.367277 -0.540889 0.398021
-0.367523 -0.045149 0.380068
-0.351039 0.657743 0.430573
-0.367523 -0.039557 0.425294
-0.351039 0.46828 -0.209332
-0.367523 -0.268614 -0.494048
-0.351039 0.08078 -0.45665
-0.367523 0.425514 0.154753
-0.367523 0.526854 -0.162168
-0.351039 -0.442477 -0.268429
-0.351039 -0.128162 -0.172283
-0.351039 -0.506472 0.020469
-0.351039 -0.192281 -0.397625
-0.351039 0.33782 -0.183849
-0.351039 0.210169 -0.005522
-0.351039 0.287675 0.193253
-0.351039 0.666606 -0.475205
-0.351039 -0.278402 -0.386767
-0.351039 -0.062705 0.019086
-0.351039 0.555534 0.002715
-0.367523 -0.336748 -0.01752
-0.367523 -0.476698 -0.242403
-0.367523 -0.09748 0.421664
-0.367523 0.244165 0.464925
-0.351039 -0.202707 -0.237654
-0.367523 -0.059532 -0.16069
-0.351039 0.411468 -0.371179
-0.367523 0.378439 -0.176105
-0.367523 -0.174696 -0.07061
-0.367523 -0.156628 -0.318212
-0.367523 -0.474762 0.320119
-0.351039 -0.411429 -0.037481
-0.351039 -0.370992 -0.260171
-0.367523 0.668173 0.127003
-0.367523 -0.355105 -0.102337
-0.351039 0.313407 0.357648
-0.367523 0.610696 0.150863
-0.367523 0.622638 -0.380009
-0.367523 -0.223006 0.061628
-0.367523 -0.515967 0.087196
-0.367523 0.773366 0.005353
-0.367523 0.632224 -0.130844
-0.351039 0.583966 -0.017684
-0.367523 0.575925 -0.164307
-0.351039 -0.448222 0.396665
-0.351039 0.2487 -0.522703
-0.351039 -0.389517 0.407967
-0.367523 0.453778 -0.048541
-0.367523 0.503937 0.425299
-0.367523 0.017196 0.400895
-0.367523 -0.298945 -0.10888
-0.351039 -0.49047 -0.345145
-0.351039 -0.322251 0.30764
-0.351039 0.465085 0.21526
-0.351039 -0.102633 -0.323566
-0.367523 0.101322 -0.054014
-0.367523 0.513185 -0.337916
-0.351039 0.364691 -0.484273
-0.36527 -0.222891 -0.531734
-0.367523 0.358338 0.321003
-0.367523 0.642257 -0.42058
-0.351039 0.138865 -0.137909
-0.367523 -0.212125 -0.018981
-0.367523 0.530478 -0.449135
-0.351039 0.662319 -0.12555
-0.351039 0.044886 -0.374009
-0.367523 -0.40386 -0.44792
-0.367523 0.310451 0.120431
-0.367523 0.108198 -0.13087
-0.351039 -0.391524 0.174376
-0.367523 0.132248 0.426443
-0.367523 0.284814 0.301723
-0.351039 0.08472 0.354276
-0.351039 -0.396209 -0.528984
-0.351039 -0.170426 0.453351
-0.351039 -0.038916 -0.523484
-0.351039 0.162434 -0.011351
-0.351039 -0.196331 0.340232
-0.351039 -0.317045 -0.048202
-0.367523 -0.200939 -0.134481
-0.367523 -0.061098 0.210104
-0.367523 0.680799 0.201612
-0.367523 0.196662 -0.476231
-0.367523 -0.365246 0.26075
-0.367523 0.134621 -0.448866
-0.351039 -0.529257 0.28394
-0.351039 0.711617 -0.244091
-0.367523 0.566327 0.397855
-0.367523 0.243779 -0.011228
-0.367523 -0.436023 -0.427443
-0.367523 0.622367 -0.055507
-0.351039 0.414794 -0.075106
-0.351039 0.094757 0.001353
-0.351039 -0.459168 0.180521
-0.367523 0.351739 0.101109
-0.367523 0.568074 -0.063769
-0.367523 0.389734 -0.027458
-0.367523 -0.273993 -0.451702
-0.367523 0.362858 0.061704
-0.351039 0.134995 -0.240825
-0.367523 0.479298 0.143441
-0.351039 0.499643 0.331812
-0.367523 0.427758 -0.481684
-0.367523 0.756774 -0.146185
-0.367523 0.189243 -0.373105
-0.367523 0.450917 -0.530234
-0.351039 0.661531 -0.071456
-0.367523 -0.518492 0.427555
-0.351039 -0.027568 -0.230541
-0.351039 -0.408433 0.020043
-0.351039 0.182112 0.064079
-0.351039 -0.540523 -0.259334
-0.367523 0.144915 -0.393657
-0.351039 0.09073 0.293649
-0.351039 -0.008083 -0.42992
-0.366235 -0.481773 -0.531734
-0.351039 -0.134768 0.261482
-0.367523 0.176214 0.340045
-0.367523 -0.420503 -0.107812
-0.367523 0.160212 0.45372
-0.351039 0.035143 0.086197
-0.351039 -0.220743 -0.194028
-0.367523 0.281741 -0.35061
-0.351039 0.446333 0.387936
-0.367523 -0.033406 0.342025
-0.367523 -0.084195 0.374866
-0.367523 0.456715 0.036467
-0.351039 0.294102 -0.210219
-0.367523 0.542904 0.253573
-0.367523 0.40482 -0.437115
-0.367523 -0.339945 -0.1918
-0.351039 0.360554 0.010869
-0.367523 0.608837 -0.509654
-0.367523 -0.095711 0.008295
-0.351039 -0.376124 -0.43471
-0.367523 0.034835 0.330548
-0.367523 -0.034679 0.243653
-0.351039 -0.045933 -0.316219
-0.351039 0.68517 0.282793
-0.367523 0.641612 -0.353649
-0.351039 -0.226658 0.385036
-0.351039 -0.464221 -0.386079
-0.367523 0.227078 0.256762
-0.367523 -0.505565 -0.203977
-0.367523 -0.129943 -0.433414
-0.367523 -0.13715 -0.013085
-0.367523 0.51604 -0.419669
-0.367523 0.728767 -0.012251
-0.351039 0.519348 -0.270874
-0.367523 0.008345 -0.096825
-0.367523 0.498968 -0.212514
-0.367523 -0.399452 0.318882
-0.351039 -0.072929 -0.421253
-0.351039 0.369041 -0.419651
-0.367523 0.162852 -0.237252
-0.351039 0.322711 0.408228
-0.367523 -0.057428 -0.445979
-0.367523 0.482889 0.076372
-0.367523 -0.306408 0.197494
-0.351039 -0.091358 0.455607
-0.351039 -0.427101 0.128388
-0.351039 0.315996 -0.371188
-0.351039 0.173295 -0.17224
-0.351039 0.774553 0.343767
-0.351039 -0.076784 0.146806
-0.351039 0.406261 -0.282924
-0.351039 0.473848 -0.345374
-0.367523 0.257666 -0.173377
-0.367523 0.083827 -0.491882
-0.351039 -0.014422 -0.003786
-0.351039 0.396619 -0.109649
-0.351039 -0.057429 0.090162
-0.367523 -0.445703 0.448885
-0.351039 0.445506 -0.186466
-0.367523 0.390329 -0.309186
-0.351039 -0.38297 0.362901
-0.351039 0.385003 0.483507
-0.351039 0.516853 0.04084
-0.351039 0.145641 -0.295986
-0.351039 0.456232 -0.106606
-0.351039 0.749236 -0.039718
-0.367523 0.741572 0.208428
-0.367523 -0.207297 -0.170407
-0.367523 0.564116 0.311744
-0.367523 0.721887 0.032004
-0.367523 -0.129091 -0.08923
-0.367523 -0.340845 -0.329202
-0.367523 0.252677 0.330145
-0.367523 0.070932 0.086517
-0.367523 0.752563 -0.29685
-0.351039 0.018856 -0.323325
-0.351039 0.04108 -0.419526
-0.351039 -0.230289 0.004623
-0.367523 -0.029904 0.464686
-0.367523 -0.527496 -0.401668
-0.367523 -0.2498 -0.413911
-0.351039 0.13502 -0.34605
-0.351039 0.212543 -0.036982
-0.367523 0.487142 -0.51343
-0.36404 0.777815 0.456063
-0.351039 -0.491424 -0.029533
-0.367523 -0.161368 0.254505
-0.367523 0.039176 -0.5033
-0.351039 -0.165689 -0.254847
-0.351039 0.497957 0.386001
-0.351039 0.350221 -0.3936
-0.351039 0.214927 0.382654
-0.367523 0.447953 -0.01705
-0.367523 0.442553 0.355323
-0.351039 0.497608 -0.1499
-0.367523 0.261587 -0.407564
-0.367523 -0.135017 0.090325
-0.367523 0.32031 -0.238127
-0.367523 0.061197 -0.054099
-0.367523 -0.367365 0.041765
-0.351039 -0.247338 -0.043101
-0.367523 -0.380632 -0.503529
-0.351039 -0.27327 -0.213275
-0.351039 0.356027 0.241485
-0.367523 0.578993 0.014736
-0.351039 -0.211846 -0.103598
-0.367523 0.125325 0.136449
-0.351039 0.284325 0.100936
-0.367523 -0.1084 -0.410093
-0.367523 0.60676 -0.217423
-0.367523 -0.036158 -0.255302
-0.367523 0.266832 -0.287088
-0.367523 0.65173 -0.453704
-0.367523 -0.030007 0.187192
-0.351039 0.171752 -0.518073
-0.351039 -0.221813 0.423728
-0.351039 -0.341271 0.335659
-0.351039 0.10366 -0.435939
-0.367523 -0.129678 -0.198275
-0.367523 -0.325258 0.031664
-0.351039 -0.315154 -0.273741
-0.351039 0.713175 -0.06819
-0.367523 0.215301 -0.147119
-0.367523 -0.395471 -0.314038
-0.367523 0.485395 -0.314231
-0.367523 -0.110205 -0.284892
-0.367523 0.721867 0.088935
-0.351039 -0.12527 0.210707
-0.351039 0.330683 0.211433
-0.367523 0.005916 0.279706
-0.351039 0.508044 0.262938
-0.367523 -0.452287 -0.491162
-0.351039 -0.22553 -0.350943
-0.367523 -0.257726 0.390451
-0.367523 0.697239 -0.432002
-0.351039 0.735298 -0.318366
-0.367523 -0.196667 0.090389
-0.351039 0.495407 0.217783
-0.367523 0.430295 0.447803
-0.351039 0.294468 0.448088
-0.367523 -0.458784 0.249094
-0.367523 -0.490773 0.367789
-0.351039 0.089626 -0.400775
-0.367523 0.766812 -0.06026
-0.351039 -0.238702 0.081628
-0.367523 -0.028614 0.113904
-0.367523 0.389555 -0.138241
-0.367523 -0.493748 0.066636
-0.351039 0.055972 -0.326821
-0.351039 0.548622 0.422441
-0.367523 -0.008497 0.225305
-0.351039 0.764368 0.400467
-0.351039 0.348483 -0.285703
-0.351039 0.548428 -0.081577
-0.367523 0.299979 -0.065748
-0.367523 -0.339125 0.143428
-0.367523 -0.162709 0.39524
-0.351039 -0.223255 0.353603
-0.367523 -0.436355 -0.050297
-0.351039 0.17824 0.259497
-0.351039 -0.254401 0.417362
-0.367523 0.188129 0.388688
-0.351039 -0.38956 0.449641
-0.367523 -0.193022 -0.468048
-0.351039 0.685562 -0.033542
-0.351039 0.716233 0.414311
-0.367523 0.692792 0.044497
-0.351039 0.436172 -0.284781
-0.367523 -0.271786 -0.301089
-0.351039 -0.330826 -0.465471
-0.367523 0.713821 0.138099
-0.367523 -0.38799 0.005742
-0.351039 -0.329108 0.006413
-0.367523 -0.255063 -0.156025
-0.367523 0.022396 -0.039481
-0.367523 0.00232 -0.360971
-0.351039 -0.357917 -0.128649
-0.367523 0.533178 -0.226627
-0.367523 -0.498569 -0.156653
-0.367523 -0.10811 -0.127065
-0.367523 0.623701 -0.248794
-0.351039 0.234965 0.068959
-0.367523 -0.456917 -0.115308
-0.351039 -0.04364 -0.183551
-0.367523 0.122628 -0.512169
-0.367523 0.275647 0.239383
-0.351039 0.388669 -0.061068
-0.351039 0.738534 -0.188764
-0.351039 -0.050149 -0.009749
-0.351039 0.426336 0.123695
-0.351039 0.548434 0.225585
-0.367523 0.29445 -0.09692
-0.351039 0.095838 0.236923
-0.351039 0.343985 -0.077307
-0.367523 -0.489695 0.194663
-0.367523 -0.223731 -0.491445
-0.367523 -0.445577 0.336541
-0.351039 -0.413081 0.096719
-0.351039 0.599299 -0.157201
-0.351039 0.381589 -0.369827
-0.351039 0.293433 -0.422391
-0.351039 -0.070267 -0.098656
-0.351039 0.604701 -0.109588
-0.367523 -0.310208 0.422524
-0.351039 0.204954 -0.117703
-0.367523 0.163982 0.17884
-0.351039 0.054234 0.14796
-0.351039 0.243834 -0.390949
-0.367523 -0.516876 -0.097918
-0.367523 -0.515325 0.219943
-0.351039 -0.171505 0.279694
-0.367523 0.179111 0.116402
-0.351039 0.544149 0.466243
-0.351039 0.186898 0.475044
-0.351039 0.195592 0.325289
-0.367523 0.715866 -0.528577
-0.367523 -0.382927 -0.090985
-0.351039 0.462162 -0.473851
-0.367523 0.097723 0.451268
-0.367523 0.243788 -0.102775
-0.351039 -0.204779 0.227708
-0.367523 -0.110722 -0.372229
-0.367523 0.476358 -0.2319
-0.351039 0.283307 0.407854
-0.367523 -0.115461 0.312652
-0.367523 0.566095 -0.20406
-0.367523 0.516113 -0.493518
-0.351039 -0.413724 0.2229
-0.367523 -0.083016 -0.499784
-0.351039 0.224062 -0.3519
-0.367523 0.587563 0.372498
-0.367523 0.144345 -0.074599
-0.367523 -0.095153 0.2614
-0.367523 0.309078 -0.522368
-0.351039 -0.126228 0.181011
-0.367523 -0.036367 0.279755
-0.351039 0.369503 0.346258
-0.351039 0.667865 -0.511262
-0.351039 -0.096493 -0.202984
-0.351039 0.630512 0.395272
-0.367523 0.425228 0.403692
-0.351039 0.606312 0.043836
-0.351039 -0.304558 0.488155
-0.351039 0.335043 -0.327074
-0.351039 0.66637 -0.287926
-0.367523 0.656872 0.315412
-0.351039 0.698771 -0.271533
-0.367523 -0.169794 0.325176
-0.351039 0.635377 -0.18819
-0.351039 0.053055 -0.283515
-0.351039 0.520732 0.102448
-0.351039 -0.119205 -0.250841
-0.351039 0.433862 0.031025
-0.351039 0.407036 0.297112
-0.367523 0.141442 0.226121
-0.351039 -0.448081 0.224349
-0.351039 0.659808 -0.333544
-0.351039 0.658367 0.105696
-0.351039 -0.347511 -0.243736
-0.367523 0.110781 0.348204
-0.367523 -0.351652 -0.506305
-0.351039 0.034427 0.417124
-0.367523 0.046785 0.06319
-0.367523 -0.255116 0.112141
-0.367523 -0.280238 0.421653
-0.351039 0.055667 0.35779
-0.367523 0.439552 0.2106
-0.367523 0.340656 -0.420738
-0.367523 0.264437 -0.505572
-0.367523 -0.166872 0.205121
-0.351039 0.10447 -0.030977
-0.351039 0.20807 -0.210135
-0.367523 -0.533979 0.114036
-0.367523 0.379783 -0.530764
-0.367523 0.216544 0.434423
-0.367523 -0.368182 0.127532
-0.351039 0.682567 -0.197018
-0.351039 0.444258 -0.236363
-0.367523 -0.438005 0.163504
-0.367523 0.133028 -0.483246
-0.351039 0.332588 -0.446316
-0.351039 -0.119612 -0.467628
-0.351039 0.195111 0.139859
-0.367523 0.566149 0.135313
-0.351039 -0.476719 0.027408
-0.351039 -0.155164 -0.384008
-0.351039 0.634745 0.079317
-0.351039 0.763117 -0.202643
-0.351039 0.265996 0.457963
-0.367523 0.376228 0.444401
-0.367523 0.711763 -0.407828
-0.367523 0.60739 -0.320783
-0.367523 -0.134314 0.375394
-0.367523 0.361934 0.139843
-0.367523 0.218481 -0.278557
-0.351039 -0.03499 -0.438224
-0.351039 0.715893 -0.293863
-0.351039 -0.455212 0.007016
-0.367523 0.476065 -0.017093
-0.351039 -0.417296 -0.240348
-0.351039 -0.051866 -0.121103
-0.367523 0.169436 0.206991
-0.351039 -0.085486 0.335278
-0.367523 0.150432 -0.041236
-0.351039 0.482168 -0.253774
-0.367523 0.574331 -0.116801
-0.367523 0.65801 -0.223273
-0.367523 0.084253 -0.204115
-0.367523 0.070338 -0.263109
-0.351039 -0.090689 -0.465553
-0.367523 0.534446 0.055303
-0.351039 0.462782 -0.159601
-0.367523 0.754842 0.24801
-0.367523 0.111149 -0.345953
-0.367523 0.45513 0.274207
-0.351039 0.250285 0.255825
-0.351039 -0.081658 -0.157101
-0.351039 0.073864 -0.105534
-0.351039 -0.012848 0.057378
-0.367523 0.736878 -0.382157
-0.367523 0.684542 -0.122897
-0.351039 0.628385 0.484493
-0.351039 0.406053 -0.180033
-0.367523 0.436219 -0.387916
-0.351039 -0.320887 0.090793
-0.367523 0.07012 -0.305862
-0.351039 0.312544 0.148494
-0.367523 -0.471332 0.431792
-0.367523 0.641719 0.052962
-0.351039 0.543734 0.11788
-0.351039 -0.43753 0.063024
-0.367523 0.024166 -0.148524
-0.351039 0.319729 -0.27619
-0.351039 -0.255501 -0.254021
-0.367523 0.3041 0.090804
-0.351039 0.049094 -0.445998
-0.367523 0.660803 0.408625
-0.367523 0.695061 0.407945
-0.351039 -0.206243 0.186929
-0.351039 -0.011431 0.344262
-0.367523 0.212156 0.225958
-0.351039 0.203812 -0.302452
-0.351039 -0.287935 -0.350486
-0.367523 0.081401 -0.531402
-0.351039 -0.436067 0.367618
-0.351039 0.707049 -0.008928
-0.351039 -0.045328 -0.044446
-0.367523 0.076782 0.143162
-0.351039 0.064508 0.199045
-0.351039 -0.201427 0.370216
-0.351039 -0.090011 -0.078199
-0.351039 -0.452623 -0.156331
-0.351039 -0.076426 -0.331533
-0.367523 0.525216 0.339407
-0.367523 0.472667 0.322866
-0.367523 0.578494 0.433909
-0.351039 -0.171721 -0.480948
-0.351039 0.380211 0.394758
-0.351039 0.19452 0.210751
-0.367523 -0.401096 0.427124
-0.367523 -0.259125 0.054648
-0.351039 -0.032998 -0.091598
-0.367523 0.558615 -0.386051
-0.351039 0.259727 -0.245861
-0.351039 0.122788 -0.185334
-0.351039 0.583287 0.188551
-0.351039 -0.036557 -0.378437
-0.351039 0.645085 -0.012311
-0.361672 0.421517 -0.531734
-0.351039 -0.158495 -0.132217
-0.367523 0.764132 -0.480317
-0.367523 -0.284547 0.162867
-0.351039 -0.412248 0.297329
-0.351039 0.08107 0.263629
-0.351039 0.221299 -0.47975
-0.351039 -0.245853 0.250584
-0.366687 0.777815 0.120605
-0.351039 0.502586 -0.076941
-0.367523 -0.295527 0.016979
-0.367523 0.728432 -0.452628
-0.367523 -0.41229 0.475748
-0.367523 0.319119 0.055421
-0.367523 -0.520862 -0.449427
-0.367523 -0.37256 0.436671
-0.367523 0.197074 0.363321
-0.367523 -0.148601 -0.291122
-0.367523 -0.381544 0.388272
-0.351039 0.735669 -0.148605
-0.367523 -0.223801 -0.255212
-0.351039 -0.018293 0.132452
-0.367523 0.717685 0.233392
-0.351039 0.078269 -0.068665
-0.367523 -0.523331 -0.347333
-0.367523 -0.289646 0.056385
-0.367523 0.428747 -0.424916
-0.367523 -0.170331 0.141639
-0.367523 0.414074 -0.341772
-0.351039 -0.183804 -0.328039
-0.367523 -0.439387 0.416024
