-0.490751 0.025687 -0.252747
0.048487 -0.327045 -0.252747
0.854642 0.393008 -0.242028
0.189258 -0.002925 -0.252747
0.103707 0.233711 -0.242028
0.46075 0.004655 -0.252747
-0.647353 -0.301674 -0.242028
-0.146563 -0.357135 -0.242028
-0.244224 -0.357775 -0.252747
-0.024469 0.439828 -0.242028
0.236392 0.398741 -0.242028
0.565679 -0.278455 -0.242028
-0.105864 0.302577 -0.252747
-0.644841 -0.103294 -0.252747
0.384993 0.027606 -0.252747
0.62508 0.354203 -0.252747
0.370568 0.265855 -0.242028
0.40635 -0.111406 -0.252747
-0.107813 0.028211 -0.242028
-0.300948 0.354807 -0.242028
-0.420513 -0.352883 -0.242028
0.049369 0.134342 -0.252747
-0.36177 -0.180995 -0.252747
-0.164007 0.276289 -0.242028
-0.593523 0.428554 -0.242028
-0.046903 0.195633 -0.242028
-0.629774 0.420464 -0.242028
-0.693391 0.035789 -0.252747
0.775822 0.26533 -0.252747
-0.649954 0.133936 -0.242028
-0.068331 0.345137 -0.252747
0.68628 -0.236773 -0.252747
0.317277 0.317019 -0.242028
0.485298 0.331597 -0.242028
0.622766 -0.126103 -0.242028
-0.785487 0.017304 -0.242028
0.009807 0.169666 -0.242028
0.18717 -0.257892 -0.252747
-0.210909 -0.114691 -0.252747
-0.646838 0.311675 -0.242028
-0.323177 0.235694 -0.242028
-0.626857 0.264984 -0.242028
0.176746 -0.323981 -0.242028
0.301445 0.258512 -0.252747
0.453707 -0.344845 -0.252747
0.356671 -0.046458 -0.242028
0.84525 0.260578 -0.242028
-0.612092 -0.150738 -0.252747
0.687414 0.426182 -0.242028
-0.500997 0.153557 -0.252747
0.053327 -0.261758 -0.242028
-0.484289 -0.068116 -0.252747
0.284634 -0.306723 -0.242028
-0.132043 -0.130458 -0.252747
0.723873 0.126616 -0.242028
-0.591877 0.262114 -0.252747
0.089821 0.095792 -0.242028
0.699923 0.066594 -0.242028
0.587943 -0.022512 -0.242028
-0.477083 0.243747 -0.252747
-0.690887 0.259726 -0.242028
-0.363667 0.097757 -0.242028
0.161438 0.255419 -0.242028
-0.391964 0.151571 -0.242028
-0.717015 0.390954 -0.242028
0.741521 0.225746 -0.242028
-0.302734 -0.145354 -0.252747
-0.681693 -0.045938 -0.252747
-0.701773 0.189259 -0.252747
0.318745 -0.307872 -0.242028
0.467287 -0.14314 -0.242028
0.818448 -0.277511 -0.242028
0.49493 0.05541 -0.252747
0.605039 0.306318 -0.252747
0.442056 0.338586 -0.252747
-0.76074 -0.029426 -0.242028
0.040365 -0.208344 -0.252747
-0.440662 0.385079 -0.242028
-0.219281 0.122615 -0.252747
0.536698 -0.266225 -0.242028
-0.727296 0.013273 -0.242028
-0.662695 0.345706 -0.252747
-0.106211 0.182819 -0.242028
0.397139 -0.324392 -0.242028
-0.365049 0.200042 -0.242028
-0.418626 0.09756 -0.252747
0.228638 -0.331435 -0.252747
-0.035023 0.127631 -0.252747
-0.518923 0.347135 -0.252747
-0.332791 -0.012511 -0.252747
0.24535 0.147141 -0.242028
-0.362266 -0.255157 -0.242028
0.189355 -0.131143 -0.252747
0.407281 0.079673 -0.242028
0.442986 0.287745 -0.242028
0.588723 0.039141 -0.252747
-0.796561 0.161277 -0.252747
-0.668135 0.21713 -0.252747
-0.183951 0.348198 -0.242028
0.332925 0.407875 -0.242028
-0.062316 0.234272 -0.252747
-0.309338 0.293291 -0.252747
0.840013 -0.223959 -0.252747
-0.306152 0.20629 -0.242028
0.810306 -0.034231 -0.252747
0.626345 0.402472 -0.242028
-0.014142 0.238228 -0.242028
0.101956 0.439684 -0.252747
-0.218979 -0.266629 -0.242028
0.656617 0.174976 -0.242028
-0.754548 0.169792 -0.252747
-0.693765 0.103428 -0.242028
0.309036 -0.096131 -0.242028
0.388925 0.393475 -0.242028
0.528903 0.08424 -0.242028
0.072892 0.196395 -0.252747
0.510135 -0.127098 -0.242028
-0.687809 -0.150277 -0.242028
-0.167014 0.394288 -0.242028
0.705492 -0.265512 -0.252747
0.509761 0.362352 -0.242028
-0.462089 -0.320267 -0.242028
0.1795 0.13124 -0.252747
-0.278011 0.231706 -0.242028
-0.38837 -0.101753 -0.242028
0.153976 0.080833 -0.252747
-0.359095 -0.330256 -0.242028
0.605204 -0.266894 -0.242028
-0.213584 0.329114 -0.242028
0.416933 -0.241376 -0.252747
-0.488533 -0.006467 -0.252747
0.567336 0.411324 -0.242028
0.095862 -0.241221 -0.252747
0.312203 0.188626 -0.252747
-0.619084 0.137626 -0.252747
0.78108 0.014535 -0.252747
-0.473169 -0.239128 -0.242028
0.435026 0.370728 -0.242028
-0.278783 -0.241465 -0.252747
-0.32597 0.101112 -0.242028
-0.345452 0.406503 -0.252747
0.67739 0.101355 -0.252747
-0.413405 0.442165 -0.246705
0.196916 0.300385 -0.252747
-0.035859 0.074654 -0.252747
0.740431 0.100836 -0.242028
0.083918 0.004823 -0.242028
0.372695 0.357563 -0.252747
-0.330973 0.340836 -0.242028
0.539811 -0.219166 -0.252747
-0.754565 -0.34405 -0.242028
0.324112 -0.174573 -0.252747
0.354618 -0.270555 -0.242028
0.164436 0.221748 -0.242028
-0.158303 0.220716 -0.252747
0.853192 0.06738 -0.242028
-0.261277 0.106051 -0.252747
0.53037 0.282968 -0.242028
0.266465 -0.211112 -0.242028
-0.622175 0.076772 -0.252747
0.463714 0.221241 -0.242028
0.011342 -0.145284 -0.252747
0.825524 0.208108 -0.252747
0.717146 0.203783 -0.242028
0.644056 -0.267106 -0.242028
-0.247167 0.320409 -0.242028
-0.000173 -0.042281 -0.252747
0.274188 0.41738 -0.252747
0.109827 0.345169 -0.252747
-0.464624 -0.196295 -0.242028
-0.699642 0.321893 -0.242028
0.772171 0.065325 -0.242028
0.322911 -0.221427 -0.252747
0.257088 -0.038816 -0.242028
-0.745415 0.284953 -0.242028
-0.505408 -0.247914 -0.242028
-0.062845 0.277864 -0.252747
-0.082831 -0.216073 -0.252747
-0.08408 -0.022729 -0.252747
0.822924 0.313144 -0.252747
-0.470959 0.312003 -0.252747
-0.526121 -0.320808 -0.252747
0.140767 -0.159525 -0.242028
0.661837 0.019503 -0.242028
0.187292 -0.07959 -0.252747
0.235693 0.317525 -0.242028
0.25065 -0.087369 -0.242028
0.764054 -0.31493 -0.242028
-0.501518 0.275016 -0.242028
0.798268 0.218982 -0.242028
0.021484 0.094503 -0.252747
-0.355024 0.380465 -0.242028
-0.243144 -0.131847 -0.252747
-0.165658 0.313472 -0.252747
-0.335467 0.143275 -0.252747
-0.262776 -0.281166 -0.252747
0.507841 -0.316521 -0.252747
-0.598518 -0.035761 -0.252747
-0.619933 -0.203609 -0.252747
0.679872 -0.190062 -0.252747
0.353592 -0.162791 -0.252747
-0.441651 0.130603 -0.242028
-0.684674 -0.0925 -0.252747
0.194584 -0.175155 -0.252747
0.816094 0.115784 -0.242028
-0.531349 -0.179242 -0.252747
-0.63029 0.03005 -0.252747
-0.325169 0.044431 -0.242028
0.333725 0.049658 -0.242028
-0.022976 -0.098653 -0.252747
0.644503 -0.176278 -0.242028
0.339063 -0.345529 -0.242028
0.000798 0.050228 -0.242028
0.466619 -0.061449 -0.252747
-0.57334 -0.201493 -0.252747
-0.068007 0.130367 -0.252747
0.363779 0.307479 -0.252747
0.243453 -0.015472 -0.252747
-0.677913 0.079324 -0.252747
0.517507 0.126934 -0.242028
0.133379 -0.056977 -0.252747
-0.340374 -0.305861 -0.252747
0.420817 0.230758 -0.252747
-0.005808 -0.261138 -0.252747
0.749309 -0.285067 -0.242028
-0.073691 0.315149 -0.252747
-0.221495 -0.054843 -0.242028
0.778542 -0.107806 -0.252747
0.332287 -0.129056 -0.252747
0.217805 0.361048 -0.252747
-0.034735 -0.155491 -0.242028
0.460547 0.261659 -0.242028
-0.182455 0.17012 -0.242028
-0.074685 0.032033 -0.252747
-0.197536 0.07682 -0.252747
0.788816 -0.33351 -0.242028
-0.714164 0.138239 -0.252747
0.69797 0.382293 -0.242028
0.84274 -0.029527 -0.252747
0.756945 -0.240712 -0.242028
-0.291236 -0.352082 -0.252747
-0.675323 0.413268 -0.252747
0.560819 0.252359 -0.242028
0.232863 0.068253 -0.242028
-0.077346 -0.094909 -0.252747
-0.386143 -0.312322 -0.252747
0.55487 -0.165456 -0.252747
0.679031 -0.113926 -0.242028
-0.059552 -0.281483 -0.252747
-0.57296 0.334275 -0.242028
-0.573551 0.290498 -0.242028
-0.662251 -0.230335 -0.252747
0.125872 0.396038 -0.242028
0.279506 -0.340794 -0.242028
-0.506124 -0.11748 -0.252747
-0.354848 -0.06284 -0.242028
0.393145 0.0003 -0.252747
0.440194 0.178854 -0.252747
-0.166377 -0.155947 -0.242028
0.289946 0.393117 -0.242028
0.299937 -0.277102 -0.242028
0.575901 0.346636 -0.252747
0.006579 0.347388 -0.242028
-0.389047 -0.136269 -0.242028
-0.536518 -0.076521 -0.252747
0.72978 -0.141293 -0.252747
0.476866 0.409333 -0.252747
-0.244875 -0.318062 -0.242028
0.615026 -0.327906 -0.252747
-0.718782 -0.208042 -0.252747
0.211895 -0.199683 -0.242028
0.59061 -0.219694 -0.242028
0.564641 -0.354643 -0.252747
0.118641 -0.181963 -0.252747
0.0344 0.402271 -0.242028
0.080824 -0.201948 -0.252747
0.417609 0.282674 -0.252747
-0.146978 -0.017696 -0.252747
0.792507 -0.22986 -0.242028
-0.581088 -0.10536 -0.242028
0.819526 -0.17216 -0.252747
-0.196758 -0.205825 -0.252747
0.692951 0.24482 -0.252747
-0.143547 0.422809 -0.252747
0.105547 0.286417 -0.252747
-0.740226 -0.278912 -0.242028
-0.80094 0.205431 -0.252747
-0.545252 0.097282 -0.252747
0.435918 0.066687 -0.242028
-0.164325 -0.287258 -0.252747
-0.616416 -0.313713 -0.242028
-0.033732 -0.051418 -0.242028
0.610017 0.024672 -0.242028
-0.465644 0.154672 -0.242028
0.169045 -0.189091 -0.252747
-0.048419 -0.195374 -0.242028
0.137424 -0.288978 -0.242028
-0.760037 -0.1544 -0.252747
-0.312919 -0.23392 -0.252747
-0.046181 0.005362 -0.252747
-0.716971 0.351251 -0.242028
0.800008 -0.083038 -0.252747
0.26805 0.301639 -0.252747
0.841121 -0.190127 -0.252747
0.051474 -0.044369 -0.252747
-0.390471 -0.264583 -0.242028
-0.383424 0.017747 -0.252747
0.640364 0.121451 -0.252747
-0.757244 -0.191852 -0.242028
0.124364 -0.237368 -0.242028
-0.087207 0.239501 -0.242028
0.125915 0.116739 -0.242028
0.210206 0.203738 -0.242028
0.503455 0.08649 -0.252747
0.047583 0.19466 -0.242028
0.533838 0.184615 -0.252747
0.853775 -0.054717 -0.252747
0.28762 -0.039073 -0.252747
0.743733 0.408114 -0.242028
-0.80088 0.423988 -0.252747
-0.294286 0.181535 -0.252747
0.474798 -0.32723 -0.252747
-0.622769 -0.178467 -0.242028
-0.253215 0.216481 -0.252747
0.492009 -0.036837 -0.252747
-0.513015 -0.029922 -0.252747
0.285232 -0.13653 -0.242028
0.477359 -0.222789 -0.252747
0.833442 -0.339275 -0.252747
-0.440372 0.197574 -0.252747
-0.592983 -0.290274 -0.242028
-0.276326 -0.112072 -0.252747
0.247424 -0.263513 -0.252747
-0.626934 0.367537 -0.242028
-0.189168 0.382633 -0.252747
0.173776 0.392186 -0.242028
-0.302648 0.441826 -0.242028
-0.485215 0.173554 -0.242028
0.717271 0.295888 -0.242028
0.142502 0.360193 -0.242028
-0.138602 0.054613 -0.252747
0.762189 0.201324 -0.252747
0.62143 0.215544 -0.242028
-0.083587 0.064544 -0.242028
0.682926 0.32975 -0.242028
-0.170856 -0.258395 -0.242028
0.079909 -0.149001 -0.242028
-0.470404 0.057484 -0.242028
-0.754793 0.117223 -0.242028
-0.476695 -0.105746 -0.252747
-0.200475 0.223583 -0.252747
0.212366 -0.058254 -0.242028
-0.575937 0.361095 -0.242028
0.24042 -0.172585 -0.252747
0.476484 -0.172081 -0.242028
-0.781592 -0.318657 -0.242028
0.23917 -0.293079 -0.252747
-0.286463 0.307496 -0.252747
-0.81378 0.342974 -0.252747
0.766608 0.163503 -0.252747
0.74158 -0.061278 -0.242028
-0.605862 -0.008748 -0.252747
0.681556 -0.330559 -0.242028
-0.278458 0.123882 -0.242028
0.806718 0.023219 -0.252747
0.151972 -0.338773 -0.242028
0.46136 0.034 -0.242028
-0.802185 -0.039491 -0.252747
-0.123422 -0.306041 -0.242028
0.803111 0.257654 -0.252747
0.285607 0.35431 -0.252747
0.160488 0.054889 -0.252747
-0.639295 0.159322 -0.252747
0.763413 0.034597 -0.252747
-0.014619 0.171034 -0.252747
0.631275 -0.21631 -0.242028
-0.261823 -0.035223 -0.242028
-0.412973 0.171916 -0.252747
0.753824 -0.19148 -0.242028
0.750724 0.253206 -0.252747
0.742261 -0.090722 -0.252747
0.840387 -0.311519 -0.252747
0.649895 0.269433 -0.242028
-0.758216 0.223069 -0.242028
0.025618 -0.063173 -0.252747
-0.444959 -0.116414 -0.242028
-0.332279 -0.085674 -0.242028
0.828161 0.065084 -0.252747
-0.501555 0.207228 -0.242028
0.246319 0.017793 -0.242028
-0.644746 0.188309 -0.242028
0.107795 -0.105315 -0.242028
-0.281627 -0.265547 -0.242028
-0.799361 -0.073635 -0.242028
-0.73844 -0.252578 -0.252747
0.849053 0.110938 -0.242028
0.453268 0.089124 -0.242028
-0.30169 -0.121127 -0.242028
0.340872 -0.070629 -0.252747
0.817216 0.16627 -0.252747
0.203321 -0.327128 -0.242028
-0.184245 0.146229 -0.252747
-0.377685 0.37254 -0.252747
0.533139 -0.141375 -0.242028
-0.205362 -0.01485 -0.242028
-0.18715 0.282288 -0.252747
-0.730522 0.226342 -0.252747
0.326825 0.21561 -0.242028
0.168849 -0.238875 -0.252747
-0.533809 0.323992 -0.252747
0.415559 0.191176 -0.242028
-0.808576 0.001794 -0.252747
-0.251438 0.419859 -0.242028
0.061027 0.242888 -0.252747
-0.528732 -0.23637 -0.242028
-0.196474 -0.156344 -0.242028
-0.518182 0.120737 -0.252747
0.408282 0.020022 -0.242028
0.136424 0.179773 -0.252747
0.623839 0.32549 -0.242028
-0.803071 -0.210728 -0.252747
-0.099575 -0.047355 -0.252747
0.44664 0.398447 -0.252747
0.155792 -0.212913 -0.252747
0.689189 -0.011081 -0.252747
-0.315261 0.267409 -0.242028
0.648231 -0.09827 -0.242028
0.789852 0.169163 -0.242028
-0.333255 -0.267079 -0.242028
0.039493 0.006914 -0.252747
0.076264 0.124265 -0.252747
0.02212 -0.167125 -0.242028
-0.131867 0.402431 -0.242028
0.390062 0.142504 -0.242028
0.155433 0.336699 -0.242028
0.349511 0.360739 -0.242028
-0.554652 -0.181334 -0.242028
-0.279919 -0.16124 -0.252747
-0.04203 0.389431 -0.242028
-0.55513 -0.325012 -0.252747
0.11318 0.053339 -0.252747
-0.588476 0.316807 -0.252747
-0.432081 0.278394 -0.242028
-0.68823 -0.245121 -0.242028
-0.071984 0.180656 -0.242028
0.413727 0.129532 -0.242028
-0.518392 0.060573 -0.242028
0.220546 0.274299 -0.252747
0.845855 -0.164311 -0.242028
0.364922 0.210265 -0.252747
0.686032 0.218075 -0.252747
-0.072959 -0.154531 -0.242028
-0.561404 -0.22415 -0.242028
0.489914 0.374381 -0.252747
0.774845 0.348676 -0.242028
0.726931 0.019731 -0.242028
0.42954 -0.096553 -0.252747
0.724281 -0.282783 -0.252747
0.558159 -0.096347 -0.252747
-0.655845 -0.201475 -0.252747
-0.778528 -0.182897 -0.252747
0.563672 0.032965 -0.242028
0.795822 -0.181348 -0.252747
0.671336 0.399995 -0.242028
0.589819 0.132805 -0.242028
-0.800658 -0.1342 -0.242028
-0.031818 -0.249733 -0.252747
-0.286807 -0.328454 -0.242028
0.757164 0.08512 -0.252747
0.278077 0.125769 -0.242028
-0.00969 -0.291502 -0.242028
0.347185 -0.233488 -0.242028
-0.665399 0.279867 -0.242028
0.007866 -0.011055 -0.252747
-0.083078 -0.069451 -0.242028
-0.104632 0.084918 -0.252747
0.631472 0.155376 -0.242028
-0.211295 0.09529 -0.242028
0.540415 0.139333 -0.252747
-0.107595 -0.155525 -0.252747
0.772052 -0.138238 -0.242028
0.158208 -0.143999 -0.252747
0.502549 -0.266602 -0.242028
-0.392912 0.06143 -0.252747
-0.001795 0.434939 -0.252747
-0.116868 -0.069217 -0.252747
0.316737 0.442165 -0.2429
-0.537247 0.20437 -0.252747
-0.764574 0.341168 -0.242028
-0.164137 0.110103 -0.242028
0.21248 -0.251927 -0.242028
0.742788 0.320899 -0.242028
0.120209 0.003034 -0.242028
-0.677111 0.193827 -0.252747
0.278057 0.237285 -0.252747
-0.435736 0.03122 -0.242028
0.20585 -0.352004 -0.252747
0.466337 0.285365 -0.252747
-0.236115 0.171432 -0.252747
0.243494 0.192244 -0.252747
-0.390355 0.106564 -0.252747
-0.222467 0.02976 -0.252747
-0.487325 -0.178393 -0.252747
0.076022 -0.285441 -0.252747
0.159855 -0.054233 -0.242028
-0.012105 0.117928 -0.252747
0.46023 -0.199287 -0.252747
0.157121 -0.028824 -0.242028
0.108185 -0.319725 -0.242028
-0.589046 0.113677 -0.252747
-0.237325 0.009238 -0.252747
0.757457 0.367513 -0.252747
-0.722205 0.307139 -0.242028
-0.135532 -0.232155 -0.242028
-0.713657 0.256636 -0.252747
-0.52794 0.040426 -0.252747
-0.39424 -0.012912 -0.242028
-0.343516 0.114832 -0.252747
0.587249 0.163162 -0.252747
0.397055 0.271325 -0.242028
-0.275221 0.411812 -0.242028
0.189924 0.091186 -0.252747
0.666976 -0.035305 -0.242028
-0.247264 -0.094861 -0.242028
0.378063 -0.307473 -0.252747
0.243318 0.257406 -0.242028
0.026559 0.039745 -0.252747
-0.28531 0.282882 -0.252747
-0.506671 -0.051179 -0.242028
0.418934 -0.278751 -0.252747
0.08158 0.026868 -0.252747
-0.352392 0.330723 -0.252747
0.558085 0.188607 -0.252747
0.456603 -0.116751 -0.242028
-0.541961 0.251969 -0.252747
-0.062986 -0.131162 -0.252747
-0.534978 -0.007114 -0.252747
-0.568482 0.056391 -0.242028
0.578391 -0.15846 -0.252747
0.40193 0.246397 -0.252747
0.433401 0.037837 -0.242028
-0.626376 0.30353 -0.252747
0.205331 0.406689 -0.252747
-0.703691 -0.045553 -0.242028
-0.434198 -0.308016 -0.252747
0.397269 -0.138154 -0.242028
0.708363 -0.31951 -0.242028
-0.787686 -0.249543 -0.242028
0.676772 -0.138256 -0.242028
-0.182132 -0.23565 -0.252747
0.160625 0.442165 -0.252674
0.262741 -0.182474 -0.252747
-0.655016 0.368878 -0.252747
-0.701996 0.164116 -0.242028
0.528406 -0.061029 -0.242028
-0.267251 0.021966 -0.252747
0.359981 -0.335829 -0.252747
0.768142 -0.006114 -0.252747
-0.680533 0.235162 -0.242028
-0.338491 -0.18818 -0.252747
0.090608 -0.08626 -0.252747
0.067356 0.431923 -0.252747
0.674669 -0.351991 -0.252747
-0.249165 0.254409 -0.252747
-0.053819 0.112544 -0.242028
0.078742 -0.349686 -0.252747
-0.467894 0.421104 -0.252747
-0.237336 -0.162696 -0.252747
0.362765 0.081372 -0.242028
0.801358 0.406695 -0.252747
0.412274 0.335345 -0.252747
0.161584 0.18368 -0.252747
0.831594 -0.08543 -0.242028
0.512543 0.249742 -0.242028
0.335079 0.429763 -0.252747
0.727544 -0.354969 -0.252747
0.709224 0.22501 -0.252747
0.674269 0.162362 -0.252747
-0.25208 -0.208154 -0.242028
0.845732 0.424552 -0.242028
-0.18702 -0.336862 -0.242028
-0.673105 0.048961 -0.242028
0.536535 -0.014953 -0.252747
0.00541 -0.237788 -0.252747
-0.558268 0.079292 -0.242028
-0.061804 -0.043754 -0.252747
-0.124573 0.277163 -0.242028
0.207133 -0.108577 -0.242028
-0.500008 0.247988 -0.242028
-0.795589 0.05274 -0.252747
-0.108692 0.20569 -0.252747
0.848102 0.006583 -0.242028
-0.739597 -0.114825 -0.252747
0.79022 0.078277 -0.252747
-0.042069 -0.345133 -0.242028
-0.524334 -0.101811 -0.252747
-0.128254 -0.188235 -0.242028
0.261834 -0.2992 -0.242028
0.561519 -0.048655 -0.252747
-0.775724 -0.137653 -0.242028
0.610162 0.270113 -0.242028
-0.425939 -0.004968 -0.252747
-0.108361 0.242767 -0.252747
0.112627 0.153518 -0.252747
0.277347 0.062426 -0.242028
-0.170574 0.01854 -0.242028
-0.666815 -0.311253 -0.252747
-0.418248 0.397325 -0.252747
-0.021759 -0.19553 -0.252747
0.10355 0.262605 -0.252747
-0.36653 -0.208739 -0.252747
0.709787 0.270882 -0.242028
0.586797 0.015526 -0.242028
-0.752533 -0.063862 -0.242028
-0.416272 -0.048381 -0.242028
-0.11741 -0.102469 -0.252747
-0.495773 0.121197 -0.242028
0.720972 -0.175075 -0.242028
0.212549 0.026188 -0.242028
-0.362339 -0.306668 -0.242028
0.05612 -0.105251 -0.242028
0.042329 0.082805 -0.252747
-0.594131 -0.122341 -0.252747
-0.459253 -0.259368 -0.252747
0.60548 -0.166537 -0.242028
0.209434 0.161504 -0.252747
0.544104 0.232327 -0.242028
0.600162 -0.241366 -0.242028
0.46019 -0.28199 -0.242028
-0.189712 0.426747 -0.252747
0.159896 -0.269948 -0.252747
0.234935 0.118138 -0.242028
0.162613 0.413016 -0.242028
-0.52923 0.149499 -0.252747
0.503505 -0.095434 -0.252747
0.60462 0.358887 -0.242028
0.047539 0.349049 -0.242028
0.776728 0.402051 -0.252747
0.316489 -0.076538 -0.252747
0.797006 0.000911 -0.242028
0.095028 0.181429 -0.242028
-0.36967 0.28548 -0.242028
-0.170052 -0.357122 -0.242028
0.105253 -0.126048 -0.252747
-0.384042 0.3924 -0.242028
0.038595 0.326349 -0.252747
-0.286259 0.097579 -0.252747
-0.470373 -0.295675 -0.242028
-0.169192 -0.198072 -0.242028
-0.742848 -0.167349 -0.242028
-0.587341 0.009614 -0.242028
0.478906 0.078842 -0.252747
0.73173 -0.116513 -0.252747
0.601781 -0.115864 -0.242028
0.535808 0.402499 -0.242028
0.059489 -0.075435 -0.252747
0.638327 -0.069611 -0.252747
0.540747 0.355487 -0.252747
0.69243 0.01718 -0.242028
0.814562 -0.321804 -0.252747
-0.605877 0.101026 -0.242028
-0.794009 0.282129 -0.242028
0.252725 0.09939 -0.242028
0.543485 0.069677 -0.252747
-0.34317 0.173834 -0.252747
0.006547 0.406585 -0.242028
0.66605 0.21318 -0.242028
0.350453 0.281563 -0.252747
0.629029 0.074601 -0.242028
0.305705 0.370167 -0.242028
-0.51885 -0.287701 -0.242028
0.540402 -0.318701 -0.252747
-0.172507 0.188944 -0.252747
0.802666 0.316366 -0.242028
-0.490485 -0.14824 -0.252747
-0.345824 0.354981 -0.252747
0.340101 -0.285036 -0.252747
0.393465 0.413428 -0.252747
-0.576991 -0.332451 -0.252747
0.481344 -0.005737 -0.252747
0.378488 0.125691 -0.252747
0.557289 0.097332 -0.242028
-0.020319 0.378855 -0.242028
0.223754 0.243426 -0.242028
0.065943 -0.314196 -0.242028
0.38846 -0.070096 -0.242028
0.842292 -0.102798 -0.252747
0.361971 0.031885 -0.242028
-0.021337 0.260708 -0.242028
-0.228098 0.059489 -0.252747
-0.50297 0.410446 -0.252747
0.264915 -0.061073 -0.252747
-0.094483 -0.110845 -0.242028
0.636053 0.306036 -0.242028
-0.606516 0.222149 -0.252747
-0.25752 -0.153825 -0.242028
-0.805145 -0.318607 -0.252747
-0.501338 0.359838 -0.242028
-0.704299 0.409395 -0.252747
-0.390833 0.222225 -0.252747
0.66233 0.046198 -0.242028
-0.505057 0.011335 -0.242028
-0.455236 0.295342 -0.252747
-0.625287 0.193878 -0.252747
0.171087 0.294553 -0.252747
0.614628 -0.144612 -0.252747
0.823453 0.267531 -0.242028
-0.29401 0.154625 -0.252747
0.310444 0.019632 -0.252747
-0.301028 0.113375 -0.242028
0.277929 0.163879 -0.242028
0.219841 -0.081292 -0.252747
0.284451 -0.250479 -0.252747
-0.26679 -0.326235 -0.252747
-0.298775 -0.28285 -0.242028
-0.313993 -0.357886 -0.242028
0.379391 -0.050743 -0.252747
-0.249391 0.391216 -0.252747
-0.043582 0.283567 -0.242028
0.500854 0.233399 -0.252747
0.211466 0.056142 -0.242028
-0.53242 0.17531 -0.252747
0.440424 0.157406 -0.242028
-0.628611 0.239853 -0.242028
-0.285338 0.012014 -0.242028
-0.705805 -0.136401 -0.242028
-0.60657 0.325457 -0.242028
-0.161431 -0.120041 -0.242028
-0.265058 0.187111 -0.242028
0.025708 -0.316568 -0.252747
-0.395135 0.315165 -0.242028
-0.785411 0.140396 -0.242028
0.495895 0.133773 -0.242028
-0.353257 -0.013838 -0.242028
-0.723893 0.184402 -0.252747
0.525358 -0.205416 -0.242028
-0.68077 0.332065 -0.252747
0.30026 0.208182 -0.252747
0.546842 0.27175 -0.252747
0.464218 0.186039 -0.242028
0.012833 0.29924 -0.242028
-0.402186 0.257117 -0.242028
-0.411137 -0.158043 -0.252747
0.095726 -0.171932 -0.252747
-0.209857 -0.087009 -0.242028
0.569302 0.280078 -0.242028
0.549498 -0.246116 -0.242028
0.575413 -0.114828 -0.252747
0.017125 0.15129 -0.252747
0.852574 -0.239235 -0.242028
-0.691613 0.00926 -0.242028
0.187181 -0.307058 -0.252747
0.190074 0.179637 -0.252747
0.470473 -0.355319 -0.242028
-0.318121 -0.05224 -0.252747
0.28445 0.083039 -0.252747
-0.395151 -0.196677 -0.252747
-0.426214 0.32789 -0.252747
0.270025 -0.091033 -0.252747
-0.237223 0.114444 -0.242028
0.442848 -0.042396 -0.242028
0.268128 0.279216 -0.252747
0.70049 0.14619 -0.252747
0.63141 0.377811 -0.242028
-0.442731 0.049593 -0.252747
0.672053 -0.301451 -0.242028
-0.236506 0.151785 -0.242028
-0.542923 -0.352809 -0.252747
-0.095654 -0.311631 -0.242028
-0.303248 0.38689 -0.242028
0.169108 0.030682 -0.252747
-0.143515 0.313098 -0.242028
-0.329706 0.318545 -0.242028
-0.400414 0.043337 -0.242028
0.359355 -0.199126 -0.252747
-0.53083 0.37922 -0.242028
-0.087275 0.126945 -0.242028
0.679086 0.377218 -0.252747
-0.756714 0.201271 -0.252747
-0.734796 0.268564 -0.252747
-0.023939 0.004158 -0.252747
-0.353746 0.238122 -0.252747
-0.641178 0.401347 -0.242028
-0.060852 0.256052 -0.242028
-0.123752 0.342989 -0.252747
-0.158911 0.16858 -0.252747
-0.642572 0.436503 -0.252747
-0.75603 0.409584 -0.242028
0.773221 0.13587 -0.242028
0.352562 -0.027512 -0.252747
0.154024 0.147202 -0.242028
-0.64073 -0.041466 -0.252747
0.519445 0.032311 -0.252747
-0.332026 -0.217186 -0.242028
0.312979 -0.202802 -0.242028
0.111408 -0.283238 -0.252747
0.793583 -0.277485 -0.242028
0.02148 -0.222609 -0.252747
0.507907 -0.174544 -0.252747
-0.181071 -0.071341 -0.252747
-0.289075 0.425236 -0.252747
-0.776928 0.394227 -0.252747
0.136723 -0.357935 -0.252747
-0.469137 -0.084191 -0.242028
0.418642 -0.329214 -0.242028
0.776143 -0.241957 -0.252747
0.258796 0.439725 -0.242028
0.780396 -0.051573 -0.242028
-0.424272 0.211525 -0.242028
0.075002 -0.266247 -0.242028
-0.697437 -0.265517 -0.242028
-0.463305 -0.174257 -0.252747
0.735386 0.358063 -0.252747
-0.290604 -0.01412 -0.252747
0.135686 -0.082238 -0.242028
-0.312087 -0.033983 -0.242028
-0.148969 -0.147921 -0.252747
-0.5135 -0.224757 -0.252747
-0.557241 -0.041527 -0.252747
0.158825 -0.311352 -0.242028
-0.754349 0.055065 -0.252747
0.200705 0.256363 -0.242028
0.70236 -0.057026 -0.252747
-0.27449 -0.187259 -0.242028
0.586177 -0.326703 -0.252747
0.668685 -0.227242 -0.242028
-0.469989 -0.010892 -0.242028
0.41612 0.422469 -0.242028
0.636581 -0.009024 -0.252747
-0.63271 -0.129135 -0.252747
-0.763745 -0.300271 -0.252747
0.761972 -0.09064 -0.242028
0.589084 0.058178 -0.242028
0.067463 0.316424 -0.242028
0.65924 0.119047 -0.242028
-0.556742 -0.008915 -0.252747
0.388364 0.210073 -0.252747
-0.657784 -0.157419 -0.252747
-0.284849 0.375586 -0.252747
-0.732887 -0.088315 -0.252747
-0.547 0.416554 -0.252747
0.510907 -0.035308 -0.242028
-0.149245 -0.335544 -0.242028
-0.681473 0.374126 -0.252747
-0.20126 -0.321616 -0.252747
0.384854 -0.212553 -0.252747
0.773914 -0.183021 -0.242028
0.499179 0.418778 -0.252747
0.060486 0.16967 -0.252747
-0.126435 0.025014 -0.252747
0.32576 -0.329251 -0.252747
0.616638 -0.056477 -0.252747
0.373554 0.441649 -0.242028
0.315249 0.291843 -0.252747
-0.083434 0.10197 -0.252747
-0.446573 0.364235 -0.242028
0.227107 0.415114 -0.252747
0.509751 0.269404 -0.252747
-0.154962 -0.174316 -0.242028
0.39771 0.063518 -0.252747
0.643488 -0.030052 -0.242028
0.754488 -0.21024 -0.252747
0.297676 -0.002466 -0.242028
0.715888 0.34663 -0.252747
-0.578982 -0.039182 -0.242028
0.20045 -0.276155 -0.252747
-0.433238 -0.250959 -0.252747
-0.140309 0.215643 -0.242028
0.294897 -0.351408 -0.252747
0.774592 0.328397 -0.252747
0.051223 -0.147142 -0.252747
0.395439 0.169496 -0.242028
0.401492 0.311549 -0.252747
-0.324874 0.189808 -0.252747
0.140954 0.094158 -0.242028
-0.222285 -0.207997 -0.242028
0.792849 0.357883 -0.252747
-0.694988 -0.284503 -0.252747
0.035514 -0.355717 -0.252747
-0.747068 -0.012861 -0.242028
0.302153 0.327845 -0.252747
0.154873 -0.111682 -0.252747
0.14754 0.314924 -0.242028
-0.057078 -0.322101 -0.242028
0.171167 -0.016652 -0.252747
0.493658 0.395978 -0.252747
-0.135595 -0.092129 -0.242028
0.218398 0.220414 -0.252747
0.695073 -0.141454 -0.252747
-0.504373 -0.303487 -0.242028
-0.101682 0.389611 -0.242028
-0.588038 0.20869 -0.252747
-0.137188 0.259779 -0.242028
0.407923 0.101061 -0.242028
0.554728 -0.026218 -0.252747
-0.451327 -0.156077 -0.252747
-0.604401 -0.097579 -0.252747
0.296036 0.121336 -0.252747
-0.036757 0.334639 -0.252747
0.522756 -0.340141 -0.242028
0.645927 0.356611 -0.242028
0.38638 -0.123257 -0.252747
-0.762694 0.034954 -0.252747
0.734674 0.040785 -0.242028
-0.549484 0.283546 -0.252747
-0.302674 0.229859 -0.242028
-0.507591 0.033162 -0.242028
-0.601355 -0.241631 -0.242028
-0.691222 0.062343 -0.242028
-0.379833 -0.036988 -0.252747
-0.757269 -0.235624 -0.242028
0.001185 0.219694 -0.242028
-0.706977 -0.08234 -0.252747
0.79906 0.103027 -0.242028
-0.450626 -0.338182 -0.242028
-0.370346 0.404591 -0.252747
0.312644 -0.035422 -0.242028
-0.055964 0.149639 -0.252747
0.513887 0.191811 -0.252747
-0.336078 -0.063504 -0.252747
-0.0521 -0.298159 -0.242028
-0.786714 -0.09342 -0.252747
0.200198 -0.226279 -0.252747
-0.205802 -0.064136 -0.252747
0.102436 -0.066872 -0.252747
0.822306 -0.218296 -0.242028
0.750856 -0.142893 -0.252747
0.24343 -0.112137 -0.242028
0.584736 0.217133 -0.252747
-0.279288 0.061875 -0.242028
0.151686 0.378861 -0.252747
-0.776131 0.327118 -0.252747
0.092224 0.403263 -0.242028
0.396273 0.345924 -0.242028
-0.620296 -0.343739 -0.242028
-0.435301 0.410088 -0.242028
-0.576297 0.422754 -0.252747
0.178799 -0.056547 -0.252747
-0.099492 0.442165 -0.247874
0.409831 -0.006786 -0.242028
-0.702858 0.084442 -0.242028
0.805423 -0.061757 -0.242028
0.375394 -0.267332 -0.242028
-0.03331 -0.209992 -0.242028
-0.244897 -0.068128 -0.252747
-0.542533 -0.271065 -0.242028
0.180817 0.229399 -0.252747
0.318927 0.389382 -0.242028
0.644153 0.023166 -0.252747
-0.411009 -0.225204 -0.242028
0.559697 0.438222 -0.242028
-0.514023 -0.074427 -0.252747
-0.554913 0.333999 -0.252747
0.219795 -0.132762 -0.252747
0.318366 -0.274179 -0.252747
0.823329 0.337801 -0.242028
0.344971 0.003533 -0.252747
-0.215452 0.203206 -0.242028
-0.126422 0.131129 -0.252747
-0.222004 -0.000201 -0.242028
0.032123 -0.288924 -0.242028
0.632189 0.176279 -0.242028
-0.214643 0.37322 -0.242028
-0.544392 0.021406 -0.242028
-0.223049 -0.238692 -0.252747
-0.037481 0.095485 -0.252747
0.031932 -0.112735 -0.242028
0.434836 -0.242212 -0.242028
-0.205363 -0.171896 -0.252747
0.809329 0.086667 -0.252747
0.460693 -0.015208 -0.242028
0.681928 0.308919 -0.242028
-0.516279 0.255419 -0.252747
-0.481298 0.261128 -0.242028
-0.128999 -0.010545 -0.242028
0.575237 0.147673 -0.242028
-0.246474 -0.015131 -0.242028
0.462855 -0.096292 -0.252747
0.27783 -0.191967 -0.242028
-0.043372 -0.138088 -0.252747
-0.704364 0.117756 -0.252747
0.483722 0.273394 -0.242028
-0.681134 0.440723 -0.252747
-0.269524 -0.351178 -0.252747
-0.304045 -0.316843 -0.242028
0.329062 0.135947 -0.252747
-0.71431 -0.35635 -0.242028
0.616555 -0.286558 -0.252747
-0.168952 -0.053669 -0.252747
-0.246324 0.358147 -0.252747
0.733267 -0.325134 -0.252747
0.394784 -0.158726 -0.242028
0.620866 0.051868 -0.252747
0.76764 0.184457 -0.242028
-0.704455 0.291894 -0.252747
0.086761 0.250496 -0.252747
0.354321 0.409826 -0.252747
0.002331 -0.073698 -0.242028
0.80782 0.187547 -0.242028
0.304311 -0.173484 -0.242028
0.72424 -0.242184 -0.252747
0.432794 -0.197978 -0.242028
0.02819 0.248876 -0.252747
-0.43524 -0.026779 -0.252747
-0.041719 0.236706 -0.252747
-0.038007 -0.17757 -0.242028
0.082256 -0.029889 -0.242028
-0.365126 -0.355163 -0.252747
0.278188 0.034533 -0.252747
-0.031924 -0.030889 -0.242028
-0.790784 0.11977 -0.242028
0.375329 0.423206 -0.252747
0.038089 0.384135 -0.252747
-0.413839 -0.09138 -0.242028
0.333947 0.368917 -0.252747
-0.548856 -0.115427 -0.252747
-0.242334 -0.278876 -0.252747
-0.202255 -0.254659 -0.242028
0.076331 0.36373 -0.252747
0.462375 -0.24636 -0.242028
0.676107 -0.210231 -0.252747
-0.77367 0.066757 -0.252747
-0.177292 0.091439 -0.252747
0.635784 0.419156 -0.252747
0.124714 -0.041074 -0.242028
0.066066 0.139501 -0.242028
-0.663597 0.323471 -0.242028
-0.782461 0.000116 -0.252747
0.782486 -0.290955 -0.252747
-0.708316 -0.119134 -0.252747
0.572686 -0.304726 -0.252747
0.851409 0.19346 -0.242028
0.534342 0.328472 -0.242028
-0.134834 -0.320581 -0.252747
-0.255573 -0.225201 -0.252747
0.316478 -0.116122 -0.252747
0.239118 0.442165 -0.25186
0.326957 0.334381 -0.252747
-0.328834 0.076183 -0.252747
0.716428 -0.032459 -0.242028
-0.415743 0.149147 -0.242028
-0.078182 0.415643 -0.242028
-0.609645 0.367053 -0.252747
-0.809906 -0.162689 -0.252747
0.444597 0.441109 -0.252747
0.845847 0.241375 -0.252747
0.391708 -0.196718 -0.242028
-0.464914 -0.2186 -0.242028
-0.795507 0.032448 -0.252747
-0.148745 0.442165 -0.249599
-0.289701 -0.093493 -0.252747
-0.030636 0.148237 -0.242028
-0.234349 0.280037 -0.242028
-0.490266 -0.129033 -0.242028
-0.246255 0.070178 -0.252747
-0.064101 -0.242076 -0.252747
0.508234 -0.299365 -0.242028
0.839449 0.125231 -0.252747
-0.432785 -0.087133 -0.252747
0.639431 -0.130125 -0.252747
-0.009154 0.02773 -0.242028
0.747239 0.120666 -0.252747
0.201891 -0.156337 -0.252747
-0.144028 -0.292049 -0.242028
-0.462683 0.234526 -0.242028
-0.02482 0.184754 -0.242028
0.532927 0.154697 -0.242028
0.534574 -0.352483 -0.252747
-0.580449 -0.065922 -0.242028
-0.093529 0.318698 -0.252747
-0.4253 -0.176959 -0.242028
0.041201 -0.23241 -0.242028
0.285164 -0.219024 -0.252747
0.841411 0.377848 -0.242028
0.22667 0.335509 -0.242028
-0.093368 -0.332654 -0.242028
-0.209092 -0.306506 -0.242028
-0.812756 -0.286177 -0.252747
0.754051 0.293924 -0.242028
-0.34589 -0.207363 -0.252747
0.739252 -0.182771 -0.252747
-0.681931 -0.072612 -0.252747
0.387699 -0.24066 -0.242028
0.51936 -0.268672 -0.252747
0.582124 0.430686 -0.242028
-0.024624 0.362505 -0.252747
-0.17114 -0.322861 -0.242028
0.371798 0.287502 -0.242028
0.575968 -0.078669 -0.242028
-0.203678 -0.141067 -0.252747
-0.380764 0.254725 -0.242028
0.664779 -0.126394 -0.252747
0.023785 -0.20525 -0.242028
-0.339714 -0.147171 -0.242028
-0.09185 0.040224 -0.242028
0.674766 0.057551 -0.252747
-0.49401 -0.284386 -0.252747
-0.405192 0.198062 -0.252747
-0.383467 0.41963 -0.252747
0.464008 0.440031 -0.242028
-0.654751 0.411298 -0.252747
-0.781512 -0.07417 -0.252747
0.329881 -0.031682 -0.252747
0.617089 0.138914 -0.252747
0.127229 0.347381 -0.242028
0.521468 -0.153468 -0.252747
-0.204533 0.288455 -0.242028
0.650174 0.078118 -0.252747
0.500434 0.322016 -0.252747
-0.500584 0.078722 -0.252747
-0.639097 -0.200404 -0.242028
0.110074 -0.254226 -0.242028
-0.001069 0.194328 -0.242028
-0.394447 0.441646 -0.252747
0.056387 -0.278244 -0.252747
-0.654291 0.206889 -0.242028
0.509448 0.299884 -0.252747
0.193211 -0.028025 -0.252747
0.59638 -0.191936 -0.242028
-0.379814 0.129755 -0.242028
-0.6168 -0.220049 -0.242028
0.190537 -0.241503 -0.242028
0.75548 -0.269515 -0.252747
0.717573 0.387948 -0.252747
0.477927 0.348854 -0.252747
0.559876 0.11937 -0.242028
-0.664534 -0.327752 -0.242028
-0.328309 -0.251188 -0.252747
0.048513 -0.062928 -0.242028
0.343001 -0.112615 -0.242028
0.727579 0.152693 -0.242028
0.811382 -0.299608 -0.242028
0.064573 0.041375 -0.242028
0.481992 -0.281519 -0.242028
-0.42033 0.352925 -0.242028
0.263855 -0.114698 -0.252747
-0.004785 -0.091035 -0.252747
-0.00899 0.420044 -0.242028
0.302562 0.037339 -0.242028
0.701794 0.405057 -0.252747
0.033186 0.137709 -0.242028
0.612951 0.412557 -0.252747
0.20783 0.428167 -0.252747
0.562837 0.07433 -0.252747
0.192252 -0.290461 -0.242028
0.792001 0.0619 -0.242028
0.119971 0.246335 -0.242028
0.10216 0.082886 -0.252747
0.764008 0.105199 -0.242028
-0.396241 -0.033386 -0.242028
-0.229068 -0.351364 -0.242028
0.34167 -0.248986 -0.252747
0.803857 0.27745 -0.242028
-0.605729 0.077013 -0.242028
0.08412 0.043153 -0.242028
0.644052 -0.226652 -0.252747
-0.180014 0.326841 -0.252747
-0.776691 -0.227346 -0.242028
0.264131 -0.282943 -0.252747
0.669884 -0.158739 -0.252747
0.110197 0.305463 -0.252747
-0.675321 -0.024953 -0.252747
0.123458 0.20868 -0.252747
-0.089802 0.019561 -0.252747
0.717124 -0.227407 -0.242028
-0.346912 -0.174052 -0.242028
-0.560477 0.103375 -0.242028
-0.742554 0.306794 -0.242028
-0.371133 -0.233942 -0.242028
-0.461642 0.126884 -0.242028
-0.685546 0.285555 -0.242028
-0.786045 0.304464 -0.252747
-0.771397 -0.087724 -0.242028
0.625076 0.115691 -0.242028
0.104006 0.324162 -0.242028
-0.453505 0.141836 -0.252747
-0.26314 0.317029 -0.252747
-0.606144 -0.081347 -0.242028
-0.062854 0.360516 -0.242028
0.036975 0.365459 -0.242028
-0.113896 0.364436 -0.252747
-0.18616 0.006823 -0.242028
-0.403316 0.006465 -0.252747
-0.489108 0.373742 -0.252747
-0.724977 -0.238517 -0.252747
0.721757 -0.155647 -0.242028
-0.575926 -0.245938 -0.252747
-0.298932 -0.195497 -0.252747
-0.401149 -0.335646 -0.252747
0.351642 -0.130745 -0.252747
0.056178 0.266455 -0.252747
0.572992 0.182393 -0.242028
0.3335 0.18439 -0.242028
-0.725265 -0.156763 -0.252747
-0.721391 0.206194 -0.252747
-0.120126 0.0805 -0.242028
-0.148179 0.271557 -0.252747
-0.379175 -0.114976 -0.252747
-0.145905 0.353904 -0.252747
-0.159158 0.06409 -0.252747
-0.801239 -0.178536 -0.242028
0.524389 -0.317128 -0.242028
0.347141 0.038097 -0.252747
0.483701 0.224507 -0.252747
0.795644 0.129843 -0.242028
-0.643355 0.000869 -0.252747
0.412833 0.168964 -0.252747
-0.369308 0.144287 -0.252747
0.799077 -0.119402 -0.242028
-0.042879 0.056732 -0.252747
0.315151 0.425712 -0.252747
0.549682 -0.00034 -0.252747
0.199964 0.353894 -0.252747
0.838341 0.165378 -0.242028
0.140854 0.220798 -0.252747
0.851732 -0.206134 -0.252747
0.436694 -0.286056 -0.252747
-0.413183 0.280736 -0.252747
0.43801 0.318608 -0.242028
0.734247 0.423611 -0.252747
-0.221653 -0.172719 -0.242028
0.01785 -0.080707 -0.252747
-0.744162 -0.297679 -0.242028
-0.489469 -0.087196 -0.252747
-0.363933 0.263899 -0.242028
-0.336807 -0.110701 -0.252747
0.577399 -0.059926 -0.252747
0.829588 0.295181 -0.252747
-0.107152 -0.026092 -0.242028
-0.379299 -0.196978 -0.242028
-0.294594 0.066003 -0.252747
-0.314333 0.370054 -0.252747
0.521909 0.442165 -0.246912
0.481367 -0.067227 -0.242028
0.123735 0.14006 -0.242028
-0.671309 0.394579 -0.252747
0.330813 -0.154287 -0.242028
-0.582824 0.440696 -0.252747
0.246371 0.410977 -0.252747
-0.196136 -0.289216 -0.242028
0.494498 -0.124973 -0.252747
-0.57091 0.016218 -0.252747
0.081113 0.439595 -0.242028
-0.32876 0.281142 -0.242028
0.534107 -0.234912 -0.242028
0.67377 0.262917 -0.252747
0.091546 0.219069 -0.242028
0.647388 -0.289923 -0.252747
-0.185762 -0.356926 -0.252747
-0.415542 0.047545 -0.252747
0.013185 -0.261941 -0.252747
0.257894 0.396031 -0.242028
-0.542836 -0.229484 -0.252747
0.382927 -0.28108 -0.252747
0.662975 -0.085644 -0.252747
0.438263 -0.319755 -0.252747
0.679235 0.344969 -0.252747
0.057071 0.413559 -0.252747
0.520166 -0.115078 -0.252747
-0.410778 0.314859 -0.252747
0.639306 0.221871 -0.242028
0.121195 -0.333519 -0.242028
0.241176 -0.041787 -0.252747
-0.283114 0.080773 -0.242028
-0.794854 0.343838 -0.252747
0.148974 0.039093 -0.252747
-0.146643 0.102836 -0.242028
-0.597613 0.181358 -0.252747
-0.547967 0.173926 -0.242028
0.274842 -0.238179 -0.242028
-0.232609 -0.327702 -0.252747
-0.314058 0.398128 -0.252747
-0.318954 0.119432 -0.242028
-0.177392 0.259794 -0.252747
0.468385 -0.127056 -0.252747
0.64695 -0.248434 -0.242028
-0.03963 0.436359 -0.252747
0.017935 0.395996 -0.252747
-0.518072 -0.002346 -0.242028
0.409994 0.296216 -0.242028
-0.641224 0.019014 -0.242028
0.294974 0.136834 -0.242028
0.033179 -0.146105 -0.242028
-0.746471 0.367818 -0.252747
0.139439 0.417344 -0.252747
-0.502943 0.439976 -0.252747
-0.128096 0.311378 -0.252747
0.197611 0.011975 -0.242028
-0.289194 -0.048797 -0.252747
0.598801 0.096638 -0.252747
-0.751389 -0.214147 -0.252747
0.612484 0.250034 -0.252747
-0.319286 0.144331 -0.242028
0.226805 -0.3127 -0.252747
-0.807554 0.382958 -0.252747
0.732443 0.083826 -0.242028
0.024709 0.183093 -0.252747
-0.117537 0.263458 -0.252747
-0.224268 -0.107025 -0.242028
0.142206 0.061508 -0.252747
-0.544362 -0.134205 -0.252747
-0.088619 -0.285459 -0.252747
-0.014377 -0.333295 -0.242028
0.830155 -0.119859 -0.242028
0.453013 0.196545 -0.252747
-0.205041 0.42752 -0.242028
-0.400527 -0.241553 -0.252747
-0.597368 -0.146459 -0.242028
-0.632024 -0.015088 -0.242028
-0.637555 -0.166269 -0.242028
-0.352304 0.15342 -0.252747
0.763902 0.281463 -0.252747
0.631753 0.009222 -0.252747
0.359203 0.338819 -0.252747
0.135219 -0.258784 -0.252747
-0.731716 0.147787 -0.252747
-0.482119 0.218492 -0.242028
-0.088151 -0.153129 -0.252747
-0.019005 -0.152683 -0.252747
0.697548 -0.22653 -0.242028
-0.238558 -0.26323 -0.242028
-0.560418 0.24954 -0.252747
0.492433 -0.306077 -0.252747
-0.526442 0.082522 -0.242028
0.172051 0.096349 -0.252747
0.706781 -0.158261 -0.252747
0.455203 0.348962 -0.242028
-0.445764 0.067458 -0.242028
0.852822 -0.113706 -0.242028
-0.532776 0.359494 -0.252747
-0.455383 0.381483 -0.252747
-0.276181 0.1423 -0.242028
0.259577 0.155404 -0.252747
-0.784025 0.269847 -0.252747
0.245949 0.306385 -0.252747
-0.47551 -0.333073 -0.242028
0.669594 -0.286513 -0.252747
-0.662286 0.069336 -0.252747
0.632627 -0.162039 -0.242028
-0.582136 0.070564 -0.242028
0.788358 -0.066626 -0.252747
0.740295 -0.002485 -0.242028
-0.022487 0.094022 -0.242028
-0.215624 0.314187 -0.252747
0.467549 -0.159952 -0.252747
-0.321552 0.253727 -0.252747
-0.675038 0.105927 -0.252747
-0.090449 -0.266662 -0.252747
-0.721839 -0.125733 -0.242028
-0.526138 -0.343883 0.050993
0.499031 -0.343883 -0.13853
0.055321 -0.343883 -0.017854
-0.213049 -0.343883 -0.090672
0.464334 -0.343883 0.126796
0.295684 -0.343883 -0.029588
0.70847 -0.343883 -0.067408
-0.421359 -0.343883 -0.152781
-0.677509 -0.343883 -0.086885
-0.337039 -0.343883 0.061942
-0.710722 -0.343883 0.096366
-0.08198 -0.343883 0.116218
0.719918 -0.343883 0.105137
0.104388 -0.343883 0.14794
0.171138 -0.343883 -0.138886
0.5562 -0.343883 0.003773
0.302377 -0.343883 0.123184
-0.060934 -0.343883 -0.10701
-0.492166 -0.343883 0.190416
-0.218992 -0.343883 0.134112
-0.537116 -0.343883 -0.089154
0.185366 -0.343883 0.045074
-0.705809 -0.343883 -0.21413
0.370976 -0.343883 -0.150505
0.43282 -0.343883 -0.005368
-0.128522 -0.343883 0.00178
0.773064 -0.343883 -0.177035
0.625977 -0.343883 -0.15085
-0.297248 -0.343883 -0.172383
-0.36111 -0.343883 -0.052819
0.058387 -0.343883 -0.14883
-0.233455 -0.343883 0.021732
0.8036 -0.343883 0.172226
-0.625101 -0.343883 0.02306
-0.437719 -0.343883 0.10337
0.773728 -0.343883 0.016271
0.02262 -0.343883 0.086808
-0.602606 -0.343883 -0.165024
-0.74587 -0.343883 0.0043
-0.144343 -0.343883 -0.176812
0.664528 -0.343883 0.023965
-0.073082 -0.343883 0.212477
-0.442266 -0.343883 0.01061
0.216641 -0.343883 -0.226523
0.369218 -0.343883 0.059878
0.273987 -0.343883 -0.116421
0.143928 -0.343883 -0.053819
-0.033739 -0.343883 -0.019579
-0.358976 -0.343883 0.178942
-0.052402 -0.343883 -0.19385
-0.736848 -0.343883 0.181637
0.606647 -0.343883 -0.06398
0.497682 -0.343883 -0.230023
0.605002 -0.343883 0.083358
0.430266 -0.343883 -0.088289
-0.755396 -0.343883 -0.117823
-0.441167 -0.343883 -0.073972
0.304734 -0.343883 -0.193247
0.100175 -0.343883 0.06977
0.070983 -0.343883 -0.230459
0.036744 -0.343883 0.186456
0.700049 -0.343883 0.179624
0.221192 -0.343883 -0.048248
0.783563 -0.343883 -0.082892
0.528002 -0.343883 0.084286
-0.550389 -0.343883 0.140857
0.276543 -0.343883 0.194604
0.577387 -0.343883 0.188096
0.666508 -0.343883 -0.214658
0.528623 -0.343883 -0.065954
-0.223088 -0.343883 -0.176238
0.79904 -0.343883 0.098303
-0.048785 -0.343883 0.051336
-0.291635 -0.343883 -0.021508
-0.147818 -0.343883 0.190397
0.711237 -0.343883 -0.139664
-0.780875 -0.343883 -0.205811
0.364628 -0.343883 -0.060918
0.281437 -0.343883 0.055726
0.148322 -0.343883 -0.205701
-0.122105 -0.343883 -0.07184
-0.562781 -0.343883 -0.02345
-0.517195 -0.343883 -0.156666
0.572665 -0.343883 -0.196025
-0.281312 -0.343883 0.174844
-0.66441 -0.343883 0.188022
-0.600331 -0.343883 0.092154
-0.357091 -0.343883 -0.206629
-0.157088 -0.343883 0.103942
0.033259 -0.343883 -0.082433
0.648439 -0.343883 0.13532
-0.610123 -0.343883 -0.085607
-0.789102 -0.343883 0.09958
-0.302148 -0.343883 -0.10666
0.429196 -0.343883 -0.181054
0.434858 -0.343883 0.068924
0.491845 -0.343883 0.020909
0.223226 -0.343883 0.097249
-0.599081 -0.343883 0.207412
-0.0285 -0.343883 0.150835
-0.682291 -0.343883 -0.004262
-0.222929 -0.343883 0.197435
0.568605 -0.343883 -0.127916
0.52147 -0.343883 0.15412
-0.002865 -0.343883 -0.143936
-0.175045 -0.343883 -0.038309
-0.372345 -0.343883 0.007538
0.155267 -0.343883 0.11366
0.820625 -0.343883 -0.13842
-0.672987 -0.343883 -0.147792
0.340494 -0.343883 0.18633
-0.435027 -0.343883 0.16426
-0.377095 -0.343883 0.10955
0.095756 -0.343883 -0.100715
-0.304336 -0.343883 0.112434
0.111933 -0.343883 0.002225
-0.113876 -0.343883 0.062323
0.238408 -0.343883 -0.1647
-0.734512 -0.343883 -0.061732
0.658333 -0.343883 -0.099812
-0.37286 -0.343883 -0.118388
-0.503613 -0.343883 -0.020873
0.020836 -0.343883 -0.200075
0.121717 -0.343883 0.206622
0.458691 -0.343883 0.188983
0.407725 -0.343883 0.139685
0.722252 -0.343883 -0.011014
-0.656616 -0.343883 0.129475
0.724747 -0.343883 0.048174
0.329584 -0.343883 -0.107696
-0.498316 -0.343883 0.11963
0.014511 -0.343883 0.031234
-0.482827 -0.343883 -0.111574
0.218874 -0.343883 -0.10737
0.61376 -0.343883 0.001528
-0.456831 -0.343883 -0.208595
-0.196813 -0.343883 0.065727
0.57873 -0.343883 0.13174
-0.28298 -0.343883 0.053005
0.22757 -0.343883 0.006132
-0.470318 -0.343883 0.059428
-0.657201 -0.343883 0.067137
0.361893 -0.343883 -0.204144
-0.305036 -0.343883 -0.226434
0.331727 -0.343883 0.021268
0.472944 -0.343883 -0.056308
0.828416 -0.343883 0.02192
0.098157 -0.343883 -0.183658
-0.439422 -0.343883 0.216926
-0.786019 -0.343883 -0.049934
0.82296 -0.343883 -0.044955
0.638324 -0.343883 0.188442
0.678387 -0.343883 0.073798
-0.121762 -0.343883 -0.130296
-0.084507 -0.343883 -0.026313
0.522854 -0.343883 -0.184711
-0.171999 -0.343883 -0.121385
-0.532703 -0.343883 -0.205224
0.594412 -0.343883 -0.241982
-0.710705 -0.343883 0.045614
-0.777648 -0.343883 0.151662
0.065376 -0.343883 0.031729
-0.24238 -0.343883 -0.031247
-0.76898 -0.343883 0.053627
0.820791 -0.343883 -0.228971
0.068058 -0.343883 0.11402
-0.239977 -0.343883 -0.22294
-0.732832 -0.343883 -0.162044
-0.016762 -0.343883 -0.066017
-0.175436 -0.343883 0.017159
-0.633133 -0.343883 -0.025235
-0.567881 -0.343883 -0.127179
-0.09622 -0.343883 0.169765
0.762442 -0.343883 -0.236758
0.379269 -0.343883 -0.015092
-0.698877 -0.343883 0.152586
0.774517 -0.343883 -0.031432
0.570436 -0.343883 0.049096
0.533476 -0.343883 0.216892
0.361207 -0.343883 0.106248
-0.577989 -0.343883 0.020952
0.704227 -0.343883 -0.1879
-0.636457 -0.343883 -0.196292
0.404005 -0.343883 0.1902
0.01626 -0.343883 0.140245
0.513298 -0.343883 -0.022641
0.169053 -0.343883 -0.015363
-0.236178 -0.343883 0.091817
-0.248799 -0.343883 -0.118996
0.751068 -0.343883 -0.118727
-0.171414 -0.343883 -0.212505
0.412291 -0.343883 -0.129025
0.622016 -0.343883 -0.195172
-0.269908 -0.343883 -0.066145
-0.555957 -0.343883 0.089623
0.764427 -0.343883 0.125724
-0.401443 -0.343883 0.072839
-0.091909 -0.343883 -0.174553
-0.534991 -0.343883 0.199486
-0.706935 -0.343883 -0.118864
0.178993 -0.343883 0.164335
-0.589416 -0.343883 0.159782
0.140421 -0.343883 -0.096983
0.196113 -0.343883 -0.174246
-0.361122 -0.343883 -0.160025
0.441385 -0.343883 -0.222515
-0.750249 -0.343883 0.118355
-0.040227 -0.343883 0.105457
0.306136 -0.343883 -0.150217
0.668389 -0.343883 -0.157916
0.456579 -0.343883 -0.143094
0.82409 -0.343883 -0.0955
0.477468 -0.343883 -0.192881
0.70974 -0.343883 -0.240648
0.498661 -0.343883 -0.096439
0.64716 -0.343883 -0.053045
0.08351 -0.343883 -0.048844
0.014451 -0.343883 -0.026995
0.329475 -0.343883 0.073018
-0.139781 -0.343883 0.149352
-0.398767 -0.343883 -0.209872
-0.311048 -0.343883 -0.059241
0.261884 -0.343883 0.113615
0.680764 -0.343883 -0.014292
0.241225 -0.343883 0.046555
-0.402293 -0.343883 -0.053141
0.277696 -0.343883 -0.066331
0.823421 -0.343883 -0.187666
0.183559 -0.343883 -0.064204
-0.43883 -0.343883 -0.114566
0.790591 -0.343883 0.05862
-0.52966 -0.343883 0.010786
0.372366 -0.343883 -0.110235
0.470631 -0.343883 0.087045
0.826723 -0.343883 0.13969
0.418507 -0.343883 0.031726
0.53975 -0.343883 -0.229634
-0.494343 -0.343883 -0.05947
-0.480311 -0.343883 -0.171147
0.764239 -0.343883 0.175589
0.115494 -0.343883 -0.227149
-0.41083 -0.343883 0.034824
0.429312 -0.343883 -0.049208
-0.02358 -0.343883 0.021514
-0.807269 -0.343883 -0.118365
0.610596 -0.343883 0.215607
-0.798894 -0.343883 0.183949
-0.620866 -0.343883 -0.131148
-0.400307 -0.343883 0.180775
0.34659 -0.343883 0.142188
0.295115 -0.343883 0.01028
0.572234 -0.343883 -0.089869
0.611111 -0.343883 -0.115795
-0.31718 -0.343883 0.029695
0.588137 -0.343883 -0.161459
-0.012525 -0.343883 -0.182213
-0.674652 -0.343883 0.033872
0.186745 -0.343883 0.088324
-0.500335 -0.343883 0.081985
0.631367 -0.343883 -0.23601
0.071442 -0.343883 0.172501
0.6848 -0.343883 0.143727
-0.701015 -0.343883 0.20819
-0.045162 -0.343883 -0.140545
-0.267971 -0.343883 0.119523
-0.599706 -0.343883 -0.041205
-0.68893 -0.343883 -0.040651
0.641297 -0.343883 0.052738
0.134479 -0.343883 0.082802
-0.395362 -0.343883 -0.089685
-0.540184 -0.343883 -0.052904
0.494212 -0.343883 0.181216
-0.339033 -0.343883 0.123246
0.747462 -0.343883 -0.079194
-0.407212 -0.343883 0.140995
-0.337802 -0.343883 -0.127489
0.614555 -0.343883 0.161149
0.613975 -0.343883 0.123613
0.19027 -0.343883 0.124065
0.714836 -0.343883 -0.10263
-0.741581 -0.343883 -0.214391
-0.179954 -0.343883 -0.173738
0.844332 -0.343883 -0.010062
0.123241 -0.343883 -0.128301
0.377203 -0.343883 0.166617
-0.073326 -0.343883 0.007547
0.548561 -0.343883 -0.036394
-0.123084 -0.343883 0.114628
-0.167138 -0.343883 -0.086114
-0.797449 -0.343883 -0.161755
0.83842 -0.343883 0.185391
-0.009271 -0.343883 -0.100645
-0.211301 -0.343883 -0.005667
-0.676944 -0.343883 -0.241029
-0.206185 -0.343883 -0.054325
0.64581 -0.343883 -0.01272
-0.485303 -0.343883 0.027846
-0.676809 -0.343883 -0.182533
0.370325 -0.343883 0.018671
-0.80311 -0.343883 0.044457
-0.650453 -0.343883 -0.055252
0.031433 -0.343883 -0.127094
0.208724 -0.343883 -0.140415
0.481648 -0.343883 0.053905
-0.461786 -0.343883 0.128122
0.154155 -0.343883 -0.168838
-0.007164 -0.343883 0.11499
0.793741 -0.343883 -0.115741
-0.633141 -0.343883 0.202666
0.733228 -0.343883 0.14011
-0.743892 -0.343883 0.084676
0.250536 -0.343883 -0.196719
0.054917 -0.343883 -0.197617
-0.087824 -0.343883 -0.060253
0.359944 -0.343883 0.214339
-0.633646 -0.343883 0.15462
0.065689 -0.343883 0.206413
0.747812 -0.343883 0.073217
-0.164986 -0.343883 0.05375
-0.054696 -0.343883 0.172468
0.72204 -0.343883 0.211306
0.430199 -0.343883 0.114563
