0.534119 0.326777 -0.019587224697216243
0.62368 0.326777 0.12039577530278375
0.653031 0.332085 0.21001577530278376
0.478353 0.332085 0.16273377530278377
0.47835 0.326777 0.06495477530278376
0.702921 0.326777 0.10649877530278376
0.644561 0.326777 0.2562407753027838
0.725321 0.326777 0.22052077530278374
0.781631 0.332085 0.26830077530278373
0.593832 0.332085 0.20498677530278375
0.762882 0.326777 0.10285177530278375
0.712845 0.332085 0.024421775302783756
0.569966 0.332085 0.06048477530278376
0.511921 0.332085 0.23856577530278378
0.766782 0.326777 0.06369177530278375
0.698853 0.326777 0.28605177530278375
0.466874 0.326777 0.013804775302783762
0.783607 0.326777 -0.01780422469721625
0.621548 0.332085 -0.03144222469721625
0.692601 0.326777 0.07312177530278376
0.727575 0.332085 -0.01556922469721625
0.785003 0.326777 -0.052423224697216234
0.507407 0.326777 0.17955677530278374
0.573681 0.332085 0.26341777530278376
0.525461 0.332085 0.11075477530278376
0.54046 0.326777 0.04306177530278375
0.704239 0.326777 0.15296577530278377
0.54993 0.332085 0.23092877530278377
0.645568 0.326777 0.058139775302783754
0.654855 0.326777 -0.0035022246972162413
0.762468 0.326777 0.15663477530278375
0.788054 0.326777 0.19715977530278375
0.683466 0.326777 0.20959977530278376
0.742793 0.326777 0.03871777530278375
0.532315 0.332085 0.01073677530278376
0.597245 0.332085 0.0065867753027837594
0.707326 0.326777 -0.037059224697216245
0.631001 0.332085 0.09182977530278376
0.520727 0.332085 -0.04689222469721625
0.675013 0.332085 0.17687277530278375
0.790069 0.326777 0.11432377530278376
0.633949 0.326777 0.14793877530278376
0.486512 0.326777 0.28768877530278375
0.492133 0.332085 0.09138677530278376
0.556623 0.332085 0.12564077530278375
0.731918 0.326777 0.17877877530278374
0.756382 0.332085 -0.01998222469721625
0.6253 0.332085 0.21109277530278375
0.606831 0.332085 0.03218077530278376
0.555954 0.326777 -0.002347224697216238
0.597339 0.326777 0.11395277530278375
0.751094 0.332085 0.22618677530278375
0.680593 0.326777 0.014622775302783761
0.763606 0.326777 0.24941977530278375
0.565757 0.332085 -0.053750224697216256
0.511742 0.326777 0.20799377530278376
0.482132 0.326777 0.23428377530278377
0.653627 0.326777 0.022548775302783756
0.708631 0.332085 0.05352977530278376
0.607266 0.332085 0.14883377530278374
0.677362 0.332085 0.11574077530278376
0.597134 0.326777 0.18026277530278376
0.710912 0.332085 0.26211577530278374
0.664154 0.326777 0.23680677530278377
0.572219 0.326777 0.22128877530278374
0.559478 0.326777 0.19311877530278376
0.793871 0.332085 0.04580877530278375
0.495151 0.326777 0.14572677530278377
0.455645 0.326777 0.27346177530278376
0.623285 0.332085 0.27574077530278374
0.680146 0.326777 -0.04313322469721624
0.559235 0.332085 0.15109277530278376
0.647601 0.326777 0.11961877530278375
0.529518 0.332085 0.16594277530278376
0.581688 0.326777 0.04047877530278376
0.732223 0.326777 0.012506775302783754
0.725517 0.332085 0.10872077530278376
0.672581 0.332085 -0.017019224697216243
0.518535 0.326777 0.27607377530278376
0.557625 0.326777 -0.029666224697216248
0.768327 0.332085 0.21168277530278373
0.500765 0.326777 -0.009361224697216244
0.494845 0.332085 0.05063877530278375
0.704975 0.332085 0.20852677530278374
0.712834 0.332085 0.08692677530278375
0.602413 0.326777 -0.021920224697216245
0.470668 0.332085 0.08647277530278376
0.725226 0.332085 0.15243977530278374
0.660995 0.326777 0.07333277530278376
0.557174 0.332085 0.2983127753027838
0.594909 0.332085 0.26211977530278374
0.749733 0.332085 0.08712777530278376
0.701982 0.332085 0.23657377530278373
0.462095 0.326777 0.11376877530278376
0.775699 0.332085 0.12793877530278375
0.735695 0.326777 0.23839277530278374
0.731435 0.332085 0.20198177530278377
0.550077 0.332085 0.06417577530278376
0.783978 0.332085 0.08082177530278375
0.654451 0.332085 0.13829677530278375
0.59145 0.326777 0.06140377530278376
0.790923 0.332085 0.17797077530278377
0.472958 0.332085 0.042140775302783755
0.65004 0.332085 0.27476477530278376
0.558398 0.332085 0.25056177530278373
0.62471 0.332085 -0.008380224697216249
0.630027 0.332085 -0.054101224697216246
0.683373 0.326777 0.27404577530278373
0.50797 0.326777 0.11779877530278376
0.507809 0.332085 -0.029914224697216246
0.756974 0.326777 0.12121377530278377
0.566588 0.332085 0.07947277530278375
0.698633 0.332085 0.13532677530278375
0.486097 0.326777 0.025942775302783758
0.499252 0.326777 0.22242577530278373
0.660813 0.332085 0.16426877530278378
0.596258 0.332085 0.13214177530278376
0.481936 0.326777 -0.007850224697216246
0.4977 0.326777 0.06841477530278375
0.751181 0.332085 0.05472977530278375
0.784568 0.326777 0.14929177530278376
0.650644 0.326777 -0.05477222469721625
0.732466 0.332085 0.05342677530278376
0.523323 0.332085 0.18747377530278375
0.558796 0.326777 0.2730587753027838
0.545883 0.332085 0.18186577530278375
0.480471 0.332085 0.18849677530278375
0.536547 0.326777 0.12555477530278375
0.720543 0.414766 0.37751777530278374
0.54314 0.430268 0.3790907753027838
0.645448 0.414754 0.38055677530278376
0.598455 0.426141 0.3859957753027838
0.686115 0.423118 0.3713127753027838
0.523023 0.428306 0.3609307753027838
0.574861 0.416708 0.38432877530278375
0.708261 0.418572 0.3551817753027838
0.702928 0.427317 0.38493277530278375
0.734114 0.419061 0.35888577530278376
0.541857 0.416323 0.3629227753027838
0.356348 0.385767 0.25605
0.355418 0.323039 0.25605
0.330065 0.358289 0.25605
0.318988 0.323874 0.25605
0.341098 0.370987 0.234819
0.34284 0.343579 0.234819
0.314755 0.375155 0.25605
0.355473 0.326358 0.234819
0.860612 0.304135 0.161555
0.860612 0.332499 0.203892
0.874766 0.313729 0.183685
0.860612 0.327103 0.17543
0.860612 0.329713 0.136739
0.846647 0.238921 0.213589
0.864737 0.205565 0.213589
0.866948 0.285502 0.234819
0.870141 0.218898 0.234819
0.839382 0.329526 0.21702
0.868348 0.306644 0.234819
0.414771 0.336827 0.225946
0.353879 0.352105 0.213589
0.414017 0.385701 0.213589
0.37695 0.314199 0.213589
0.410195 0.299493 0.213589
0.385725 0.361636 0.213589
0.380933 0.335322 0.234819
0.365911 0.362157 0.234819
0.413085 0.360142 0.213589
0.397067 0.361414 0.234819
0.411904 0.314678 0.234819
0.395469 0.286661 0.234819
0.403691 0.318623 0.213589
0.815044 0.246869 0.213589
0.436678 0.273606 0.213589
0.691849 0.261655 0.213589
0.497148 0.279008 0.218301
0.614569 0.275925 0.213589
0.773536 0.236547 0.221999
0.788239 0.276491 0.213589
0.729994 0.255401 0.213589
0.653756 0.244628 0.213589
0.712619 0.279008 0.225489
0.588168 0.279008 0.226136
0.778046 0.259766 0.234819
0.542652 0.279008 0.219013
0.416238 0.279008 0.229508
0.835808 0.266679 0.213589
0.71187 0.236547 0.230405
0.636411 0.279008 0.227918
0.42236 0.254003 0.213589
0.812911 0.272771 0.213589
0.608632 0.268483 0.234819
0.793101 0.236547 0.234097
0.466431 0.269145 0.213589
0.762328 0.278719 0.234819
0.793029 0.246373 0.213589
0.718928 0.260296 0.234819
0.815313 0.243367 0.234819
0.657073 0.270968 0.234819
0.743059 0.279008 0.218619
0.533277 0.271009 0.234819
0.676161 0.274057 0.213589
0.756074 0.236547 0.231333
0.738247 0.238555 0.213589
0.776175 0.262498 0.213589
0.6267 0.463006 0.216367
0.564744 0.460955 0.213589
0.536152 0.420545 0.225927
0.592211 0.422882 0.213589
0.795802 0.420545 0.227029
0.662021 0.458959 0.213589
0.595007 0.463006 0.22744
0.506003 0.420545 0.217162
0.576787 0.438006 0.234819
0.688281 0.427819 0.213589
0.539564 0.445418 0.213589
0.769353 0.420545 0.229081
0.668067 0.440875 0.234819
0.622443 0.438123 0.213589
0.66527 0.424021 0.213589
0.615953 0.457088 0.234819
0.782808 0.436908 0.234819
0.729289 0.436158 0.234819
0.696786 0.443815 0.234819
0.794905 0.460792 0.234819
0.644684 0.44652 0.213589
0.586651 0.449349 0.213589
0.633984 0.420545 0.214825
0.568231 0.420545 0.227708
-0.8357425390377843 0.03989899999999999 0.23574588431649707
-0.976195134137261 -0.23928 0.3929509369033095
-0.9737845388928821 0.111783 0.41091450524503326
-1.1388212481745876 -0.179367 0.5528712911147682
-0.8587949166991996 0.251757 0.2905954936601878
-1.0286175950629506 -0.06807099999999999 0.4478030058387156
-0.8868619348646806 -0.121954 0.2892344953873886
-0.9161062808013871 -0.372859 0.3198342202184102
-1.0890843726354356 0.173235 0.5008292755830568
-0.91741350053368 -0.004043000000000019 0.3519308553469015
-0.9630228814211811 0.25247 0.3790104318771734
-0.8804709831596691 0.128453 0.3132761742452432
-1.1419365824961463 -0.304181 0.556131010897958
-1.049770645202638 0.04530200000000001 0.4904223167410269
-1.0608232013461198 -0.2517789999999999 0.48150123565770603
-1.1126342027742315 -0.06332300000000002 0.5357135059663383
-0.8955356808878238 -0.23688899999999996 0.3085531842643804
-0.8310108507561389 -0.38090799999999997 0.23733550282586965
-0.947723236917014 -0.1054 0.3836453479547426
-1.010416144657955 -0.165786 0.4492438650110439
-0.9761018667514998 0.014074000000000003 0.41333923360006064
-1.0763314723999464 -0.13748299999999997 0.4977282638798127
-0.9449084413387151 0.17017 0.34997126581651067
-0.9620431255646305 -0.31876 0.3679000860922054
-1.0295516577132775 0.167548 0.44544130730476494
-1.0329254450849978 -0.316482 0.44206756712946693
-1.1051039297026737 0.015434000000000003 0.5483201163143967
-0.927364744763755 -0.18440799999999996 0.36234330689653194
-0.884629537047749 0.048626 0.3031712646682141
-0.8558847840395402 -0.320532 0.2875504859585254
-1.0995641696491654 0.09379300000000002 0.5220377199520109
-0.8712783541100224 -0.015278000000000014 0.272928667108425
-0.8513192106455771 -0.238369 0.25204448323244627
-0.9369760589680578 0.067078 0.37240007378585416
-1.0720533286609597 -0.02673399999999998 0.49325184230130054
-1.0734496641939744 0.238975 0.4844699500177866
-1.044885878368879 0.11276999999999998 0.48531115708985095
-0.9126717438946522 0.219339 0.3162405038639554
-0.8902432804859332 -0.058479 0.3235013852928008
-1.093467544552155 -0.225414 0.5361444231255559
-0.8188166840616332 0.102858 0.24860085060685747
-0.8390520203862575 -0.130343 0.2392087492003914
-1.0171235383378567 0.06381599999999998 0.43577623752797123
-1.0846404185170624 -0.31218300000000004 0.5269081889383673
-1.1733186298382277 -0.06382100000000002 0.5999283448193209
-0.874536016857006 -0.18312 0.2763373117697114
-0.9742944339315404 0.175436 0.4114480322354954
-1.162601840770224 -0.3719970000000001 0.5777540356740078
-0.9213883327252804 -0.273407 0.35608990788908185
-1.1259260164652134 0.209408 0.539378407984705
-1.028817960322044 -0.007533000000000012 0.44801265736613294
-0.9698014157250433 -0.17951 0.40674677746723564
-1.0062444017806937 -0.262519 0.4448787756229533
-0.9591143382084346 -0.38071099999999997 0.3648355591104042
-0.8658857649816647 0.183208 0.26728614927569116
-0.9627381887877386 -0.03205000000000002 0.3788703065601761
-1.1137251978533942 -0.12728100000000003 0.5394139917097567
-0.8236784306888125 -0.28569700000000003 0.24395444933995097
-0.8412719292740747 0.225448 0.24153154353691592
-1.0293582525584495 -0.37098800000000004 0.4383350470051357
-1.07248515034004 -0.19173999999999997 0.49370367748970007
-0.9837005464739441 -0.33268899999999996 0.4212900870432902
-1.0600024007954438 -0.08602500000000002 0.5011282804290416
-0.9216232437187003 0.12188300000000002 0.35633570623157124
-0.9037955720621964 -0.320989 0.33768178084553274
-0.9881327641880266 -0.096186 0.42592772341702334
-1.1713370751520082 -0.212159 0.586894119333105
-1.1423974317374412 0.038635 0.5873420490571862
-1.1146703344523523 0.131089 0.5583298923441253
-1.1731749082181748 -0.27713399999999994 0.5888171298949335
-1.1287643031428543 -0.029945 0.5730770699571859
-0.9115807987500035 -0.11046099999999998 0.3458278270901509
-1.009393584824972 -0.21281900000000004 0.42768802618746826
-1.1125727083186703 -0.367558 0.5254062180867874
-1.1368804688201282 -0.24858299999999994 0.5508405630440252
-0.8591997927055055 -0.270037 0.2910191343328312
-0.9810723009094682 0.06201200000000001 0.3980541442551696
-1.018464600695949 0.238314 0.4269365103403422
-0.8654041974451542 0.09612199999999999 0.266782262673588
-1.1352326372927568 0.07076100000000002 0.5491163599650924
-1.0303448817792729 -0.119589 0.44961034659231386
-1.1767973739196456 -0.326602 0.5926074849233798
-0.9113396634274846 0.08430300000000002 0.32508962922350315
-0.989868341880587 -0.03125899999999998 0.42774373940623883
-0.9038024720636814 0.171671 0.30696017056237895
-1.051471677160872 -0.323609 0.49220218591517045
-1.1611681927956767 0.217767 0.5762539428485212
-0.9065433336736014 -0.179269 0.3200710054189114
-0.9482414229319106 0.203406 0.38418755018082196
-0.9843734912817029 -0.135565 0.4015083339034466
-0.9213150896715881 0.040553000000000006 0.33552738354368383
-1.0933100160036264 -0.17935 0.5359795936488277
-0.9767983087555209 -0.28802900000000003 0.4140679533919115
-0.9563472279373468 0.025872000000000006 0.3721831457718625
-0.9216508803061615 -0.059977 0.35636462368362887
-0.8865489596570634 0.0034319999999999906 0.31963584488900476
-1.0504677781213456 0.194637 0.4911517594691791
-0.8632029432538733 -0.071552 0.2644789876172024
-1.1715505677901457 -0.129152 0.5871175066502496
-1.1685285069512683 -0.012361999999999984 0.5839553832677542
-1.120247397802013 -0.34633200000000003 0.5641654341693434
-0.8872875383115824 -0.351666 0.28967982414907517
-1.046237992313496 -0.21344999999999997 0.46624005033432225
-0.8332031164602755 -0.192757 0.2348516483449334
-0.9877866067846953 0.220574 0.3948366926838341
-1.1770074119843503 0.07083499999999998 0.5928272575590173
-0.848024238505521 -0.336582 0.24859680001088222
-0.9471352624218576 -0.14232499999999998 0.36254423606477226
-1.0724671926551106 0.127228 0.5141707742433081
-1.1317359180642343 0.168216 0.5454575793435081
-0.9419354384910416 -0.223314 0.35710341746013996
-1.0756232909431744 -0.26685200000000003 0.5174731472682829
-1.102168914968919 0.242427 0.5145202432597145
-1.1716576595665575 0.11108000000000001 0.5872295617769727
-1.0309570382884576 -0.28228800000000004 0.4707367612528345
-0.9002055702056122 -0.299401 0.30319656417708596
-1.0614961522507989 0.150123 0.48220537561530785
-1.1509882558043607 -0.062973 0.5656021993831144
-0.9558193691168388 0.137065 0.37163082243756296
-1.021148813398494 0.210138 0.4604739575176021
-0.8812033435820092 0.219389 0.28331364707860063
-1.0837491324745199 0.009527000000000008 0.505489708012065
-0.9757557123966286 -0.07803100000000002 0.39249114941559415
-0.8666443893074735 0.05302000000000001 0.26807993333467156
-1.0011440695647378 0.11413299999999998 0.43954205984572836
-1.1131273295321038 -0.28248599999999996 0.539985378155516
-1.1344968131516036 0.247863 0.5483464328040596
-0.8954410316726896 -0.14255999999999996 0.32894003508852865
-1.08744345940031 0.04503499999999999 0.5298411415133066
-1.0869791647309626 -0.025917000000000023 0.5293553283187393
-1.0456610785502443 -0.165777 0.4656363985226204
-0.997212067986782 0.144712 0.41494193625679177
-1.009884825167094 0.021052000000000015 0.42820203389779166
-0.9130676471554136 0.18986 0.3473835860108483
-1.0661999055336076 0.084476 0.5076130190529522
-1.0267852954111965 0.02502299999999999 0.46637167186474393
-0.9891642906696338 -0.359848 0.396278227668904
-0.904982563493653 -0.211422 0.3389237854114055
-1.038056877607228 -0.02841300000000002 0.4781656546864248
-0.9982325550757053 -0.132917 0.4364956062714631
-0.9227031433737448 -0.34611699999999995 0.35746565567072086
-1.0921188790840506 -0.09423599999999999 0.5347332514651464
-1.119231080725156 -0.324822 0.5341519854571529
-1.1465111286356537 -0.111174 0.5609175721497877
-0.9071893450024262 0.151926 0.34123284395820264
-0.8391667122242212 -0.03872399999999998 0.23932875662643033
-1.089740741587638 -0.35206599999999993 0.5015160650694241
-0.9967201428268937 0.191947 0.4349130987076125
-1.0916994938693276 0.198087 0.5342944291301728
-1.1306332273699147 0.006496000000000002 0.5750326126525791
-0.9452891444763728 -0.2893160000000001 0.38109844336477183
-1.0344530605053732 0.08970800000000001 0.453908925840672
-0.8886458796337582 -0.02850999999999998 0.3013440634664276
-1.135260273880218 0.03475 0.54914527741715
-1.0811637297175292 -0.22946300000000003 0.5027844803720792
-0.8806208552562681 0.085697 0.3070023866050165
-1.1495179893514273 0.143604 0.5640637909336517
-0.8729489858220492 -0.218557 0.27467672708530533
-0.8698502425983476 0.180685 0.3021631974195181
-0.8863782945841103 -0.08132100000000003 0.2887284399763811
-1.1372839721424413 -0.20672600000000002 0.5819915974902339
-0.8467239370654738 0.074295 0.24723623389157348
-0.9162755579480468 -0.036528000000000005 0.3302542861609856
-1.031869730492442 0.125272 0.4512058670095904
-1.0594303173380777 0.00273000000000001 0.4800437960740044
-0.966183780329458 0.089113 0.38247558989545394
-1.080463148322309 -0.05882399999999999 0.5225373160598652
-0.95122241349309 0.167548 0.386477364425288
-0.9549308589268829 -0.352794 0.3911870194513574
-1.0720036712155223 -0.295985 0.499629041854248
-1.115157429306355 0.09622700000000001 0.55883956243664
-0.863017787263264 -0.05707099999999998 0.2950140803345848
-1.0008241699679548 -0.06188500000000002 0.41872144724071647
-1.1202667342678554 -0.010363000000000011 0.5334568367396156
-1.149082031329608 0.171567 0.5943364577736115
-1.0539458335079515 -0.374327 0.4640621811644564
-0.8782172103068316 0.125927 0.28018911638378
-0.9027612666795425 -0.268453 0.31611365210483267
-0.8197181638585012 0.249232 0.2497076623233834
-1.1753830715563212 0.243718 0.5911276343143335
-1.0492268861989595 0.22755 0.45912452622562594
-1.0907805773362442 0.165092 0.5333329238492585
-0.9680375044334149 -0.20847900000000003 0.3844152279922156
-0.8655624169083693 -0.291583 0.26694781508661763
-0.9393983967136476 -0.31595600000000007 0.34420584881253213
-0.8927036276846623 -0.3506059999999999 0.3260757614622261
-0.8409734541294942 0.158271 0.24121923505469414
-1.0510847588394956 -0.09654499999999999 0.4713114484889189
-1.0425740778277537 -0.06060399999999999 0.48289221222523504
-0.8657738368024471 -0.3688489999999999 0.267169033594858
-0.9537044792613739 -0.07084200000000002 0.36941791441885713
-1.143225829301209 0.11244500000000002 0.5574800100364439
-0.9492121489211032 0.21592 0.354474436038176
-1.0561747273351536 0.082708 0.4766373202216223
-1.0400425603193917 0.053578000000000015 0.459757480519316
-0.8853784990560403 -0.19830200000000003 0.30245547705297016
-0.9159563614597906 -0.15473399999999998 0.350406182687166
-0.8723126533957561 0.022196999999999995 0.27401090275167966
-0.8545540732079051 -0.10086699999999998 0.2554292709957851
-1.0147018884584935 -0.040045 0.4537282388888719
-0.8630675239753136 -0.15594400000000003 0.2643372921021203
-1.0505596606292735 0.186053 0.4605190703511024
-0.9349343999724448 -0.08938799999999997 0.3497779039176555
-0.8398037355652008 0.008226000000000011 0.23999530389635734
-0.879041480673241 0.232517 0.31178041903756526
-1.1007138577844695 0.22834 0.5437265790550514
-1.1150517859665352 -0.20278599999999997 0.5381461632599762
-0.9459600226369924 -0.16846299999999997 0.38180041451346947
-1.1274432001235772 -0.38090799999999997 0.5548344799872156
-1.0870178468080278 0.215215 0.49866697310545177
-1.1488940933894916 -0.2742649999999999 0.5634109794534519
-0.9945099067446879 -0.30505299999999996 0.4326004254793081
-0.8915185962407973 -0.38090799999999997 0.30319927242922434
-0.8291134658030332 -0.25591 0.2387601527266271
-0.9528539602337968 -0.35152500000000003 0.35828503328306266
-0.8796633038911169 -0.167319 0.31243106170886065
-1.1547689409690465 -0.147387 0.5695581068245903
-1.1306249363936764 0.231231 0.5750239374169619
-1.0309086681634803 -0.23413500000000004 0.45020026261428825
-1.122423079004512 -0.09362799999999999 0.5357131209364077
-1.1099838601336272 0.050864999999999994 0.5534262154114625
-1.028826948309889 -0.346513 0.46850794863549716
-0.9932994181169691 0.088785 0.410847947981741
-0.9842968058484185 -0.237027 0.4219139810714323
-0.9446631696734575 0.09312599999999999 0.35995756997822237
-0.9432088003552345 -8.500000000000174e-05 0.3789216821611381
-0.9848258043612335 0.25247 0.4155143953369148
-1.0526821505462902 -0.32803200000000005 0.46273993066912394
-1.0744411359145236 -0.16764 0.5162362032565202
-0.9294091613211939 0.035519999999999996 0.3644824754124908
-1.1342328837413496 -0.04474699999999998 0.5480702711369099
-0.9886474956294906 0.05901200000000001 0.4264663109615956
-1.114318658876909 0.18959 0.5579619177666928
-0.8666865351033517 0.151553 0.26812403244905936
-0.8496810610691976 -0.12210500000000002 0.2810592409079018
-1.0874013044590514 -0.32296300000000006 0.4990682027527506
-1.0944299826135695 -0.20386900000000002 0.5166655802960154
-0.9652047603155669 -0.010290000000000021 0.4019370822537599
-1.1459915699367644 0.070139 0.5911027636972734
-0.912622698097289 -0.24741799999999997 0.34691801503272135
-1.1719630438580033 -0.170734 0.5875490996222089
-0.9696176324184266 0.144208 0.40655447641105275
-0.9210974576422518 0.222138 0.35578555170617593
-0.9146339446528542 0.12462000000000001 0.32853658950876574
-0.9395483252006243 -0.375875 0.34436272598994444
-1.1657959393660469 -0.04355700000000001 0.5810961701955617
-1.167179454766405 0.132442 0.6057955923373237
-0.8840001753784584 -0.321301 0.31696893287299516
-0.8612338455426465 -0.09745799999999999 0.29314745880426857
-0.9493683047856392 -0.245288 0.3853666592884695
-0.9750647977100998 -0.267739 0.39176821311415483
-0.9220741991149431 -0.295985 0.33370774900537425
-0.8966473626184488 -0.10497899999999999 0.30971638877339625
-1.1012859351449154 0.07624700000000001 0.544325170312643
-0.9555305728747899 0.046086000000000016 0.3918145281610067
-0.8874374667985591 0.004522999999999999 0.28983670132648753
-1.0076953226224044 -0.32798600000000006 0.4463969418559759
-1.1159858360155033 -0.16457700000000003 0.5597063630620658
-0.983524357131959 -0.03443299999999999 0.40061984518897775
-1.0716774680230279 -0.340504 0.4826156184045949
-1.157010268212146 -0.18896600000000002 0.5719033121864594
-1.1498814196219218 0.009004000000000012 0.5951728950743769
-0.9948933582987911 -0.168649 0.4125157620291615
-0.9005683095614202 0.240279 0.3343049453815098
-0.8380578032977228 0.169712 0.2688972835087884
-1.086073369480003 -0.09775300000000003 0.507921665730107
-1.0352904491054462 -0.18906700000000004 0.45478512463801646
-1.109848090468775 -0.255187 0.5431193671736109
-1.0569672125775225 -0.11326399999999998 0.49795242125681866
-0.981072297861008 -0.31740399999999996 0.3878111977064469
-1.0017838474190832 0.175662 0.40948265921469296
-1.0661052441246328 -0.165781 0.4870280836822095
-1.0204212710881988 0.204684 0.42898386594601834
-1.0329697089698864 0.25247 0.44554701258937784
-0.828013976499653 -0.352644 0.25838795849476515
-1.1488367474705097 -0.01403500000000002 0.5633509757404325
-1.0029003746978942 0.163127 0.4413797639239871
-0.962067307578659 0.184391 0.36792538886275583
-0.8631241881249894 -0.23366199999999998 0.29512541252500646
-0.8341582808069541 -0.319687 0.264817031023465
-1.023150393245368 -0.145777 0.4625683039828718
-0.9413067122232206 -0.20261400000000002 0.3769314385232757
-0.8544062266103684 -0.34876499999999994 0.2860034022734453
-1.1244965231241655 -0.13507399999999997 0.5686114924231952
-1.0708704827176223 0.062168 0.49201417535323644
-0.9617025137695521 -0.149914 0.398272518141764
-0.9524414872143993 -0.26679099999999994 0.36809638685982615
-0.9266904120297028 -0.29980099999999993 0.3616377210663271
-1.0066838235213262 -0.35824300000000003 0.4453385631106688
-0.8699428160209622 -0.25491499999999995 0.27153123123774286
-0.8274895722525776 0.027082999999999996 0.2578392498419727
-0.9303943995672638 -0.13085200000000002 0.3450274894808978
-0.8448080397851097 0.199968 0.2759603711738504
-1.1206080461230008 -0.176649 0.5338139672725266
-1.0087005943459235 -0.3398689999999999 0.4167199745284019
-1.0889932330562266 -0.38090799999999997 0.5133476256171907
-0.9286788553521524 0.238052 0.3329894920957013
-0.8480898754007413 -0.015259999999999996 0.248665478959519
-1.028115997097451 0.145383 0.46776404718131603
-0.9993013909503851 -0.29949700000000007 0.40688514908362156
-0.9676022342778219 -0.11559000000000003 0.4044456712197543
-0.98833312944712 0.226971 0.4261373749444407
-0.8581751662253833 -0.157331 0.2899470197977967
-1.0962236032367185 -0.153586 0.5390282160319972
-1.0245619258530263 -0.09486699999999998 0.44355936974926685
-0.9089408076358565 0.021597000000000005 0.3225795943849058
-1.0763805334396102 -0.3364960000000001 0.5182654854546603
-1.1508638911607854 0.049622 0.5654720708488554
-1.0132910345716812 -0.23827899999999996 0.4317661098638874
-1.076587110833962 -0.065886 0.49799575031134524
-1.0427889110554063 0.167548 0.4787155905420686
-1.0874165137275353 0.019255999999999995 0.5298129469975504
-1.052586122550243 -0.280283 0.49336828216939205
-1.168422106089543 0.145802 0.5838440510773325
-0.8481320211966196 0.182928 0.24870957807390678
-1.0997327589295987 0.117285 0.5427000095070076
-1.0116763639008033 -0.369817 0.419833661178701
-0.931606960939042 -0.01941100000000001 0.3667821357873692
-0.9978822552327149 -0.273607 0.4156431844691879
-1.1146592798173678 -0.008562999999999987 0.5583183253633024
-0.9078235955392793 -0.336404 0.31116765983675576
-0.9910318361157814 -0.011502999999999985 0.4084752710404172
-1.145127917433223 -0.22621799999999997 0.5594702536743063
-0.8912962253228227 0.191268 0.2938743005700261
-1.0396943393173812 -0.04527999999999999 0.45939312062339055
-0.9848377859510503 -0.217308 0.40199414709801384
-0.908141425440463 0.066027 0.342229050181586
-1.1301710054446268 0.155945 0.5745489682669163
-0.8604800576196434 0.056027999999999994 0.2923587352993982
-1.1426226607798693 0.187886 0.5568488866452872
-0.8433156640622074 -0.025617 0.2743988287627416
-1.1719132416682296 -0.250929 0.6012714829699328
-1.1128027859577445 0.153555 0.5358899024238895
-0.8871714646442455 -0.253539 0.28955837085043346
-1.004598642997382 -0.011185 0.4431567413529249
-0.8625196377742766 0.11285600000000001 0.29449284326124714
-1.0091075522416693 0.139901 0.44787462365611785
-1.1745418380602628 0.18012 0.5987593171697141
-1.1106961931754382 -0.312885 0.5541715627382464
-0.8520287800286422 -0.21361599999999997 0.2527869388140245
-1.146368809355609 -0.03245999999999999 0.5914974869178593
-1.0301735410339339 -0.371511 0.4699169514870023
-0.8642987430920884 -0.01258300000000001 0.29635440423745335
-0.8915643002211959 0.141119 0.2941547998549845
-1.0485352836462043 -0.141561 0.46864381353660794
-0.8457352472944314 -0.182118 0.276930551690382
-1.1073051838939547 -0.10585700000000003 0.5506233913707823
-0.978435770465674 0.037829 0.3952954193288772
-0.9297145364672592 -0.3473589999999999 0.33407317361155886
-0.9236338054564992 0.146541 0.3584394508687596
-1.0009015585097663 -0.07499699999999998 0.43928830920392314
-1.1219684662861564 -0.28521199999999997 0.5659662684962288
-1.078143050708025 0.145896 0.49962380286218655
-1.15034156880315 -0.13858200000000004 0.5956543706511354
-0.9583059710736561 0.113039 0.3742326701864429
-1.0329088722779016 0.239249 0.4727790563044006
-0.9978490913277616 -0.19254900000000003 0.41560848352671886
-0.8698295060123714 -0.11265399999999998 0.2714126696843068
-1.021361615121945 -0.306112 0.4606966218984454
-0.8453289894587525 0.227675 0.2765054651451357
-1.0154985039466808 -0.313398 0.4238329447982633
-0.8477983094030261 -0.28116899999999995 0.24836039984031158
-1.1048420730364794 -0.363115 0.5480461234561512
-0.996023009908186 0.08321800000000001 0.4341836559794602
-1.0094226093387264 -0.200094 0.4482042826095741
-0.8786096589941604 -0.08443299999999998 0.31132858384916573
-1.090221621257922 -0.286773 0.5122621752839486
-0.8306062884035093 -0.134915 0.2611004154977654
-0.8742783148243111 0.019407000000000008 0.30679649617544263
-0.937850750864283 -0.04281499999999999 0.35282941804603085
-1.0551763617100398 0.248995 0.496078570363488
-0.9068722090643891 -0.07516600000000001 0.3204151230983966
-0.8892587270576295 0.182225 0.3224712010632498
-1.1428969539104212 -0.20236000000000004 0.5571358923569587
-1.1289536137669631 0.200233 0.5732751545037802
-1.108843841755474 0.208299 0.5215045308679196
-0.9836597733620585 0.250936 0.3905185941553371
-1.0243622576055398 -0.25232800000000005 0.4638363342555963
-0.8924589371923368 0.10271 0.29568865861310667
-0.8295809710087003 -0.044819 0.2600275780264295
-1.056466299429789 0.131753 0.4974282924382752
-0.877246484317639 0.159693 0.30990223052642596
-0.8187633197617182 -0.312244 0.2487085643547943
-0.8468476199397428 -0.05595699999999998 0.2780944791356993
-1.143466967672188 -0.3096400000000001 0.5884611544518143
-1.1590830122717326 0.245929 0.5740721210907773
-0.9639631866238745 0.240637 0.4006379657200735
-0.823238162481236 0.06607000000000002 0.24437521638404705
-1.1030995861970536 -0.025061999999999973 0.5462228781039213
-0.9802434984447896 -0.38090799999999997 0.39236433701111084
-0.8735486997699562 0.242437 0.2753042357949546
-0.9117321090663533 0.103632 0.3459861501401661
-1.0118808837933961 0.182293 0.4507764899700952
-0.9995943418259334 0.040752999999999984 0.41743462062415454
-1.1407323181975264 -0.3412490000000001 0.5548709329245494
-1.034381902389581 -0.319358 0.4743203564990692
-1.161752024851174 0.218266 0.6075936636694055
-0.8919290248833818 -0.050700999999999996 0.2961950990783323
-1.0809053337216876 0.06601400000000002 0.5229999952927864
-0.9710298620376916 -0.31296000000000007 0.40803215821119476
-1.1626329410764982 -0.20881100000000002 0.6085154074537407
-0.8861820839585166 -0.123921 0.3192519657129405
-0.8204242786681336 0.139266 0.25044650322345435
-1.0572193964381056 -0.05197600000000002 0.49821629300684406
-0.8585876331478606 -0.189788 0.2596497731235878
-0.9275913586840162 -0.210374 0.3420945369059586
-0.8605470763442368 0.201202 0.29242886012063785
-0.9697544243809789 0.204272 0.37596877815256957
-0.8544580452118581 0.007069999999999993 0.28605762249605327
-0.8545969099184699 -0.13385600000000003 0.25547409304647434
-1.0775543974920225 0.10023199999999999 0.5194937542308058
-1.134208701727321 -0.134191 0.5480449683663594
-1.125410603254443 0.027962999999999988 0.5695679371499994
-0.8487662900242334 0.12382300000000002 0.2801020732447962
-1.1464455008858139 0.225811 0.5915777328473191
-0.8987809132673701 -0.2836389999999999 0.33243470916968626
-1.0790122274805984 -0.24475600000000003 0.5210191498268426
-0.935471246780798 0.171832 0.3708255185213193
-0.9124658513180666 0.24614 0.3160250688461265
-1.12480604375835 0.129806 0.5382065282400719
-1.0911025435801667 -0.004170000000000007 0.5336698121657291
-1.0277498123135906 0.07293 0.4673808909415533
-1.1532033374347526 -0.23181599999999997 0.598648772811697
-1.1538970157800275 -0.16258 0.599374600858342
-1.1592778502133338 0.09753400000000001 0.5742759891277833
-1.0487011092678915 -0.179792 0.4893032113463988
-1.0639779239017306 -0.215287 0.5052880559075233
-1.0602974213665917 -0.350729 0.5014369742297562
-1.0135708550197255 -0.27931 0.43205889906597034
-0.8480311567977667 0.03007399999999999 0.2793328690200648
-1.045864213565004 -0.223219 0.486334834892689
-1.177547707269216 0.015259999999999996 0.5933925937467428
-1.1178640081791342 -0.14881899999999998 0.535458505129379
-1.0051589656627766 0.220593 0.413014203047224
-0.986507035833704 -0.09517500000000001 0.4037407612022912
-1.1645609794825917 0.158224 0.6082980853319313
-1.0734551915114665 -0.36676900000000007 0.48447573350819817
-1.1608697176510963 0.032726000000000005 0.5759416343662994
-0.8570924937662122 0.025145 0.25808533896727315
-1.004857045090144 -0.11288399999999998 0.44342711952966324
-1.06394821457021 0.184044 0.5052569696465614
-0.9194116166617411 0.199406 0.3232927474844959
-1.136725013015659 -0.07101000000000002 0.5506779023762014
-0.8762280760696955 -0.364284 0.3088366224181044
-0.8922622985183453 0.029230000000000006 0.2958765874078425
-0.8780276827430054 0.210624 0.3094806975855955
-1.1656895385043216 -0.350428 0.5809848380051401
-0.903419017461118 0.042090000000000016 0.3168018874638029
-1.0243553484586745 -0.10391899999999998 0.4638291048925819
-0.9719895425372802 -0.36889199999999994 0.4090363167338939
-1.0172838366420518 0.056315000000000004 0.45642985184735063
-0.9393058171941128 -0.11308299999999999 0.354351921896862
-1.104567088991241 -0.08169500000000002 0.5477583948081783
-1.0754021921465649 -0.257812 0.49675591455437684
-1.103113398393864 -0.11379299999999998 0.5257514437325046
-1.0620896540634475 0.160339 0.5033122709956898
-0.9113120268400234 -0.24796999999999997 0.3250607117714456
-0.8620083609062452 -0.18657799999999997 0.293957870398182
-1.1199765500995134 0.1893 0.5331532034930111
-1.1142958586922536 0.249791 0.5579380608687452
-1.0924221906314369 0.250668 0.5350506205014782
-1.130942066234793 0.098496 0.5753557651793225
-1.0524520851010566 -0.149972 0.49322803252691283
-0.8386664899911743 -0.10576000000000002 0.2388053507441882
-0.8971075087512168 0.234867 0.29995491780143213
-1.1104066938248625 0.04255700000000001 0.533382759330498
-1.1242256754216657 0.010527000000000009 0.5375992617468628
-1.0724927564985123 0.044961 0.5141975228864614
-0.8484367145733788 -0.15994599999999998 0.24902839298284152
-1.1559186321528108 0.10328700000000002 0.6014899124763535
-1.10532155868355 -0.32635300000000006 0.517819001603182
-0.8955032048490968 -0.32445399999999996 0.29827625970949007
-0.9389893843646029 0.150981 0.3745067101682482
-0.9955462787744811 -0.15402100000000002 0.4336848299314671
-0.9167980917247308 0.167548 0.3301048590810293
-1.1183389773291799 0.08533099999999999 0.5350045741803295
-0.848970100711379 0.095498 0.24958649980755265
-1.095473263790228 -0.16382400000000003 0.5177572141111888
-0.8886023489600468 -0.17650499999999997 0.2910555719307143
-0.9629558269139952 -0.010651000000000022 0.37909803149512944
-0.830372097903839 0.187146 0.2375572702573804
-0.9757342940413463 0.009439000000000003 0.39246873839024954
-0.9882059950478785 0.127771 0.40551846156753046
-0.9049583814796245 -0.05901099999999998 0.3388984826408551
-0.930892549056251 -0.020973999999999993 0.3455487265542355
-0.8968822797087889 -0.10027199999999997 0.33044808021333105
-1.1132214863547012 -0.04041699999999998 0.5568138949200071
-0.9474772621432294 0.190994 0.352659142985262
-0.9453342976482826 -0.295985 0.3524040799079696
-0.8708714145050374 -0.21366999999999997 0.30323169727304544
-1.0373472990787826 0.195053 0.4466943594586785
-0.8694267118955055 -0.25505700000000003 0.3017200374667358
-1.131852691791638 -0.09559299999999998 0.5763085952246195
-1.0933797922900457 0.128562 0.5155667171178276
-0.9696328325415302 -0.3378149999999999 0.4065703810096844
-1.113117849151722 -0.212407 0.5567054544747913
-0.9480396758434442 -0.309776 0.3839764527808017
-1.1543930833795748 0.06981700000000002 0.5691648294766074
-0.8537795578443064 -0.38030099999999994 0.2546188594018717
-0.8525165749427119 -0.3693699999999999 0.28402617148900877
-0.84539117178054 0.091082 0.27657052941226523
-1.0525805891358306 -0.282858 0.4728766055815351
-1.060351312712141 0.209475 0.5014933632612684
-1.1237524080067738 -0.18182899999999996 0.567832890026545
-0.9939620113982706 -0.17501099999999997 0.4320271369922668
-1.1653345213251318 -0.08114199999999999 0.6075588066173454
-1.0379145491818031 0.091921 0.4780167298083283
-0.839067920569428 -0.338915 0.26995421638149264
-0.9373346375934459 -0.26111199999999996 0.3522893846288556
-0.8288886326132856 0.08499699999999999 0.23897502719413757
-1.1542825370297303 -0.293175 0.5690491596683771
-0.8545388822301819 -0.037995 0.28614220604332163
-0.9275195096535375 -0.20969 0.36250524462805434
-1.1476642743928507 -0.011141000000000012 0.5928529924830581
-0.9551035815015949 -0.12555100000000002 0.37088186042927174
-0.8489922099813481 -0.08220900000000003 0.24960963376919876
-1.1681533402764832 -0.296086 0.5835628288560726
-0.9880235905221747 0.20037 0.3950846598352278
-0.8798090777445942 -0.23639300000000002 0.28185476162229617
-1.104063330417563 -0.295985 0.5280292073616705
-1.044379428758273 -0.30497199999999997 0.4540524051347278
-1.105476332718713 -0.236298 0.5487097789808725
-1.0461679905721748 0.25247 0.4635847198923222
-1.153596458746007 0.200296 0.5683312839210478
-0.9753826184659031 0.11881799999999998 0.3921007638128169
-0.8814760889008708 -0.06469600000000003 0.3061850345308529
-1.0912096353565788 -0.36664500000000005 0.5337818672924523
-1.0015717396587789 0.11424600000000001 0.41950366431887387
-0.9305899253750912 0.187602 0.33498913390548235
-0.9806805522822063 -0.19363400000000003 0.39764423937225357
-0.9841185437623738 0.156867 0.4012415704082155
-1.0330988677197768 0.012163000000000007 0.4524919706898509
-0.9705351671221369 -0.066002 0.40751453581936414
-1.0276606843190286 -0.17407500000000004 0.46728763215866753
-0.9782285021566356 0.07671800000000001 0.41556443153589084
-1.0480854981852739 0.145862 0.46817318200437097
-1.0526172076142166 0.019919999999999993 0.4729149212055114
-1.015023157690809 -0.14302900000000002 0.43357851117159574
-1.0578267104475645 -0.003300000000000025 0.4988517540158092
-0.9047041157296015 0.194896 0.30790360243575726
-0.8531936621901298 0.049817 0.2540058094182511
-1.0634631863633466 -0.23180799999999996 0.4842635752655056
-1.007555066941039 0.013537999999999994 0.4462501857867837
-1.1724539980217061 -0.151082 0.6007546787844094
-1.0250987726613794 0.167169 0.4646069843529306
-0.9676139737305727 0.15699 0.3839720680394333
-0.9676602711114903 0.09423999999999999 0.4045063978690752
-0.8588287715188395 -0.13772599999999996 0.2906309175389583
-1.1332801123886262 -0.320556 0.5470733419772249
-1.0416738159912065 -0.35250700000000007 0.4819502262244596
-0.9517429785632389 -0.26450499999999993 0.3878513913565165
-1.1157552029878357 0.107487 0.5374739032699836
-0.9006304857862876 -0.202249 0.31388411655119386
-0.8539882232250184 -0.30127 0.28556602581107454
-0.9895297936841879 0.10022 0.4273895006185336
-0.8250865709728302 0.181378 0.2553248773855668
-0.884932219290586 0.03606899999999999 0.31794417394363683
-0.8729690314933389 0.067971 0.30542653188421515
-1.0576228845181181 0.05949299999999999 0.47815259470943916
-1.1154821592090236 -0.264396 0.5591793424983165
-1.0095483497147546 -0.08799099999999999 0.42784996391899066
-1.0005630103133671 -0.375867 0.4389340704162179
-1.083829975589764 -0.112259 0.526060184656779
-1.1515188782836148 -0.31766200000000006 0.5661574144626198
-0.989711504246745 0.16621 0.42757963286581213
-1.1180765514517574 -0.04479099999999997 0.5352553762115395
-1.146226480930184 -0.363431 0.5913485620397629
-0.8369613216902015 0.013484999999999997 0.26774998359840424
-1.022844999808542 0.185772 0.4315199264914674
-1.0359523423266808 0.226687 0.44523475106607246
-0.9093076802859432 -0.35635199999999995 0.31272052701224745
-0.9367294024249669 -0.09464600000000001 0.3721419855262402
-0.8963081235073631 -0.136874 0.30936142704938957
-1.039764809566947 -0.33291 0.44922391357741465
-0.9258495688561973 -0.248349 0.3607579075874755
-0.9351941899915 -0.12972699999999998 0.37053562106444216
-1.0552198832383708 -0.015374999999999972 0.4756382222530332
-0.8870429545125511 -0.30044299999999996 0.2894239046983657
-1.0588361307076628 -0.04947800000000002 0.47942207085476657
-0.9078118530380683 0.10261300000000001 0.321398316468354
-0.8778274293875066 -0.011641000000000012 0.309672080953764
-0.846215433001569 -0.07797300000000001 0.27743299241988234
-1.046695377835978 0.109599 0.466718634165875
-1.0616516080552678 -0.122925 0.48236803628313174
-0.8950002281026842 0.158771 0.32847880172821037
-1.1138446914019502 0.230899 0.5574659834639054
-0.911220832198322 0.012591999999999992 0.34545117727710106
-0.9757605548963546 -0.25128600000000006 0.41298210306714966
-0.9878750530099514 -0.07432699999999998 0.42565806817658647
-1.106801507087475 0.20499 0.5500963708070331
-0.8796260949054876 0.251416 0.3079530852136802
-1.0317066746264212 0.039090000000000014 0.4510352540424507
-0.9577014268198636 0.224138 0.394085994020129
-1.0738552402603472 -0.142712 0.5156231532728996
-1.1131475523863223 -0.221391 0.5362506476383078
-0.8787636318978705 -0.04266700000000001 0.3087773464347091
-0.8850876659496745 -0.013960000000000028 0.2873779949652925
-1.0178116893656395 0.15204 0.43649628208420477
-0.9233422333618637 -0.16630700000000004 0.3376484786521068
-0.9119573472541617 -0.335536 0.3462218273744353
-1.1072036133381147 0.008838999999999986 0.5300312266370253
-1.09763652377067 0.095921 0.5405066207684406
-0.9095750734150103 -0.22927400000000003 0.34372914300707264
-0.956955929873099 0.004021999999999998 0.3933059457508761
-1.1000243188303935 0.151488 0.5225191955287695
-1.0158467340940718 -0.224294 0.45492614434035683
-1.0328238897714586 -0.193446 0.47269013513932345
-1.1168771068157448 -0.35004399999999997 0.5299101112447544
-0.9893653498918739 -0.11845800000000001 0.40673154868134564
-1.1508127634739824 -0.165051 0.5654185735625489
-0.8838751198201967 -0.18475800000000003 0.31683808140243463
-0.9680844927290191 -0.09551799999999999 0.404950280758159
-0.8265976013922689 -0.26837400000000006 0.2569059390768146
-1.0643966182017672 -0.33027 0.5057261553061956
-1.113981492509883 0.075042 0.5576091248515904
-1.0757870316269615 0.02387800000000001 0.49715859007427854
-0.858777634686656 0.08013799999999999 0.25984858060648364
-0.8491898207270756 0.182722 0.28054523319757857
-1.0750864441348214 -0.11066300000000001 0.4964255326646191
-0.8867244519874418 0.05607200000000001 0.3198194707095704
-0.9678958730195967 -0.22376999999999997 0.40475291914786593
-1.100782258338436 0.135562 0.5437981497488938
-1.179190354324514 0.046983 0.5300772935132944
-1.1748160850658536 0.165316 0.5480515560420531
-1.1827692708672122 -0.09231800000000001 0.5323240668397338
-1.184191163017213 -0.02291399999999999 0.5406202249092119
-1.1787961530944462 0.105216 0.5454525892304574
-1.1692493513744733 -0.141579 0.5383247489601146
-1.1704002613039384 -0.05990200000000001 0.5336961522684316
-1.183002219881213 0.139666 0.5327501792156115
-1.1770292991002118 0.016492000000000007 0.5300276415494097
-1.184596322104903 0.081733 0.5356599948627663
-1.177247986262621 -0.118786 0.5454175255621305
-1.1693078548649145 0.12361 0.5357416432050968
-1.1692847672805642 -0.009315999999999991 0.5367610297674218
-1.1799199555224873 0.030059000000000002 0.544862701018396
-1.170006182940571 0.06124299999999999 0.5410401942238895
-1.155810758549134 -0.15356399999999998 0.5514461278844022
-1.1609117190372942 0.15289 0.5447632036667989
-1.1549102685385113 -0.12771099999999996 0.5629120921151491
-0.8166 0.169289 0.229088
-0.813863 -0.066815 0.234819
-0.78222 0.141881 0.234819
-0.814918 0.133227 0.213589
-0.810798 -0.219984 0.234819
-0.800891 0.203426 0.234819
-0.813841 0.223221 0.234819
-0.798338 -0.244464 0.234819
-0.813155 -0.031425 0.234819
-0.790413 0.242574 0.234819
-0.8166 -0.253091 0.230971
-0.815083 -0.360308 0.234819
-0.814287 0.120979 0.234819
0.8796453738463725 0.156059 0.2502718521372803
0.5091422811415856 -0.08296799999999999 0.3103167580843132
0.7337744571654814 -0.268904 0.2788887435945391
0.6200656299798236 0.171133 0.30933330879199583
0.5029870949694725 -0.330103 0.33324296510131945
0.7435442955846703 -0.032436999999999994 0.26244742317119896
0.6431195466640567 -0.15396499999999996 0.29740219486594355
0.6139349086260356 0.026165999999999995 0.3033622512070944
0.7393959168472015 0.11547299999999999 0.2632946007502916
0.8108803477158086 -0.38090799999999997 0.2651580224393716
0.8733891111631058 -0.033393000000000006 0.25759985167589683
0.5163260111612173 0.097662 0.30884970423218583
0.4998089188711256 -0.20582300000000003 0.3122228075926827
0.7566429435159928 -0.15894999999999998 0.2597724309522831
0.6203857649338992 -0.262395 0.30204486406001224
0.8228984502150595 0.058779 0.24624180047732272
0.6149122220593849 -0.065498 0.28871653106594075
0.4898798517654317 0.007091000000000014 0.3142505113211959
0.7067815818189384 0.039993 0.2844012004447995
0.8046243938011536 -0.08879799999999999 0.2716429105353769
0.6994805308269636 0.198888 0.29311528056909175
0.8002878977472951 0.190597 0.2725285052366202
0.6495689184934295 0.09948200000000001 0.2816389766663977
0.44173335337545483 -0.252156 0.3457521403232643
0.5646501312873129 -0.15269300000000002 0.3134271370322051
0.5289512037420094 0.173779 0.32794060188782037
0.7005016819059411 -0.09375099999999997 0.2712375408441133
0.6893880635736058 -0.208034 0.27350715238866874
0.8172958586598411 -0.20068000000000003 0.2690551571980115
0.670194975686921 -0.31647200000000003 0.29909594609556306
0.5936802168007889 -0.328973 0.3147217103519781
0.5492264708987362 -0.2674480000000001 0.31657694087020144
0.5588101515569145 -0.018996000000000013 0.30017363739065617
0.6730061806046693 -0.02629999999999999 0.2768526434426199
0.7747041654447833 -0.323022 0.2560839870474664
0.8181894159126922 0.125248 0.26887267586779595
0.4733678175687197 -0.14144600000000002 0.3299029185062462
0.5899754250062764 0.090203 0.30825523196267585
0.8135139167782565 -0.001224999999999976 0.26982750142458156
0.3938290828012794 0.035428000000000015 0.35553510049675907
0.414816900688695 -0.16794199999999998 0.351248990217651
0.7672906923689133 0.043429999999999996 0.2720440929980343
0.5497746417040716 0.044211 0.3020188597889539
0.4587513347913837 0.1254 0.3206075445912367
0.6121825614163552 -0.20260899999999998 0.2892739795154807
0.5578837865634207 -0.21059900000000004 0.31480895289456073
0.6448023000338674 0.218024 0.282612410516725
0.6780843683695017 0.148724 0.2758155812337306
0.4142221756311505 -0.35672199999999993 0.35137044434861675
0.8642526842082414 -0.31814800000000004 0.25946568325951497
0.47225652227484144 0.065639 0.3244612332185983
0.43866860876260594 0.0017630000000000146 0.34637801927163503
0.4575548035059804 -0.084285 0.3425211002790536
0.5425289629635119 0.228079 0.3251677660609271
0.49457545115445933 -0.270383 0.3277377151224945
0.5727612060781279 -0.09895100000000001 0.29732456758699527
0.7339561911149326 0.16921 0.26440549586581413
0.6693817602046114 -0.374982 0.29926202011319336
0.742566982151321 -0.21273800000000004 0.27709314331235263
0.47619529677577044 0.193121 0.31704515686847673
0.7947969712247701 -0.24872699999999998 0.26642678941857106
0.7544874325990275 -0.10022799999999998 0.26021262714359245
0.7586777161772411 -0.38090799999999997 0.27812237319243843
0.5042623007420066 -0.38090799999999997 0.31990100496655305
0.4510610597062651 -0.3015860000000001 0.3221780445483218
0.8595918817391486 -0.11421700000000001 0.2604175074786325
0.5756378333745871 0.195603 0.29673710576077517
0.46957885803837635 -0.040767 0.3183963590866186
0.6654638519506697 -0.26728100000000005 0.2783929299338469
0.7353580302621621 -0.333315 0.2857884150539253
0.8197700200523912 -0.04821700000000001 0.2468806852222549
0.6087101786570395 -0.38090799999999997 0.3094691589148524
0.6573561915698114 0.031312000000000006 0.2800486678807037
0.6861910489726704 -0.148818 0.2741600433760517
0.875426068979638 0.052598000000000006 0.25718386627510953
0.8028137646309027 -0.148604 0.27201267533607676
0.44825301684807295 -0.18884099999999998 0.32275150013209114
0.3997763333767246 -0.227495 0.354320559187101
0.4136078550198154 -0.29294900000000007 0.3514959002631399
0.5546466010772146 0.126203 0.31547004753823626
0.4077184113280523 -0.11317499999999997 0.3526986363113038
0.652927121336249 -0.10741499999999998 0.295399302195486
0.8203410077188994 -0.30191699999999994 0.2684332800331981
0.874186650202383 -0.23818299999999998 0.25743697908511237
0.8302379648873265 0.163834 0.24474293244591433
0.5157758808005029 -0.037187000000000026 0.32340818549178907
0.40133342285187484 -0.07264100000000001 0.33233337068182867
0.6275219609236322 -0.013191999999999982 0.28614138334678096
0.7150687719447959 -0.38090799999999997 0.28900716666459414
0.5292576218084315 -0.12602799999999997 0.3206549584043269
0.6258240061876772 -0.315571 0.28648813789202604
0.5961612366371656 0.137692 0.29254583775197646
0.4288845487549624 0.142496 0.34837610980182376
0.7840776986005139 0.10145799999999999 0.2541697338828043
0.41049706085555854 0.08096399999999998 0.35213118340287053
0.4015595287716687 -0.025297999999999987 0.35395639688338143
0.6916121589288382 0.10373399999999999 0.27305294995490864
0.5215555893910386 -0.16835499999999998 0.3222278594315464
