-0.045822 -0.168737 -0.146634
-0.223061 -0.339629 -0.146634
-0.050062 -0.241809 -0.146634
0.123163 -0.12067 -0.146634
-0.233924 -0.260865 -0.146634
0.041814 -0.155812 -0.146634
0.039175 -0.223471 -0.146634
-0.171783 -0.460984 -0.146634
-0.136421 -0.140091 -0.146634
0.164072 -0.122585 -0.146634
-0.090096 -0.463258 -0.146634
0.146644 -0.364772 -0.146634
-0.079319 -0.373 -0.146634
0.012519 -0.125369 -0.146634
0.067565 -0.367338 -0.146634
0.228828 -0.379279 -0.146634
0.162626 -0.162618 -0.146634
-0.145475 -0.383528 -0.146634
-0.032924 -0.421968 -0.133838
0.058731 -0.501366 -0.146634
-0.200692 -0.279073 -0.133838
0.019281 -0.193714 -0.133838
0.134382 -0.513023 -0.146634
0.086923 -0.428483 -0.133838
-0.010202 -0.449067 -0.146634
0.185897 -0.247215 -0.146634
-0.000623 -0.495279 -0.133838
-0.098064 -0.127674 -0.146634
-0.156598 -0.226639 -0.146634
-0.092044 -0.240464 -0.133838
-0.234247 -0.41946 -0.133838
-0.218907 -0.218537 -0.146634
-0.214448 -0.135034 -0.133838
0.191306 -0.102715 -0.135445
-0.032954 -0.198965 -0.133838
0.103873 -0.500211 -0.133838
-0.209112 -0.392997 -0.146634
-0.028844 -0.132986 -0.146634
-0.164384 -0.494241 -0.133838
0.163002 -0.413343 -0.146634
0.236588 -0.483958 -0.133838
-0.068066 -0.439507 -0.133838
-0.108311 -0.389936 -0.133838
-0.060698 -0.497611 -0.146634
0.076361 -0.148958 -0.133838
-0.210466 -0.454208 -0.146634
-0.239993 -0.49116 -0.146634
-0.163497 -0.164189 -0.146634
0.094415 -0.121337 -0.133838
-0.111307 -0.215756 -0.146634
0.08927 -0.394471 -0.133838
-0.243899 -0.130023 -0.146634
-0.19432 -0.16421 -0.133838
-0.006876 -0.38121 -0.133838
-0.098 -0.490366 -0.133838
-0.142996 -0.512989 -0.146634
0.131757 -0.392339 -0.133838
-0.123875 -0.274182 -0.133838
0.024502 -0.389896 -0.146634
-0.154444 -0.115741 -0.146634
-0.191588 -0.216747 -0.133838
-0.068799 -0.149262 -0.146634
-0.060404 -0.413478 -0.146634
0.209101 -0.493641 -0.146634
-0.095444 -0.176836 -0.133838
-0.225266 -0.517237 -0.133838
0.10371 -0.456013 -0.146634
0.244405 -0.139137 -0.146634
-0.022816 -0.476032 -0.133838
-0.075246 -0.260701 -0.146634
0.015127 -0.442039 -0.133838
-0.123934 -0.441845 -0.133838
-0.003386 -0.206541 -0.146634
0.050358 -0.450505 -0.146634
0.172795 -0.376622 -0.146634
0.184723 -0.467259 -0.133838
-0.156945 -0.20139 -0.133838
0.241873 -0.458689 -0.146634
0.227003 -0.117942 -0.133838
-0.200227 -0.114583 -0.146634
0.205713 -0.388648 -0.133838
0.137333 -0.150928 -0.146634
-0.215793 -0.366115 -0.146634
0.194535 -0.43913 -0.146634
0.148624 -0.43247 -0.133838
0.045234 -0.481715 -0.133838
-0.225469 -0.291124 -0.146634
-0.130705 -0.116459 -0.133838
0.029964 -0.507566 -0.133838
0.241259 -0.358003 -0.133838
0.224328 -0.438367 -0.146634
-0.243852 -0.46462 -0.146634
0.151994 -0.474615 -0.133838
-0.072963 -0.221755 -0.133838
-0.143217 -0.461743 -0.146634
0.247168 -0.241481 -0.133838
0.229067 -0.407323 -0.146634
-0.175794 -0.404582 -0.146634
-0.069343 -0.474096 -0.133838
-0.128459 -0.410556 -0.146634
0.189031 -0.520721 -0.139551
0.210068 -0.361841 -0.146634
0.1614 -0.252809 -0.146634
-0.058379 -0.368165 -0.133838
0.225414 -0.160802 -0.146634
-0.060606 -0.184067 -0.133838
-0.182436 -0.269309 -0.146634
-0.008747 -0.128921 -0.133838
0.171233 -0.212082 -0.146634
-0.114319 -0.102715 -0.144775
0.112557 -0.409685 -0.133838
0.213443 -0.246211 -0.146634
-0.077468 -0.107572 -0.133838
-0.215924 -0.18375 -0.133838
-0.217861 -0.248765 -0.133838
-0.169971 -0.4327 -0.146634
0.033442 -0.137691 -0.133838
-0.102881 -0.150717 -0.146634
-0.052378 -0.202437 -0.146634
-0.134869 -0.163353 -0.146634
-0.215972 -0.426219 -0.146634
-0.241142 -0.202849 -0.133838
0.072081 -0.486146 -0.133838
-0.145942 -0.258026 -0.146634
0.045631 -0.380264 -0.146634
0.056761 -0.427467 -0.146634
0.186596 -0.16042 -0.146634
-0.246166 -0.280822 -0.146634
-0.085356 -0.348671 -0.146634
0.181209 -0.40779 -0.133838
0.164481 -0.102715 -0.134041
-0.225495 -0.116505 -0.146634
0.068382 -0.444835 -0.133838
0.069702 -0.392329 -0.146634
0.023118 -0.486033 -0.133838
-0.027147 -0.49813 -0.133838
-0.11951 -0.503404 -0.146634
-0.230655 -0.385016 -0.146634
0.156283 -0.391838 -0.146634
-0.159015 -0.365662 -0.146634
-0.153526 -0.146873 -0.133838
-0.127939 -0.37841 -0.133838
-0.178704 -0.511234 -0.133838
0.028547 -0.178105 -0.146634
-0.246527 -0.356065 -0.146634
-0.03228 -0.447759 -0.146634
0.16557 -0.14054 -0.133838
0.093342 -0.361208 -0.133838
0.188692 -0.36841 -0.133838
0.224676 -0.343408 -0.146634
0.035402 -0.20129 -0.146634
-0.177673 -0.234363 -0.133838
-0.057952 -0.391732 -0.146634
0.238276 -0.190563 -0.133838
-0.04019 -0.112771 -0.146634
0.07706 -0.510177 -0.133838
0.248873 -0.28281 -0.146634
-0.202045 -0.198462 -0.146634
-0.174319 -0.106936 -0.146634
0.137846 -0.131184 -0.133838
0.118185 -0.446275 -0.133838
-0.120242 -0.458879 -0.146634
-0.183261 -0.47925 -0.146634
-0.153238 -0.403598 -0.146634
-0.005635 -0.477187 -0.146634
0.167946 -0.515858 -0.146634
-0.140552 -0.232241 -0.133838
-0.221183 -0.473393 -0.146634
-0.006738 -0.517604 -0.146634
-0.083043 -0.392422 -0.133838
-0.102062 -0.364809 -0.133838
0.148949 -0.504489 -0.133838
0.10898 -0.136395 -0.146634
-0.228024 -0.31909 -0.146634
-0.127825 -0.212784 -0.133838
-0.057888 -0.514149 -0.133838
-0.036824 -0.216632 -0.146634
0.10972 -0.515817 -0.146634
0.256115 -0.382785 -0.139473
0.111167 -0.393095 -0.146634
0.119667 -0.495388 -0.146634
-0.094852 -0.216085 -0.133838
0.069099 -0.416657 -0.133838
-0.101493 -0.444365 -0.133838
0.242894 -0.155398 -0.133838
0.025598 -0.41808 -0.146634
-0.193 -0.364916 -0.146634
-0.130045 -0.355309 -0.133838
0.006001 -0.181439 -0.146634
-0.113806 -0.131199 -0.133838
-0.203253 -0.505509 -0.133838
-0.11026 -0.170791 -0.146634
-0.054524 -0.133862 -0.133838
-0.041677 -0.152084 -0.133838
0.103319 -0.435162 -0.146634
-0.146166 -0.439911 -0.146634
0.0214 -0.374477 -0.133838
-0.113303 -0.430292 -0.146634
-0.103653 -0.274263 -0.133838
-0.238477 -0.23627 -0.146634
0.212332 -0.448304 -0.133838
-0.017833 -0.41815 -0.146634
0.007261 -0.463708 -0.133838
-0.207777 -0.413073 -0.133838
0.045268 -0.11705 -0.133838
-0.20479 -0.376773 -0.133838
0.00031 -0.141263 -0.146634
-0.182337 -0.441721 -0.133838
-0.23038 -0.442006 -0.133838
0.248398 -0.212657 -0.146634
0.07879 -0.377601 -0.133838
-0.041287 -0.484191 -0.133838
0.190769 -0.1434 -0.133838
-0.168296 -0.255506 -0.146634
-0.225981 -0.200207 -0.146634
-0.20877 -0.229422 -0.133838
-0.095944 -0.510665 -0.133838
-0.092204 -0.108335 -0.146634
0.15213 -0.201173 -0.133838
0.14616 -0.452557 -0.133838
-0.106368 -0.243831 -0.146634
-0.205695 -0.173345 -0.146634
0.042241 -0.426966 -0.133838
-0.077594 -0.24053 -0.146634
0.030054 -0.403217 -0.133838
-0.211298 -0.352404 -0.133838
-0.142863 -0.286648 -0.133838
-0.020532 -0.372709 -0.146634
-0.232183 -0.356551 -0.133838
-0.076008 -0.414552 -0.133838
-0.187808 -0.38963 -0.146634
0.221913 -0.501805 -0.133838
0.051749 -0.145678 -0.133838
-0.02737 -0.163883 -0.146634
-0.051917 -0.424696 -0.133838
0.253562 -0.185063 -0.146634
0.090312 -0.147589 -0.146634
0.053979 -0.514473 -0.133838
0.227775 -0.283304 -0.146634
0.225578 -0.137383 -0.146634
-0.127683 -0.227064 -0.146634
0.233529 -0.239309 -0.146634
0.010693 -0.389936 -0.133838
-0.050767 -0.444329 -0.146634
-0.023771 -0.188705 -0.146634
0.140163 -0.403235 -0.146634
-0.04307 -0.368657 -0.146634
0.009653 -0.520721 -0.135761
-0.076016 -0.518915 -0.133838
0.208332 -0.268151 -0.133838
0.083552 -0.130156 -0.146634
-0.025072 -0.119907 -0.133838
0.207314 -0.122865 -0.146634
0.145849 -0.486681 -0.146634
0.174085 -0.4299 -0.146634
0.023939 -0.147313 -0.146634
-0.011848 -0.147216 -0.133838
-0.07863 -0.456373 -0.133838
-0.164619 -0.419594 -0.133838
-0.08767 -0.135916 -0.133838
-0.185313 -0.49224 -0.133838
0.053883 -0.471811 -0.146634
-0.108743 -0.335391 -0.146634
-0.114898 -0.253953 -0.133838
0.180849 -0.112687 -0.146634
-0.156716 -0.134294 -0.146634
0.146431 -0.213434 -0.146634
-0.107766 -0.462172 -0.133838
0.056168 -0.387556 -0.133838
-0.147148 -0.182917 -0.146634
0.042167 -0.177302 -0.133838
-0.214394 -0.276848 -0.146634
0.175445 -0.166616 -0.133838
0.252459 -0.120638 -0.146634
-0.154112 -0.486734 -0.146634
0.224566 -0.257112 -0.133838
-0.118291 -0.197502 -0.133838
-0.017891 -0.220962 -0.146634
0.184634 -0.502038 -0.133838
-0.042806 -0.497456 -0.146634
-0.131544 -0.49017 -0.146634
0.173677 -0.474943 -0.146634
0.154303 -0.461935 -0.146634
-0.19753 -0.258446 -0.133838
-0.219384 -0.503976 -0.146634
-0.180181 -0.170384 -0.146634
-0.121883 -0.166587 -0.133838
0.137315 -0.437448 -0.146634
-0.077972 -0.50178 -0.146634
-0.078527 -0.180528 -0.146634
-0.171004 -0.149792 -0.133838
-0.094386 -0.406026 -0.133838
0.244174 -0.416518 -0.146634
0.164729 -0.355012 -0.146634
-0.041895 -0.406756 -0.133838
-0.246631 -0.322462 -0.146634
-0.194125 -0.188012 -0.133838
0.064285 -0.148977 -0.146634
-0.204718 -0.44359 -0.133838
-0.243047 -0.411237 -0.146634
-0.193091 -0.40349 -0.133838
0.207891 -0.160801 -0.146634
-0.225492 -0.401744 -0.146634
-0.071219 -0.356313 -0.133838
0.08819 -0.406287 -0.146634
-0.244512 -0.508121 -0.133838
0.044851 -0.128903 -0.146634
-0.00941 -0.409844 -0.133838
-0.160418 -0.471921 -0.133838
-0.15772 -0.503869 -0.146634
-0.164806 -0.188987 -0.146634
-0.040744 -0.185338 -0.146634
0.169057 -0.230646 -0.133838
0.155724 -0.24276 -0.133838
-0.247224 -0.146312 -0.142137
0.150604 -0.149057 -0.133838
0.093992 -0.506112 -0.146634
0.244019 -0.39882 -0.146634
0.219462 -0.482506 -0.133838
0.070558 -0.110622 -0.133838
0.223911 -0.462814 -0.133838
-0.095842 -0.377596 -0.146634
-0.147751 -0.276328 -0.146634
-0.197695 -0.131593 -0.133838
0.088108 -0.492066 -0.133838
0.013506 -0.430149 -0.146634
-0.030729 -0.458962 -0.133838
0.026832 -0.454618 -0.133838
0.057785 -0.459019 -0.133838
0.087672 -0.441957 -0.146634
-0.227493 -0.454268 -0.146634
-0.106102 -0.230863 -0.133838
0.041787 -0.500519 -0.146634
0.117212 -0.364588 -0.133838
0.233939 -0.513718 -0.133838
-0.038899 -0.358396 -0.133838
0.073659 -0.427963 -0.146634
-0.041279 -0.511076 -0.133838
0.01111 -0.218433 -0.146634
0.227475 -0.176337 -0.133838
0.200122 -0.379204 -0.146634
0.256115 -0.22796 -0.138361
-0.209385 -0.47929 -0.133838
-0.224118 -0.153245 -0.133838
-0.164621 -0.211894 -0.146634
0.117694 -0.19774 -0.146634
-0.016325 -0.196749 -0.133838
0.1362 -0.376172 -0.133838
-0.236764 -0.429993 -0.146634
0.152201 -0.414024 -0.133838
0.200359 -0.487334 -0.133838
-0.052519 -0.457075 -0.133838
-0.117079 -0.264461 -0.146634
0.21436 -0.346263 -0.133838
-0.242138 -0.251661 -0.133838
0.207821 -0.104398 -0.133838
0.147016 -0.125721 -0.146634
-0.164716 -0.282811 -0.146634
0.232374 -0.431424 -0.133838
0.198382 -0.18133 -0.146634
0.08457 -0.520721 -0.144501
-0.000928 -0.437924 -0.133838
0.005824 -0.155852 -0.133838
-0.164031 -0.124384 -0.133838
-0.223138 -0.373564 -0.133838
-0.016406 -0.48968 -0.146634
0.217554 -0.369065 -0.133838
0.116658 -0.112048 -0.133838
-0.095801 -0.478707 -0.146634
-0.132613 -0.285251 -0.146634
-0.086403 -0.226649 -0.146634
0.196852 -0.429083 -0.133838
-0.184294 -0.279482 -0.133838
0.096212 -0.447616 -0.133838
-0.194609 -0.450113 -0.146634
-0.143749 -0.373456 -0.133838
0.128355 -0.484043 -0.133838
-0.064419 -0.235685 -0.133838
-0.111347 -0.369024 -0.146634
-0.129278 -0.42693 -0.146634
-0.077614 -0.436148 -0.146634
0.009975 -0.138312 -0.133838
-0.044817 -0.136598 -0.146634
0.073527 -0.130495 -0.133838
-0.137908 -0.407217 -0.133838
0.197982 -0.471108 -0.146634
-0.014986 -0.4277 -0.133838
-0.011035 -0.464895 -0.133838
0.244796 -0.468196 -0.133838
-0.074025 -0.482849 -0.146634
0.19392 -0.507006 -0.146634
-0.121152 -0.417179 -0.133838
-0.120097 -0.138731 -0.146634
0.148846 -0.165044 -0.133838
-0.151173 -0.216376 -0.133838
0.245918 -0.251098 -0.146634
-0.211623 -0.266124 -0.133838
-0.116641 -0.480191 -0.146634
0.135769 -0.467573 -0.133838
0.103386 -0.425577 -0.133838
0.213704 -0.393927 -0.146634
0.215264 -0.154696 -0.133838
-0.230457 -0.490328 -0.133838
-0.244868 -0.448691 -0.146634
0.212642 -0.130714 -0.133838
-0.174655 -0.368565 -0.146634
0.233857 -0.111534 -0.146634
-0.163189 -0.380967 -0.146634
0.08362 -0.369564 -0.146634
0.159935 -0.196014 -0.146634
0.2479 -0.364569 -0.146634
-0.105046 -0.452981 -0.146634
0.014857 -0.490255 -0.146634
0.242039 -0.378332 -0.133838
-0.069897 -0.199573 -0.133838
-0.050982 -0.223638 -0.146634
-0.004833 -0.120563 -0.146634
0.207782 -0.508814 -0.133838
-0.062823 -0.383279 -0.133838
0.228602 -0.231554 -0.133838
0.008437 -0.381149 -0.146634
0.011016 -0.200334 -0.146634
0.195506 -0.34672 -0.133838
0.005722 -0.399268 -0.146634
-0.118966 -0.382665 -0.146634
0.022057 -0.426273 -0.133838
-0.220579 -0.209792 -0.133838
0.051086 -0.496821 -0.133838
0.166244 -0.382548 -0.133838
-0.074792 -0.165437 -0.146634
-0.162146 -0.234567 -0.133838
-0.243951 -0.312337 -0.133838
0.039513 -0.467293 -0.133838
0.254431 -0.29065 -0.133838
-0.23514 -0.465241 -0.133838
-0.231082 -0.186908 -0.133838
0.218245 -0.111927 -0.146634
0.076218 -0.493777 -0.146634
-0.223142 -0.108219 -0.133838
-0.038091 -0.375685 -0.133838
0.063614 -0.40227 -0.133838
-0.045337 -0.519852 -0.146634
0.151502 -0.445954 -0.146634
0.172148 -0.174645 -0.146634
-0.184092 -0.423379 -0.133838
0.164332 -0.237622 -0.146634
0.166077 -0.427414 -0.133838
-0.110609 -0.397965 -0.146634
0.231289 -0.145459 -0.133838
-0.142574 -0.416374 -0.146634
0.05926 -0.366716 -0.133838
0.235854 -0.198527 -0.146634
-0.234549 -0.505382 -0.146634
0.256115 -0.106738 -0.141649
0.256115 -0.148302 -0.136332
-0.025195 -0.155954 -0.133838
0.237327 -0.224585 -0.146634
0.170803 -0.149808 -0.146634
-0.20755 -0.139436 -0.146634
0.12892 -0.413447 -0.146634
-0.140235 -0.263883 -0.133838
0.059643 -0.213268 -0.146634
0.172875 -0.354409 -0.133838
-0.146054 -0.447964 -0.133838
0.077021 -0.214956 -0.146634
0.229794 -0.479788 -0.146634
-0.209044 -0.237359 -0.146634
0.251102 -0.487952 -0.133838
0.242208 -0.163277 -0.146634
0.022999 -0.442648 -0.146634
0.042279 -0.373117 -0.133838
0.214314 -0.209264 -0.146634
-0.125875 -0.122687 -0.146634
0.006912 -0.104542 -0.133838
-0.014187 -0.137335 -0.146634
-0.204957 -0.288522 -0.146634
-0.12399 -0.233933 -0.133838
0.11439 -0.489556 -0.133838
0.104414 -0.379675 -0.133838
0.244617 -0.443795 -0.146634
0.210697 -0.402672 -0.133838
-0.247224 -0.4262 -0.136765
-0.067542 -0.156694 -0.133838
-0.060986 -0.486353 -0.133838
0.254327 -0.350981 -0.133838
-0.240378 -0.217662 -0.133838
0.133188 -0.431218 -0.133838
-0.015231 -0.38654 -0.146634
0.18756 -0.441635 -0.133838
0.154035 -0.509776 -0.146634
0.113684 -0.105345 -0.146634
-0.195593 -0.358062 -0.133838
0.187137 -0.451879 -0.146634
-0.099658 -0.1828 -0.146634
-0.074306 -0.267929 -0.133838
0.113349 -0.460147 -0.133838
-0.148684 -0.158391 -0.146634
-0.184571 -0.127415 -0.146634
-0.240753 -0.342624 -0.146634
0.040424 -0.420139 -0.146634
0.202978 -0.459529 -0.133838
-0.161275 -0.25558 -0.133838
-0.195307 -0.109627 -0.133838
-0.068989 -0.27383 -0.146634
-0.131578 -0.263462 -0.146634
0.149956 -0.10288 -0.133838
-0.084075 -0.450058 -0.146634
-0.238751 -0.285518 -0.133838
0.06679 -0.410229 -0.146634
0.227059 -0.497538 -0.146634
0.217417 -0.417504 -0.146634
-0.11101 -0.341668 -0.133838
-0.209422 -0.427466 -0.133838
0.170703 -0.121885 -0.133838
0.114109 -0.474289 -0.146634
-0.239537 -0.102715 -0.137499
0.028207 -0.520475 -0.146634
0.009875 -0.11935 -0.133838
-0.039412 -0.167286 -0.133838
0.199951 -0.251191 -0.146634
0.010894 -0.503887 -0.133838
0.237544 -0.399627 -0.133838
0.166572 -0.407986 -0.133838
-0.163327 -0.14699 -0.146634
0.004203 -0.441768 -0.146634
-0.007894 -0.10966 -0.133838
-0.165936 -0.102715 -0.135863
-0.226657 -0.395639 -0.133838
-0.025175 -0.208579 -0.146634
-0.095 -0.495527 -0.146634
-0.247224 -0.114417 -0.14006
-0.16895 -0.490408 -0.146634
0.02901 -0.151075 -0.133838
0.15055 -0.426899 -0.146634
-0.114544 -0.117141 -0.133838
0.028268 -0.172276 -0.133838
0.011381 -0.154328 -0.146634
0.256115 -0.422522 -0.135916
0.063879 -0.461136 -0.146634
0.048613 -0.41452 -0.133838
-0.197207 -0.520721 -0.136927
0.077123 -0.142543 -0.146634
-0.147953 -0.244072 -0.133838
-0.247177 -0.187816 -0.133838
-0.17747 -0.239811 -0.146634
0.132583 -0.132499 -0.146634
-0.104736 -0.155796 -0.133838
-0.247224 -0.471982 -0.134905
-0.170745 -0.126771 -0.146634
-0.184149 -0.435862 -0.146634
0.256115 -0.259905 -0.143512
-0.182184 -0.49645 -0.146634
-0.163903 -0.394778 -0.146634
-0.035662 -0.184369 -0.133838
-0.121986 -0.143539 -0.133838
-0.078126 -0.11268 -0.146634
0.024195 -0.192289 -0.146634
-0.120159 -0.517549 -0.146634
-0.146642 -0.388482 -0.133838
-0.064596 -0.347142 -0.146634
-0.097679 -0.211867 -0.146634
0.104583 -0.141107 -0.133838
-0.235999 -0.340872 -0.133838
0.037166 -0.405152 -0.146634
-0.173523 -0.465731 -0.133838
0.141827 -0.102715 -0.144921
0.010088 -0.415491 -0.133838
-0.082136 -0.210881 -0.133838
0.147426 -0.356535 -0.133838
-0.056081 -0.373026 -0.146634
-0.112124 -0.510259 -0.133838
-0.15711 -0.361155 -0.133838
-0.220256 -0.159224 -0.146634
0.051636 -0.140862 -0.146634
0.236289 -0.497622 -0.133838
-0.224095 -0.491148 -0.146634
-0.195576 -0.346717 -0.146634
-0.016978 -0.390957 -0.133838
0.159356 -0.488551 -0.146634
0.231631 -0.387367 -0.133838
0.229595 -0.131975 -0.133838
-0.148309 -0.289853 -0.146634
-0.105849 -0.102715 -0.134238
-0.114998 -0.41688 -0.146634
-0.207976 -0.122823 -0.133838
-0.204891 -0.2144 -0.133838
-0.234506 -0.129601 -0.133838
-0.169731 -0.446511 -0.133838
-0.084241 -0.251458 -0.133838
-0.023495 -0.375711 -0.133838
-0.028415 -0.445691 -0.133838
-0.247224 -0.158585 -0.136662
-0.174433 -0.484368 -0.133838
-0.008049 -0.504259 -0.146634
0.17951 -0.108945 -0.133838
-0.189412 -0.257878 -0.146634
-0.04062 -0.393436 -0.133838
-0.156876 -0.473531 -0.146634
0.165249 -0.135897 -0.146634
-0.151293 -0.210946 -0.146634
-0.095799 -0.381439 -0.133838
-0.112444 -0.356419 -0.133838
0.244364 -0.451877 -0.133838
-0.062628 -0.193954 -0.146634
-0.178073 -0.401761 -0.133838
0.178645 -0.267941 -0.146634
-0.130464 -0.453424 -0.133838
-0.08112 -0.214248 -0.146634
-0.086365 -0.48405 -0.133838
-0.205294 -0.199273 -0.133838
0.058749 -0.102715 -0.138002
0.108118 -0.488984 -0.146634
0.215817 -0.451125 -0.146634
-0.033042 -0.506321 -0.146634
0.136892 -0.184797 -0.146634
-0.029571 -0.461795 -0.146634
-0.065019 -0.461135 -0.133838
0.184437 -0.24979 -0.133838
-0.241887 -0.200026 -0.146634
-0.08424 -0.520559 -0.146634
-0.217362 -0.43789 -0.133838
-0.026312 -0.145828 -0.146634
0.022466 -0.133841 -0.146634
0.214899 -0.244015 -0.133838
-0.064909 -0.252716 -0.146634
-0.077576 -0.41663 -0.146634
-0.209808 -0.354213 -0.146634
0.107068 -0.439529 -0.133838
-0.148332 -0.145239 -0.146634
-0.124662 -0.214452 -0.146634
-0.048349 -0.102715 -0.145987
0.082909 -0.405751 -0.133838
0.235391 -0.512496 -0.146634
0.244736 -0.137293 -0.133838
0.176419 -0.506105 -0.146634
-0.133923 -0.426003 -0.133838
0.135837 -0.40459 -0.133838
-0.070377 -0.28758 -0.146634
0.188358 -0.366841 -0.146634
0.16166 -0.155695 -0.133838
0.212186 -0.349121 -0.146634
0.068299 -0.44632 -0.146634
-0.164664 -0.236671 -0.146634
-0.090827 -0.155223 -0.146634
0.136562 -0.377134 -0.146634
0.256115 -0.472463 -0.139816
0.200396 -0.458512 -0.146634
-0.110714 -0.12975 -0.146634
-0.078101 -0.240174 -0.133838
-0.22693 -0.250134 -0.146634
-0.096069 -0.112709 -0.133838
0.121882 -0.440268 -0.146634
-0.075221 -0.138795 -0.133838
-0.217679 -0.490246 -0.133838
0.230239 -0.253364 -0.146634
-0.187903 -0.250173 -0.133838
0.178596 -0.418042 -0.146634
0.100591 -0.405477 -0.133838
-0.209507 -0.146713 -0.133838
-0.225183 -0.3038 -0.146634
0.041211 -0.471948 -0.146634
0.044551 -0.392608 -0.133838
0.006491 -0.218174 -0.133838
0.220197 -0.520721 -0.135474
0.009162 -0.43037 -0.133838
-0.058106 -0.182204 -0.146634
0.087081 -0.47952 -0.133838
-0.128056 -0.468743 -0.146634
0.121946 -0.511183 -0.146634
-0.206927 -0.40054 -0.133838
-0.213352 -0.119716 -0.146634
0.134312 -0.362552 -0.146634
-0.022617 -0.140828 -0.133838
0.176105 -0.436621 -0.133838
0.095042 -0.364557 -0.146634
0.022563 -0.131607 -0.133838
0.023216 -0.386802 -0.133838
-0.118049 -0.220446 -0.133838
0.256115 -0.509948 -0.137944
0.240583 -0.28637 -0.133838
-0.159116 -0.296989 -0.146634
-0.210005 -0.377034 -0.146634
-0.102623 -0.387913 -0.146634
0.193264 -0.420125 -0.146634
0.127778 -0.458179 -0.133838
0.151862 -0.380332 -0.146634
0.084022 -0.421295 -0.146634
-0.057101 -0.13565 -0.146634
-0.094547 -0.24721 -0.146634
-0.227617 -0.290731 -0.133838
0.130489 -0.240804 -0.146634
0.041657 -0.391855 -0.146634
-0.110427 -0.423093 -0.133838
0.05678 -0.111175 -0.146634
0.041672 -0.511101 -0.133838
0.116698 -0.413487 -0.146634
0.256115 -0.238743 -0.144112
0.138123 -0.143388 -0.133838
-0.057071 -0.458824 -0.146634
-0.055921 -0.440545 -0.133838
0.256115 -0.132199 -0.145393
0.256115 -0.368092 -0.138375
0.246297 -0.383425 -0.146634
-0.171266 -0.199292 -0.146634
0.093119 -0.461981 -0.146634
-0.22025 -0.225464 -0.133838
-0.017878 -0.102825 -0.133838
-0.247224 -0.437719 -0.142128
0.19409 -0.162726 -0.133838
0.188175 -0.205261 -0.146634
-0.235238 -0.375781 -0.133838
-0.051459 -0.489185 -0.146634
-0.142155 -0.208506 -0.133838
0.088824 -0.508062 -0.133838
-0.085036 -0.267543 -0.146634
-0.00702 -0.108822 -0.146634
0.154339 -0.136528 -0.133838
0.110652 -0.503935 -0.146634
0.221378 -0.440603 -0.133838
0.17546 -0.132765 -0.133838
-0.189301 -0.11986 -0.133838
-0.247224 -0.276321 -0.135731
-0.001262 -0.449759 -0.133838
-0.068263 -0.39752 -0.146634
-0.096915 -0.351163 -0.146634
-0.220679 -0.423888 -0.133838
0.201099 -0.353114 -0.146634
-0.203541 -0.51817 -0.146634
0.061794 -0.516008 -0.146634
-0.114875 -0.235716 -0.146634
0.043263 -0.210021 -0.146634
0.012213 -0.367186 -0.133838
-0.223646 -0.174961 -0.133838
-0.026546 -0.362686 -0.146634
-0.013167 -0.460365 -0.146634
-0.177451 -0.222717 -0.133838
0.214804 -0.47005 -0.133838
0.136292 -0.121217 -0.146634
0.017258 -0.400726 -0.146634
0.245001 -0.520721 -0.135174
-0.019471 -0.502118 -0.146634
-0.187361 -0.36626 -0.133838
-0.24564 -0.257604 -0.146634
0.256115 -0.192449 -0.136484
-0.065765 -0.523152 -0.101138
-0.220817 -0.525583 -0.095578
0.218681 -0.523152 -0.099102
-0.108411 -0.523152 -0.081685
-0.009369 -0.523152 -0.099638
-0.123672 -0.523152 -0.08696
0.229795 -0.523152 -0.085157
0.233255 -0.525583 -0.104122
-0.096831 -0.523152 -0.071391
0.104351 -0.523152 -0.10395
0.169233 -0.525583 -0.101853
-0.226639 -0.525583 -0.082901
-0.010919 -0.525583 -0.08288
-0.072592 -0.523152 -0.091018
-0.094842 -0.523152 -0.10411
-0.276682 0.420154 0.084797
-0.276535 -0.629522 0.085013
-0.277201 -0.005729 0.074763
-0.277201 0.684342 0.079308
-0.265682 0.923259 0.083207
-0.276348 0.245488 0.078981
-0.272387 -0.444401 0.059321
-0.26014 0.119756 0.068121
-0.266375 0.333618 0.069446
-0.277201 0.835311 0.077857
-0.276074 0.511331 0.082838
-0.261097 0.592026 0.082587
-0.263904 0.057254 0.084939
-0.2605 0.780638 0.08463
-0.26014 0.637901 0.060999
-0.277201 -0.389352 0.060629
-0.273742 -0.057247 0.084952
-0.275771 0.462381 0.058153
-0.275286 0.881245 0.059417
-0.272187 0.734469 0.084801
-0.263266 0.163661 0.084918
-0.272388 0.551156 0.060081
-0.260993 0.285251 0.064625
-0.276171 -0.134258 0.084976
-0.26014 -0.591687 0.064552
-0.26014 0.207885 0.07661
-0.265905 0.37322 0.083701
-0.273438 0.084064 0.05864
-0.277166 -0.525883 0.060041
-0.265998 0.026878 0.066891
-0.273789 -0.356114 0.070464
-0.26014 0.709408 0.064054
-0.276348 -0.417743 0.078786
-0.261636 -0.03856 0.060561
-0.277201 0.620597 0.083336
-0.263631 0.474786 0.084857
-0.262552 -0.086683 0.083236
-0.260993 0.863031 0.080609
-0.271786 0.805383 0.069051
-0.264706 0.490554 0.058117
-0.261042 -0.626115 0.059702
-0.277201 0.650354 0.082279
-0.271547 0.308503 0.084517
-0.261721 0.416551 0.059992
-0.261114 0.444546 0.074806
-0.277201 0.137485 0.081796
-0.260566 0.097199 0.084813
-0.263822 0.672783 0.057882
-0.271393 0.908979 0.058576
-0.26014 0.230727 0.061112
-0.261011 0.53428 0.082349
-0.277201 0.770791 0.065407
-0.26403 0.25849 0.058416
-0.265933 0.518223 0.05919
-0.274261 0.608669 0.059748
-0.275275 0.560282 0.084841
-0.26014 0.399041 0.082515
-0.276985 -0.140257 0.059224
-0.275954 -0.030747 0.083082
-0.272637 0.892311 0.082971
-0.271505 0.27087 0.083566
-0.260958 0.850956 0.057655
-0.261666 0.737592 0.059613
-0.275943 -0.065338 0.060698
-0.262633 0.051867 0.060424
-0.273183 0.186863 0.073511
-0.276135 0.70952 0.082716
-0.276348 0.362013 0.062357
-0.277201 -0.574989 0.063719
-0.260567 -0.014794 0.058884
-0.277201 0.221679 0.083134
-0.273702 0.204755 0.058485
-0.262509 0.351099 0.084876
-0.262841 0.818339 0.084791
-0.262118 0.666609 0.083035
-0.26014 0.313544 0.062702
-0.272568 -0.113372 0.073798
-0.26014 0.077498 0.074818
-0.265933 0.010508 0.084299
-0.277201 0.112251 0.079662
-0.277201 0.40375 0.067103
-0.268608 0.753803 0.07661
-0.260993 0.822862 0.064084
-0.276074 0.722405 0.057818
-0.276185 0.043263 0.074981
-0.262133 -0.085409 0.060591
-0.269185 0.384811 0.066331
-0.276348 0.940521 0.081675
-0.276348 0.433942 0.066473
-0.277201 0.085116 0.082805
-0.277201 -0.60281 0.060508
-0.277201 -0.472609 0.065089
-0.260993 0.493594 0.078924
-0.26014 -0.411555 0.069064
-0.265933 0.17266 0.059618
-0.277201 0.128687 0.063447
-0.26014 0.57049 0.077363
-0.27172 0.105906 0.060176
-0.277201 0.873478 0.079729
-0.26014 0.613386 0.078812
-0.276552 0.290974 0.073521
-0.276602 0.527621 0.073455
-0.277201 0.502528 0.066319
-0.260993 -0.012917 0.080861
-0.260907 0.28624 0.084888
-0.261436 0.881228 0.07316
-0.261589 0.231696 0.083107
-0.261906 0.843156 0.084786
-0.275741 0.477679 0.06861
-0.26014 -0.039908 0.08029
-0.27471 0.69993 0.057847
-0.260993 0.144704 0.077097
-0.272092 -0.190157 0.060699
-0.277201 0.013028 0.062904
-0.276292 -0.076269 0.075256
-0.26014 0.688353 0.074817
-0.273198 0.242928 0.058436
-0.261757 0.656264 0.06849
-0.276347 -0.410231 0.061832
-0.276346 -0.37493 0.075705
-0.26014 0.251318 0.083182
-0.263578 0.724511 0.073017
-0.277201 0.388429 0.081649
-0.260993 0.005427 0.068123
-0.262062 0.466212 0.069509
-0.276348 0.747169 0.06067
-0.275887 0.028834 0.084944
-0.277201 0.599797 0.074585
-0.26014 0.586671 0.065103
-0.274444 0.628261 0.05794
-0.263709 0.904469 0.074085
-0.274572 0.155154 0.073636
-0.273562 -0.50883 0.061105
-0.277201 0.265118 0.068143
-0.271403 0.79661 0.084076
-0.276734 -0.626115 0.067978
-0.277201 0.326011 0.080698
-0.264577 0.346803 0.058302
-0.262856 -0.129923 0.060645
-0.26014 0.425987 0.074325
-0.26014 0.181555 0.083349
-0.272779 -0.049192 0.069852
-0.260993 0.55115 0.079697
-0.263637 -0.363707 0.059217
-0.260993 0.517188 0.077861
-0.265952 0.867163 0.058464
-0.274235 -0.095962 0.074706
-0.265057 0.628811 0.074256
-0.275983 0.84346 0.057662
-0.273565 0.06747 0.074604
-0.26014 0.365801 0.063489
-0.264051 0.189164 0.058505
-0.276348 0.204665 0.075722
-0.261097 -0.571815 0.061612
-0.277201 0.460355 0.074407
-0.277201 0.491939 0.080161
-0.277201 0.912927 0.07797
-0.26014 -0.060769 0.076652
-0.274705 -0.586983 0.074261
-0.277201 0.34668 0.079912
-0.26014 0.137313 0.062818
-0.273094 0.44111 0.08486
-0.26014 0.042601 0.079735
-0.273351 0.306334 0.068774
-0.271391 0.221266 0.067008
-0.260528 0.092389 0.069531
-0.260993 0.319954 0.08217
-0.262528 0.765723 0.068403
-0.271669 0.783681 0.07416
-0.261854 -0.058751 0.060558
-0.260161 0.714225 0.084102
-0.272836 0.583573 0.073394
-0.276348 0.674814 0.066714
-0.264332 0.459185 0.08309
-0.276722 0.171241 0.084825
-0.264255 0.568772 0.059796
-0.260993 0.158207 0.067374
-0.275002 0.644896 0.068495
-0.260993 0.694639 0.060674
-0.277201 0.550062 0.074216
-0.276348 0.3612 0.07764
-0.26014 0.649157 0.081227
-0.264805 0.765327 0.084801
-0.276348 -0.569454 0.079257
-0.261156 0.622621 0.060104
-0.262187 0.505181 0.069704
-0.26014 0.334871 0.08252
-0.266432 0.836248 0.065901
-0.26014 0.267181 0.075379
-0.26014 0.798379 0.0641
-0.274341 -0.459053 0.061044
-0.277201 0.849561 0.076606
-0.276348 0.821082 0.078914
-0.277201 0.098384 0.076397
-0.260861 0.541101 0.069683
-0.260864 -0.121366 0.073655
-0.277201 0.14227 0.067477
-0.26014 0.453947 0.062706
-0.268842 0.894205 0.065846
-0.275037 0.731656 0.068424
-0.277201 -0.008123 0.060874
-0.26014 0.751575 0.059468
-0.277201 -0.039048 0.061318
-0.271082 -0.557479 0.069477
-0.276862 -0.027433 0.069579
-0.262517 0.48191 0.069521
-0.275613 0.416746 0.05999
-0.26014 0.299953 0.060599
-0.264373 -0.021728 0.070179
-0.276272 0.923003 0.059903
-0.267605 0.699828 0.07443
-0.276906 0.811397 0.057926
-0.274386 0.448372 0.068655
-0.277201 0.009532 0.076919
-0.273246 0.63493 0.08304
-0.276596 0.66041 0.073356
-0.26014 0.217194 0.061073
-0.260993 0.302157 0.079411
-0.274982 0.235748 0.069996
-0.277201 0.763458 0.079813
-0.275963 0.278266 0.069633
-0.260605 0.329065 0.058425
-0.272625 -0.361726 0.085009
-0.264444 0.407604 0.073402
-0.277201 -0.043886 0.083727
-0.267074 0.131286 0.076038
-0.276348 0.472312 0.080647
-0.274447 -0.121193 0.084964
-0.265712 0.104314 0.07389
-0.260588 -0.073661 0.074076
-0.26266 0.559961 0.069351
-0.264144 0.27422 0.058396
-0.270036 0.615778 0.069846
-0.260993 0.070423 0.06401
-0.276348 -0.423721 0.065815
-0.272199 0.321393 0.069707
-0.26599 0.939629 0.074063
-0.276091 -0.587578 0.061408
-0.270647 0.258405 0.076869
-0.276348 -0.618531 0.078441
-0.273484 -0.133028 0.06913
-0.265084 0.386743 0.084875
-0.270188 -0.479518 0.074926
-0.277201 0.57144 0.079213
-0.259953 -0.630381 0.078366
-0.263599 0.72071 0.059612
-0.263793 0.676381 0.07325
-0.260993 0.394375 0.065898
-0.275696 0.931583 0.072864
-0.263244 -0.478282 0.059365
-0.274121 0.047195 0.06043
-0.265012 0.085593 0.084933
-0.271387 0.294636 0.084056
-0.263856 0.854003 0.069198
-0.277201 0.376371 0.062427
-0.277201 0.745252 0.074827
-0.267218 0.351505 0.073581
-0.265845 -0.58001 0.069495
-0.265638 0.013274 0.058926
-0.262172 0.239105 0.073454
-0.260999 0.916278 0.07288
-0.26014 0.065334 0.075372
-0.277201 0.515242 0.062413
-0.260144 0.733968 0.083962
-0.260993 0.885877 0.061988
-0.273614 -0.616751 0.061164
-0.262719 0.17493 0.073709
-0.260993 0.200332 0.061563
-0.265621 0.648432 0.05951
-0.271103 0.713221 0.066895
-0.26014 0.0199 0.079821
-0.277201 0.073057 0.061078
-0.260857 0.556773 0.058044
-0.277201 0.094888 0.061746
-0.277201 0.249767 0.067953
-0.264178 0.279464 0.074472
-0.271389 0.856698 0.05861
-0.2742 0.776302 0.083004
-0.262896 0.682776 0.084817
-0.277054 -0.563868 0.059844
-0.267306 0.014748 0.071534
-0.270035 0.371953 0.072762
-0.26014 0.189152 0.074395
-0.274262 0.590038 0.083051
-0.277201 0.195479 0.082905
-0.274107 -0.103923 0.083228
-0.276587 0.030709 0.069915
-0.274137 0.340134 0.058311
-0.267524 0.814862 0.0743
-0.262929 -0.137347 0.084967
-0.27547 0.417589 0.073551
-0.26014 0.106323 0.060131
0.284929 0.960057 0.083617
0.285806 0.197394 0.080692
0.28573 0.510072 0.084259
0.285806 0.735726 0.077871
0.281452 0.02164 0.083142
0.281468 0.331114 0.084821
0.285806 -0.098172 0.074708
0.278769 0.846369 0.074069
0.283141 0.640251 0.084761
0.283782 0.420314 0.059912
0.285806 -0.386388 0.081562
0.28265 0.108623 0.058544
0.268745 0.264588 0.0642
0.285806 0.574655 0.059823
0.285806 -0.03539 0.062028
0.285806 -0.323349 0.061922
0.268745 0.903269 0.064834
0.270235 0.686221 0.059619
0.268745 0.464318 0.078109
0.284189 -0.172362 0.074695
0.273902 0.069258 0.084847
0.2729 0.151968 0.084849
0.274467 0.776366 0.083427
0.269598 -0.134333 0.075862
0.269804 0.606541 0.07335
0.281833 0.235641 0.08484
0.272315 -0.064901 0.083153
0.285445 -0.45024 0.074343
0.285806 0.810839 0.081212
0.269825 0.301069 0.068449
0.269598 0.542963 0.060734
0.285806 0.934453 0.060463
0.268745 0.397766 0.080743
0.269692 -0.006562 0.070028
0.281019 0.877572 0.084715
0.28514 -0.363393 0.059175
0.27146 0.219958 0.060156
0.284953 -0.416398 0.066084
0.268745 0.48866 0.059714
0.280249 0.672006 0.084502
0.285806 0.70333 0.079263
0.271687 0.652173 0.059631
0.268745 0.136492 0.059695
0.285806 0.626508 0.059367
0.269598 0.35709 0.080137
0.272883 0.876252 0.057555
0.282272 0.554156 0.083001
0.281871 0.046154 0.06982
0.272854 0.721697 0.057754
0.285806 0.274813 0.08304
0.284927 0.121758 0.082449
0.268745 0.094286 0.077396
0.284953 0.443245 0.078085
0.269598 0.93894 0.081279
0.280678 0.517484 0.059772
0.268745 0.793917 0.065037
0.285806 0.588548 0.083049
0.28429 -0.076544 0.060539
0.285197 0.459706 0.058131
0.272084 0.175519 0.074473
0.285806 0.908777 0.083154
0.270554 -0.360993 0.083229
0.283335 -0.021929 0.084882
0.270743 0.015933 0.058664
0.268745 0.752717 0.080942
0.271274 -0.337472 0.074781
0.284953 0.374934 0.079266
0.269647 -0.398827 0.068756
0.283155 0.395106 0.058175
0.284953 0.762616 0.067415
0.284953 0.069528 0.06445
0.281106 0.419543 0.082794
0.285806 0.828266 0.061951
0.269598 0.197948 0.062777
0.285806 0.250583 0.063896
0.271475 0.257798 0.084836
0.269598 0.571186 0.07835
0.268745 0.4356 0.061031
0.270036 -0.043297 0.073716
0.282097 0.323043 0.058268
0.285806 0.295868 0.082726
0.269598 0.815241 0.064052
0.280699 -0.055961 0.060472
0.284953 0.00069 0.082095
0.271619 -0.112417 0.083165
0.285806 -0.324461 0.082526
0.269598 0.715811 0.080348
0.283772 0.290018 0.058311
0.284346 0.53602 0.073067
0.28576 -0.435802 0.05983
0.284953 -0.12265 0.06522
0.285806 -0.194502 0.075276
0.27994 0.486915 0.076473
0.285806 0.146601 0.062583
0.285806 0.598079 0.064411
0.268745 0.693615 0.080895
0.268745 0.156375 0.062265
0.285806 -0.390176 0.061876
0.268745 -0.442885 0.06656
0.270066 0.239631 0.069752
0.269598 0.585857 0.063491
0.268745 0.625625 0.068371
0.279924 0.342455 0.069374
0.270754 0.208312 0.084845
0.285806 -0.462908 0.060142
0.271996 -0.081875 0.074633
0.268745 0.406233 0.063766
0.284584 -0.415311 0.084955
0.268745 0.767408 0.059039
0.268745 0.131096 0.080159
0.269598 0.507674 0.07517
0.285806 0.18192 0.063699
0.282543 0.705853 0.057775
0.27174 0.66865 0.068422
0.270479 0.739923 0.059524
0.284953 0.090787 0.062308
0.268745 0.85775 0.063828
0.285806 0.790073 0.079426
0.270592 0.560813 0.057962
0.285806 0.782203 0.061632
0.285806 0.804245 0.064505
0.272862 -0.100606 0.060545
0.280078 -0.341144 0.059608
0.280933 -0.139508 0.060764
0.269852 0.323435 0.073606
0.285806 0.272485 0.061124
0.269598 0.07828 0.061802
0.27384 0.523238 0.084767
0.269674 0.90088 0.082373
0.27932 0.942448 -0.126397
0.284953 0.206568 0.064177
0.268745 0.282467 0.063707
0.273548 -0.022809 0.060714
0.284953 0.643345 0.067135
0.285067 -0.052925 0.084887
0.285806 0.024294 0.062122
0.274958 -0.372796 0.069917
0.270118 -0.320721 0.069197
0.285806 0.40018 0.074588
0.268745 0.471472 0.061603
0.284953 0.364069 0.065903
0.284953 0.681268 0.067068
0.285806 0.462076 0.078655
0.284953 -0.12827 0.081485
0.285806 0.352684 0.083829
0.271471 -0.464633 0.073811
0.284953 0.93229 0.077528
0.271066 0.819366 0.082929
0.285806 0.142153 0.079082
0.285619 0.17825 0.084519
0.285362 -0.432363 0.084864
0.285806 0.859631 0.066103
0.27419 0.84305 0.057759
0.284953 -0.000225 0.06533
0.272682 0.114573 0.073639
0.284953 0.164794 0.062897
0.270937 -0.421091 0.073696
0.27591 0.888734 0.072906
0.272828 0.28499 0.084825
0.268745 0.430023 0.079439
0.269598 0.93361 0.06565
0.284953 0.483555 0.061117
0.272129 -0.396969 0.084951
0.268745 0.029735 0.076571
0.284568 0.312212 0.082918
0.284804 0.617861 0.073243
0.270417 0.611749 0.057896
0.285806 0.655764 0.080607
0.269598 0.3816 0.079553
0.284939 0.229958 0.069956
0.283796 0.688247 0.084752
0.26967 -0.377045 0.084959
0.285806 -0.367732 0.080645
0.269598 0.871342 0.075295
0.271126 0.01066 0.073725
0.285806 0.443852 0.059232
0.269598 -0.359786 0.062669
0.269598 0.446887 0.077765
0.280739 0.946715 0.068987
0.269598 0.09409 0.061655
0.269598 0.387339 0.063539
0.269693 -0.001002 0.084886
0.283414 0.721292 0.069231
0.285806 0.834074 0.080389
0.281933 0.305655 0.060052
0.269598 -0.0291 0.079672
0.280392 0.05349 0.083264
0.282288 -0.086774 0.084894
0.269598 0.83501 0.078593
0.280761 -0.185044 0.060637
0.283241 0.755353 0.084739
0.283982 -0.159301 0.084907
0.278931 -0.350568 0.0748
0.268745 0.508328 0.059038
0.273027 0.350546 0.058233
0.284092 0.388882 0.084805
0.285806 0.883968 0.062707
0.27097 0.648685 0.07418
0.281572 -0.312248 0.073691
0.284953 0.742525 0.064606
0.270366 0.737051 0.074131
0.269438 -0.148965 0.073671
0.285806 0.211954 0.078377
0.28394 0.552007 0.068521
0.268745 -0.08051 0.060343
0.27181 0.225364 0.074442
0.268745 0.45044 0.063616
0.284953 0.090947 0.07677
0.268745 0.313157 0.060609
0.269623 0.415158 0.075006
0.274013 -0.454041 0.05933
0.268745 0.806304 0.077612
0.269388 0.777337 0.069287
0.269598 0.917706 0.065025
0.285806 -0.018645 0.066499
0.274645 0.269755 0.076081
0.281632 -0.141352 0.084913
0.271446 0.209749 0.069863
0.283402 -0.072681 0.073822
0.269598 0.336684 0.080365
0.281604 0.154211 0.073336
0.269732 0.482763 0.084792
0.273461 0.594537 0.082729
0.280465 0.94659 0.084605
0.280067 0.035234 0.083659
0.284727 -0.039837 0.074892
0.273053 0.631258 0.082976
0.268745 0.555546 0.082429
0.269598 0.04917 0.07622
0.275306 0.698846 0.066867
0.284953 0.77405 0.075176
0.275869 0.752697 0.066842
0.268745 0.244612 0.082166
0.285747 0.575208 0.084202
0.284617 -0.337138 0.074047
0.281414 0.565086 0.06851
0.284953 0.505712 0.064246
0.270962 -0.347463 0.084942
0.283409 0.872283 0.069098
0.272514 0.370198 0.073577
0.268745 0.494584 0.076239
0.284953 0.245954 0.077316
0.27152 -0.110253 0.070211
0.272204 -0.192032 0.07467
0.284688 0.585999 0.069268
0.279783 0.474187 0.073597
0.273055 -0.325791 0.084938
0.275911 0.257243 0.072251
0.269598 -0.435854 0.077785
0.283848 0.817691 0.069225
0.284953 0.498769 0.076174
0.268745 -0.055951 0.074784
0.27571 0.061996 0.074524
0.278641 0.906348 0.072895
0.274083 0.118021 0.058625
0.281502 0.284991 0.069743
0.285806 0.866007 0.0828
0.269842 -0.12555 0.08491
0.285806 0.522994 0.081197
0.281152 0.187663 0.074466
0.272594 0.534349 0.069306
0.275775 0.924775 0.073196
0.28413 0.657633 0.068429
0.283974 0.117868 0.069644
0.280396 -0.00975 0.058824
0.282387 0.318667 0.069863
0.27204 -0.09424 0.074641
0.269598 0.78834 0.076024
0.275926 -0.015363 0.076032
0.284039 0.605357 0.074197
0.285806 0.168838 0.074478
0.284702 0.028911 0.073775
0.269598 0.582886 0.081938
0.278167 0.459173 0.068073
0.27446 0.249482 0.059661
0.280664 -0.102307 0.084882
0.274102 0.426165 0.069286
0.27864 0.834482 0.070668
0.278198 -0.20377 0.075743
0.284953 0.330199 0.067422
0.269265 0.676669 0.084682
0.285806 0.531803 0.06203
0.284953 0.010508 0.075435
0.285806 -0.351506 0.060224
0.269598 0.569533 0.066626
0.276393 0.398128 0.06769
0.268745 -0.13491 0.064094
0.27448 0.600735 0.059176
0.284214 0.389537 0.069746
0.268745 0.55272 0.067309
0.278696 0.409995 0.069543
0.27163 0.078528 0.073398
0.285806 0.541686 0.083275
0.282088 0.629277 0.073336
0.285806 0.194886 0.064816
0.272599 0.039086 0.068925
0.285806 -0.450402 0.062657
0.268745 0.291512 0.076051
0.279976 -0.428287 0.074811
0.284409 0.168913 -0.073206
0.276372 0.168365 0.006774
0.282857 0.171043 0.047582
0.27823 0.138421 0.031682
0.284027 0.171043 -0.109631
0.276796 0.146719 -0.019472
0.269631 0.169302 -0.130136
0.271435 0.171043 -0.053051
0.276372 0.148892 0.009474
0.276372 0.156184 -0.041252
0.278505 0.165076 -0.092281
0.276372 0.154292 0.040921
0.276372 0.158419 -0.009053
0.284713 0.170604 -0.133422
0.27806 0.156149 -0.077635
0.276372 0.160136 -0.060012
0.274415 0.171043 0.036489
0.271265 0.171043 -0.029617
0.273311 0.168912 0.022043
0.278505 0.158539 0.05372
0.277874 0.168913 -0.041537
0.276372 0.160313 -0.021246
0.276372 0.146535 -0.006456
0.269188 0.170068 0.057631
0.285188 0.374083 -0.044177
0.276377 0.347717 0.014227
0.273548 0.373793 0.056801
0.27851 0.341073 0.047899
0.276377 0.362355 -0.015947
0.277055 0.358723 -0.064318
0.276377 0.367528 0.030533
0.268914 0.375537 0.00464
0.276377 0.369783 -0.127158
0.285696 0.374621 -0.085344
0.276377 0.367334 -0.100482
0.26934 0.375908 -0.069075
0.27851 0.356604 -0.044036
0.282714 0.375908 -0.024412
0.27851 0.350824 -0.003981
0.27851 0.35065 0.034239
0.28276 0.375601 -0.113418
0.270181 0.373843 -0.03928
0.276377 0.366091 0.013683
0.277565 0.373778 -0.05735
0.285989 0.375584 0.023552
0.27851 0.370117 -0.002713
0.276377 0.360332 0.042369
0.282967 0.375908 0.009825
0.285416 0.375279 -0.1329
0.276377 0.362693 0.054832
0.276865 0.559121 -0.037608
0.276377 0.55592 0.010341
0.277686 0.565881 -0.079304
0.276377 0.563122 0.035378
0.269344 0.579141 0.010555
0.276377 0.562339 -0.019172
0.27851 0.563526 -0.054073
0.27359 0.57853 -0.114678
0.282602 0.578505 -0.041946
0.27851 0.577796 -0.068175
0.276377 0.547932 0.041324
0.269699 0.578884 -0.131145
0.27851 0.569993 -0.102024
0.276377 0.578463 -0.087762
0.268989 0.579777 -0.003979
0.271327 0.580638 0.049116
0.276377 0.567128 0.00139
0.280488 0.580638 0.004876
0.27851 0.563959 0.047468
0.27851 0.551115 0.057539
0.276377 0.57518 -0.02752
0.272664 0.580638 0.021676
0.27851 0.565346 0.016842
0.276382 0.774949 -0.088689
0.276382 0.76187 0.007372
0.278515 0.751491 0.045098
0.278515 0.783132 -0.056559
0.277898 0.761688 -0.024287
0.278515 0.778211 -0.125933
0.278515 0.780533 0.022052
0.276382 0.782105 -0.009334
0.270452 0.783374 -0.106032
0.276382 0.758802 0.027021
0.276382 0.777383 -0.038469
0.278515 0.773706 -0.072535
0.282718 0.78337 -0.024249
0.278515 0.764732 -0.009047
0.27739 0.785176 -0.139171
0.282379 0.783865 -0.113763
0.283817 0.785502 -0.077295
0.269924 0.783872 0.055971
0.278515 0.778306 0.043691
0.278515 0.780847 0.009104
0.269269 0.785502 -0.12283
0.276382 0.760584 0.052189
0.272639 0.783375 -0.075116
-0.269564 0.754634 0.041795
-0.267431 0.760904 -0.017996
-0.269564 0.768452 -0.065677
-0.269564 0.769644 0.014102
-0.267431 0.775677 -0.089431
-0.263311 0.785502 -0.119508
-0.261709 0.783394 0.056035
-0.267431 0.773065 -0.036246
-0.276129 0.785502 -0.000527
-0.260696 0.783714 -0.022849
-0.259963 0.785442 -0.052998
-0.262016 0.783369 0.033614
-0.262743 0.785502 -0.102385
-0.267431 0.762049 -0.001119
-0.274889 0.783407 -0.13372
-0.267431 0.772027 0.046736
-0.274183 0.783373 -0.027932
-0.261017 0.785479 -0.134625
-0.263066 0.785502 -0.065812
-0.271141 0.785502 0.047547
-0.272569 0.783374 -0.048358
-0.269127 0.764156 0.058168
-0.269569 0.554318 0.011926
-0.267436 0.573757 -0.079229
-0.268134 0.558467 -0.033523
-0.275272 0.578934 0.056865
-0.274953 0.580638 0.011842
-0.269569 0.574457 -0.012551
-0.269282 0.54701 0.037123
-0.276329 0.578872 -0.127886
-0.269569 0.567842 0.029046
-0.274839 0.578511 -0.099291
-0.274387 0.580638 -0.030232
-0.269569 0.566674 -0.063047
-0.263788 0.578505 0.041734
-0.26136 0.578542 -0.10702
-0.265687 0.580638 -0.057911
-0.276927 0.5797 -0.06846
-0.273858 0.580319 -0.11318
-0.273243 0.580638 0.025319
-0.269569 0.569191 0.007058
-0.269413 0.580078 -0.138153
-0.269569 0.357624 0.006471
-0.268394 0.362039 -0.084714
-0.269569 0.356896 -0.030003
-0.269569 0.358014 0.039342
-0.276242 0.374093 -0.130783
-0.267436 0.362639 -0.06138
-0.263602 0.375908 -0.099861
-0.261399 0.373802 0.03127
-0.268247 0.366821 -0.114204
-0.274051 0.373775 0.045207
-0.269569 0.370822 -0.015121
-0.269569 0.369244 -0.046091
-0.269569 0.342816 0.040097
-0.267436 0.365614 0.020247
-0.273945 0.373778 -0.030335
-0.266181 0.375908 0.056864
-0.269569 0.350102 0.016928
-0.269629 0.375908 0.014868
-0.265781 0.375541 -0.137779
-0.267441 0.150089 -0.033615
-0.269574 0.14492 0.016121
-0.269574 0.150753 0.055432
-0.26957 0.162168 -0.114656
-0.267441 0.160695 -0.00913
-0.267551 0.168911 0.026468
-0.269574 0.161057 -0.065015
-0.269574 0.166089 -0.094446
-0.267441 0.153301 0.036557
-0.276217 0.169553 -0.131447
-0.261024 0.171043 -0.02082
-0.263998 0.168911 0.004516
-0.259971 0.170948 0.045333
-0.269574 0.163337 -0.049922
-0.260885 0.169334 -0.130926
-0.266258 0.168911 -0.034113
-0.273967 0.16891 0.04318
-0.269574 0.15998 -0.023631
-0.263382 0.168911 -0.074684
-0.269574 0.158696 0.01571
-0.269574 0.148645 -0.016022
-0.27664 0.169587 -7.9e-05
-0.276962 0.170188 -0.064457
-0.261954 0.961127 -0.143737
-0.276572 0.937962 -0.031992
-0.274608 0.951278 0.028469
-0.277842 0.958613 -0.086202
-0.260622 0.960954 0.073203
-0.265293 0.959247 -0.005679
-0.266481 0.936998 -0.06257
-0.276175 0.936213 0.056167
-0.26087 0.96098 -0.035475
-0.275382 0.937755 0.006686
-0.265203 0.961238 -0.064206
-0.26165 0.939013 -0.090454
-0.277142 0.958466 -0.126684
-0.260504 0.938182 -0.012692
-0.273374 0.959434 0.048472
-0.260554 0.960783 0.017201
-0.265569 0.959346 -0.102483
-0.276305 0.961042 0.084759
-0.275771 0.94671 -0.048608
-0.262099 0.936128 0.019547
-0.277886 0.944277 -0.097913
-0.261184 0.945546 0.061292
-0.277163 0.960951 0.010592
-0.276518 0.950536 -0.143681
-0.276734 0.956026 -0.018487
-0.260925 0.95529 -0.124243
-0.262957 0.946969 -0.076157
-0.260434 0.94464 0.005835
-0.276671 0.950518 -0.064112
-0.277431 0.937003 0.023012
-0.277089 0.952277 -0.112604
-0.275411 0.937714 -0.013787
-0.266643 0.945909 -0.024579
-0.276419 0.945692 0.067924
-0.274871 0.945961 0.041905
-0.26032 0.951963 0.036146
-0.260635 0.960744 -0.019124
-0.260254 0.957955 0.053842
-0.275864 0.935914 -0.073096
-0.27753 0.953135 -0.003213
-0.262286 0.945888 -0.047405
-0.276256 0.93738 -0.143683
-0.267902 0.950419 -0.088986
-0.276075 0.961194 -0.030458
-0.270831 0.953517 0.059658
-0.276395 0.957545 0.071505
-0.261602 0.946958 -0.0999
-0.277675 0.956841 -0.041896
-0.26428 0.961002 0.08467
-0.270564 0.946729 -0.037811
-0.267223 0.951277 0.0144
-0.266037 0.960861 0.006084
0.271754 0.959582 -0.087421
0.280735 0.945926 -0.002659
0.26858 0.95818 0.039943
0.271123 0.935969 -0.049222
0.285009 0.959282 -0.127768
0.269753 0.961192 -0.02894
0.271227 0.935823 -0.112148
0.285201 0.938105 -0.076768
0.280177 0.937672 0.026709
0.268789 0.946489 -0.143743
0.285386 0.939588 -0.027799
0.285264 0.956676 -0.060242
0.269913 0.959424 0.014304
0.283866 0.961079 0.057401
0.26802 0.95629 -0.108773
0.2687 0.95713 0.071829
0.270325 0.936194 0.048023
0.269032 0.944891 -0.066493
0.268237 0.959354 -0.051103
0.268962 0.961106 -0.005267
0.284509 0.95919 0.026613
0.269441 0.93605 -0.014171
0.26948 0.936102 0.008126
0.28366 0.961286 -0.101378
0.284021 0.937585 -0.143801
0.284573 0.954945 -0.017043
0.284198 0.94662 -0.04494
0.284027 0.946894 0.047543
0.279494 0.959997 -0.143784
0.267938 0.956334 -0.130489
0.284011 0.950177 0.012945
0.275229 0.946884 -0.096592
0.268502 0.936047 -0.079795
0.26833 0.945504 -0.026491
0.281621 0.950158 -0.112845
0.271694 0.951278 0.057747
0.28475 0.961163 -0.030681
0.269415 0.943662 0.035099
0.284062 0.950535 -0.085174
0.268313 0.935915 -0.133424
0.269678 0.950516 0.004043
0.284238 0.939046 -0.106085
0.281891 0.936115 0.013796
0.269394 0.95151 -0.040714
0.273372 0.95961 -0.074496
0.26882 0.946962 -0.120415
0.269904 0.960561 0.084166
0.269221 0.954502 -0.016294
0.272953 0.946659 0.017918
0.285249 0.944685 -0.064089
0.284973 0.951232 -0.137434
0.284289 0.939875 -0.092631
0.281027 0.950161 -0.073516
0.284136 0.937848 0.040226
0.284563 -0.101323 -0.041733
0.285633 -0.09106 -0.123082
0.285695 -0.113253 0.025149
0.284462 -0.116115 -0.091795
0.285695 -0.096067 -0.007318
0.268723 -0.115637 -0.066823
0.28433 -0.116115 -0.13337
0.272564 -0.090524 0.017177
0.285691 -0.091325 -0.086211
0.270619 -0.105123 -0.108724
0.272526 -0.092221 -0.059724
0.280933 -0.092483 -0.14589
0.272029 -0.090524 -0.025053
0.274351 -0.115662 -0.009109
0.284598 -0.105293 0.047044
0.268634 -0.100652 -0.132507
0.285175 -0.116047 -0.056546
0.279145 -0.108352 0.008173
0.282144 -0.104947 -0.072988
0.284679 -0.105161 -0.024063
0.268634 -0.111169 -0.084136
0.284842 -0.097476 0.031964
0.285695 -0.100163 -0.103327
0.269487 -0.097164 0.000807
0.28083 -0.114234 -0.117673
0.284843 -0.116115 -0.035696
0.285438 -0.091563 0.05884
0.273125 -0.090524 -0.110652
0.272884 -0.101636 -0.013474
0.285695 -0.092158 -0.03043
0.284221 -0.101722 -0.058369
0.273338 -0.100589 -0.092772
0.269487 -0.093496 -0.0769
0.284515 -0.101323 -0.135454
0.274322 -0.115714 -0.049072
0.280006 -0.101238 0.018848
0.278815 -0.101263 -0.120006
0.284842 -0.110256 -0.004569
0.272058 -0.101698 -0.041108
0.28095 -0.116115 -0.078344
0.268634 -0.107231 0.018308
0.268862 -0.0915 -0.14589
0.281039 -0.105334 -0.14589
-0.275826 -0.090524 -0.07397
-0.277313 -0.099227 0.057565
-0.26111 -0.092991 -0.007906
-0.261443 -0.090524 -0.116041
-0.275229 -0.116115 0.015878
-0.275141 -0.104917 -0.037544
-0.275572 -0.090674 -0.145826
-0.272491 -0.114171 -0.101743
-0.272324 -0.090526 0.029395
-0.273797 -0.116115 -0.010298
-0.277313 -0.106099 -0.12737
-0.27646 -0.111756 -0.06586
-0.27646 -0.097701 -0.018848
